-8.494911682229309147e-01,-5.752981135042084526e-01,-5.581535846923993960e-01
1.078070030909266785e+00,4.019648668060537555e-01,-6.097561169055819991e-02
7.677095124106234625e-01,3.235207073590523064e-01,-9.514787549228321817e-01
1.061221493964382034e+00,-3.050286904032663560e-01,8.125000745430800697e-02
-9.406256945138309344e-01,-4.072771758948444121e-01,-1.061930709672481932e+00
-9.970894873870495001e-01,4.522151779998337950e-01,4.285715645857121614e-01
-1.000411177259902251e+00,-2.414531233601781568e-01,9.121869816194505542e-01
6.959010060283881138e-01,5.567975742145001711e-02,1.055610229401252154e+00
1.324711756771523863e+00,1.160868829466668757e-02,1.003700124190574222e-01
-4.533871129632171398e-02,-1.310142967175846884e+00,7.040165039755069687e-01
8.682212248516349984e-01,5.579524842873515578e-01,2.266261321094135139e-01
-9.779411973498032262e-01,-4.858041897779084017e-01,1.932759852873972006e-01
-1.272789068802258505e+00,-1.979616735679905482e-01,2.460293989063648823e-01
-2.109344343961176982e-01,-5.552878988653289216e-01,-9.791167150574532352e-01
2.866473094803450583e-01,3.806235243815044855e-01,1.001621066880355793e+00
-9.402418241427145107e-01,5.158898077571603125e-01,4.053596204936344427e-01
3.769003418475063705e-01,-1.210806587104992449e+00,-7.864288384620947703e-01
-9.015237229980367362e-01,1.940309704370791200e-01,-1.090532498161441266e+00
-5.268009004542670848e-01,-8.640738799220599731e-01,-3.643040579749092234e-01
2.358724478014939951e-01,-1.282498986400916419e+00,-2.440608737634313019e-01
5.707358592732741237e-02,-3.086435060038286715e-01,-9.832029003389297639e-01
3.876268687962052262e-01,-2.058662803670043839e-01,-9.809006745652264492e-01
-4.234445663209625010e-01,-9.772243801310317446e-01,7.657730813709425766e-01
9.828493258971773283e-01,-5.269586014957539088e-01,-8.334275489460828412e-01
5.919556378131233254e-01,1.079879012670682537e-01,-9.415712329891493537e-01
-3.518063457064011246e-01,6.298452720388354742e-02,-1.042856498189710157e+00
5.983308799578728188e-01,4.695140068511867715e-01,-9.805113764512550789e-01
-6.332925904890699398e-01,-7.952262199291854072e-01,1.446015403937481736e-01
-1.598755725936057692e-01,3.104624740699319929e-01,9.827438565624134759e-01
1.134080498137254034e-01,2.450880999746756217e-01,-1.031597360256725215e+00
6.724504889287424847e-01,6.984848206475231802e-02,-9.730732495871970977e-01
9.466502406824711668e-02,1.242354504901780121e+00,2.011983453596731530e-01
-2.808602660664018535e-01,2.643268176794540819e-02,-1.026936303756393221e+00
-7.789592644859281156e-01,-6.690850600086426514e-01,4.254316661827589607e-01
7.930475571901067777e-01,-3.510393924757156808e-02,1.066227086471817742e+00
6.662880174933266675e-01,4.882642775623866616e-01,1.035608188246099237e+00
-4.729668953828309319e-01,6.145380732640856047e-01,-1.067439779686677026e+00
-4.496058146379408593e-01,-9.445077992085053609e-01,6.949037919003227259e-02
-1.379428524982458715e+00,-8.778049233872914359e-02,-3.327892139922168924e-01
-6.992654302978806857e-01,-4.959122348503374744e-01,-1.018027621507590741e+00
-7.438963415227959342e-01,5.709275064240274533e-01,-7.705622230333291078e-01
1.032569329503028488e+00,4.213021713586152517e-01,1.917854245796600243e-01
-2.251756545612956101e-02,-8.372253575366096490e-01,1.031284944486989819e+00
-4.676953064059175547e-01,9.331872081091330262e-01,-4.086133907195532156e-01
7.666617855733552922e-01,6.566668994721259756e-01,4.343271570390491026e-02
-1.350657096013256231e+00,9.174087888845966487e-02,5.946953699349898370e-01
3.805401072247344696e-01,9.880933133008537039e-01,7.317487613220881038e-01
4.108728505454164320e-02,-9.619071655991394687e-01,-9.552131510802541747e-01
-9.953428524108868247e-01,3.941689086576047885e-01,1.617310630284285455e-01
-8.414260705933206130e-02,-8.958412750215677400e-02,1.010446273331460310e+00
-1.134626449879143184e+00,1.103547673579963889e-01,-7.700973640296924216e-01
-2.425167681774199613e-01,-1.080582831509069752e+00,-9.008671339357990915e-01
-8.491906638515572814e-01,-5.877264979120422339e-01,-2.110767302955276203e-01
1.021447221374120584e+00,4.631817401319018312e-01,-8.881675638016758301e-01
-9.244512597473146798e-01,7.780907801429884363e-02,9.106926964828887527e-01
-9.770849090028494999e-01,3.496038648962512263e-01,-4.328968991247569287e-01
4.487739076293451590e-01,-9.809223993794283780e-01,-2.312000702363977214e-02
3.587134293416741615e-01,-1.454182818213441419e-01,-9.740011492965774398e-01
-2.347803843631413867e-01,-1.121934857388826146e+00,3.952758328463838039e-02
2.450284092631155666e-02,1.278499500127894484e+00,9.410868070123163953e-01
7.849889907663896160e-01,6.185270103582596324e-01,7.937158728108923977e-01
4.987894861430478693e-02,-1.184123495682271043e+00,1.063929241564548711e+00
1.100610367993044847e-01,-3.119499496516205950e-01,1.036483795102070449e+00
1.114019836710339106e+00,1.571950925602582094e-01,-9.387677996133968472e-01
3.048764425620658081e-01,-3.200176563172294278e-03,-9.572638200624642435e-01
1.425254950860101177e-01,-7.355289328174615671e-01,1.032734876896283627e+00
9.937324164058173315e-01,-4.757086447693014697e-01,-6.452325174630869631e-01
-8.410421357129420628e-01,6.653375419431231674e-02,-1.063698927803218064e+00
-7.907137760766508316e-01,5.865884187927344895e-01,-2.972165914198093839e-01
-7.331451784252393522e-02,-9.833299810652100792e-01,-9.592354735222690110e-01
-9.316454790111491913e-02,-7.038621355277436820e-01,1.040005966055340902e+00
1.216901797896420417e-01,-1.391763124193160950e+00,-2.321279754684439367e-01
1.406807261582481150e+00,1.237110813528725928e-01,-7.831302199320165913e-01
1.258049474719901362e+00,2.046894869360001701e-01,6.708061776571001555e-01
6.871297447152980853e-01,-5.380428147223921265e-01,1.086015631524189562e+00
-6.203955360414240561e-01,5.295866545382276191e-01,9.318298648769365311e-01
-1.324507132312002511e-01,-1.214719451345534385e+00,-5.464166436399710003e-01
1.305972711564611366e+00,-1.368149691331708162e-01,-8.684639215309750693e-01
2.209694480611555656e-01,1.158295775098684421e+00,2.384850778734914634e-01
1.258232212102592618e+00,-7.551136754350920577e-02,1.830769126477178321e-01
3.491530689964198603e-02,-1.339847302005222396e+00,-8.777725281358176312e-01
-7.664272506548035491e-01,6.884754269097139723e-01,5.760700455664451436e-01
6.577231780947648820e-01,7.209466088918615734e-01,7.053815381262481532e-01
4.404016045711178218e-01,9.335710507622237975e-01,-3.205546407700185507e-01
7.780513831528502733e-01,3.112040852276046765e-01,-9.755444177649216231e-01
9.759365395178358493e-02,6.708222511347189387e-01,-1.024927087498085809e+00
-5.139080471270485173e-01,8.003670680804395587e-01,-9.888417070070150139e-01
-6.244967088304972380e-01,-6.342163415535925219e-01,9.817030001920412641e-01
6.395580705160636148e-01,-8.495729164434663305e-01,-2.920841969759787049e-01
-7.155700393753029465e-01,-2.209225967107029398e-01,-1.049121915721524134e+00
-4.983248100166415284e-01,-8.812739113382530576e-01,3.008524474402928667e-03
-5.839764641269638012e-01,9.145909728097988411e-01,5.596661769797242059e-01
8.559388644153163028e-01,5.673573091578747452e-01,9.550563586350097056e-01
-3.587647589123549863e-01,-1.016967525889346025e+00,-4.775619868359844977e-01
1.056481255460308244e+00,-2.505652740937339140e-01,3.659971271761631173e-01
9.024162904854506895e-01,4.225439636318802372e-01,1.048285489627885925e+00
5.819709079439207011e-01,7.923321164438793529e-01,9.926713723777168263e-02
3.197435714920190408e-01,1.043578377908034094e+00,7.184751218474350054e-01
-7.198552645155166241e-01,6.966751583481993748e-01,-8.750127171643057311e-03
-1.972078535341248995e-01,-1.158729727476664140e+00,2.125041109790196392e-01
8.131463443294207893e-01,-1.820137359818973233e-01,1.066550858746347918e+00
1.520226023174926222e-01,-1.210094851202542010e+00,1.055881079578596005e+00
1.357070865302774099e-01,-7.232767783853831789e-01,1.053947542044495700e+00
2.513354534018041875e-01,1.117822168475543609e+00,8.533543037798237973e-01
7.998609520040637910e-02,-5.542244738391532977e-01,1.015288925189129055e+00
2.112289263463999478e-01,-1.759142564377244936e-02,-9.899285018930422675e-01
-4.183499950645716003e-01,-9.749180525669589592e-01,-7.187864163518452656e-03
-4.592865254391512719e-01,-9.028459722623752848e-01,-8.747903510805538074e-01
3.221583486820702724e-01,-3.537741304496317407e-01,-9.616507177495153824e-01
-1.177954654692266123e+00,-2.088657482562657208e-01,9.216792644954318048e-01
7.719326520703463368e-01,-6.672977335870223792e-01,-1.805916117745152150e-01
1.393061545860823647e-01,-1.244011941761850260e+00,7.833700093799967901e-01
9.628459996577536373e-01,-5.228706207521245375e-01,-7.174457883759902677e-01
-7.057892445791762448e-01,-6.807231981900855322e-01,-6.899656098362543233e-01
-5.528141722795981705e-01,3.277246635958668830e-01,-1.065488232957040537e+00
7.733981319713427727e-01,-6.524916851930294692e-01,-2.788021142525247409e-02
-5.460366885945415749e-01,8.656233922448152152e-01,-2.599192517618783005e-01
-9.712796116717898887e-01,-4.819217670962998024e-01,2.799775145615856498e-01
4.719650385547648486e-01,-3.663063658067452488e-01,-9.503291554600006297e-01
-8.505542755281250145e-01,4.107964049691675279e-01,9.217917618688229453e-01
-8.409163857219224825e-02,1.294728502164726569e+00,-9.940581452139984897e-01
1.265691811799996458e+00,3.976506055411418994e-02,1.009157878882357195e+00
-1.252485276441520190e+00,-2.238825369640195517e-01,-1.513728848676928473e-01
-8.332689776883813737e-01,6.245370276906193618e-01,5.439181786150395492e-01
-1.035879620346061403e+00,2.305610167837019164e-01,-1.020249003132794874e+00
8.358677108573843162e-01,-4.976515282945222496e-01,4.691267463507871049e-01
-2.213627340993591097e-01,-1.159771597990393088e+00,4.514075041561660950e-01
-4.065943269421100070e-01,9.315943650860546432e-01,-9.278795241580435338e-01
-9.628763928202341837e-01,2.429950375885556527e-02,9.284358515983316407e-01
8.002158827013443609e-01,-6.735606803060130154e-01,-6.967963579006322128e-01
6.093280565610605937e-01,7.779105738883230758e-01,7.796361723048129688e-01
2.363535000741181780e-01,1.138759045597210529e+00,8.010736320417746192e-01
7.186355587987711679e-01,-8.176112003122013583e-01,-7.806198494868058502e-01
-1.015503584634290135e+00,-4.314200407360719858e-01,-4.167373490299883243e-02
-4.281584175407124326e-01,5.603719017494194210e-01,-1.067825782700509096e+00
8.410164724331595787e-01,5.782542156347796336e-01,6.161665439031820402e-01
1.177694449689937528e+00,3.317147731634224050e-01,-4.628298593060665156e-01
4.234430132002321434e-01,-1.004441497025720276e+00,1.461139344193584655e-01
1.007425018044603160e+00,4.469869909752184345e-01,-8.449062862918932382e-01
-1.167858609847025830e+00,1.318446084648725869e-01,-3.445922319614075358e-01
9.612258692012947137e-01,-4.418484800399251622e-01,7.399080408557308364e-02
9.410059009740211478e-01,-5.210001797379123500e-01,-5.316386972359727903e-01
4.906712110599813909e-02,5.635835047496521311e-01,9.942827794277143694e-01
-6.259296469416275599e-01,7.741614319411045386e-01,-1.543204850283835250e-01
5.385785324326561319e-02,1.318033698579530233e+00,-9.632625148828514172e-01
8.966122425792102391e-01,-6.264085285556628691e-01,-8.487094615730355063e-01
-4.423134372700976980e-01,-9.176064038359850183e-01,-8.931169792142749919e-02
9.598085698288376655e-01,-4.517322029871760902e-01,-1.113075762264473384e-01
-1.089375913149670527e+00,-3.512848924528410577e-01,-2.856740638982781522e-01
-6.335855321369001647e-01,7.881919457278481200e-01,4.706771627926367718e-02
4.810252384140499826e-01,-9.002692316959831631e-01,5.541680618855366891e-01
3.116706211663469034e-02,1.291866665122774593e+00,8.883497249758105507e-01
4.790637500947375615e-01,-9.873589694194565558e-01,-2.371592770200798006e-01
7.333536881718425438e-01,1.024501395625414535e-01,1.054499382426733689e+00
3.443169112953528566e-01,-8.316636864202178736e-02,1.028132654501491494e+00
8.894110293421184643e-01,3.019189416097718404e-01,1.047681433047610744e+00
-5.331230259991116827e-02,-1.321941285816866873e+00,7.441592658796869486e-01
1.257137208030563391e+00,2.517432441738263749e-01,-7.506463450230046464e-01
-1.863479609941419701e-01,-1.168613686132492724e+00,-7.141281464112148036e-01
-3.115370473543284113e-01,1.712118003563390944e-01,-1.040456328046239109e+00
-5.160745110172858530e-01,7.900202714080375443e-01,-1.004864242135373287e+00
8.923254617386081056e-02,-1.395768340617455916e+00,-1.565260775277670380e-01
-4.680491359838373500e-01,9.859261701474232309e-01,-6.535674318910907055e-02
-2.794431795682801312e-01,1.165305332617095235e+00,-1.782640770698516730e-01
1.161649795863695989e+00,1.598086199339390778e-01,1.082854157131396988e+00
5.696938360099157439e-01,8.194855086692678370e-01,-1.941832070836094215e-01
-7.352723961674518804e-01,5.839588002229502139e-01,-7.251288712566084094e-01
-4.410311173415937813e-01,-9.847727590006093434e-01,7.012842322077836865e-01
5.079785849170797007e-01,-6.884153033926265763e-01,-9.318880180988404760e-01
2.106257002322245442e-01,1.155518084421560232e+00,1.046585782878692306e-01
1.138896224052159400e+00,1.243637720112003991e-01,-9.184521974110150255e-01
5.030097039634280343e-01,-6.469881477620402777e-01,1.066569284569115261e+00
8.019626395847855305e-01,8.653736184244750773e-02,1.065222915019695682e+00
1.014342369315832659e+00,4.165459241136826307e-01,1.302907089110779126e-01
4.248357689948928373e-02,1.330258256428493935e+00,-1.028527248219317070e+00
-3.921575149515507119e-01,1.047296818377151828e+00,-1.339737230939314350e-01
1.163799853493106662e+00,2.848734932119902918e-01,9.684642155475661207e-01
-6.433305835372887804e-01,7.500164428449253018e-01,-6.680535326490241732e-02
5.422237114318041451e-01,-6.566224928978485476e-02,-9.710867610739826183e-01
-8.913512739664487539e-01,2.622249794178898585e-01,-1.077058051728633892e+00
1.013638633075884865e+00,4.376469789346263961e-01,-1.896331936208736635e-01
-7.075115254746237037e-01,-3.342408496769752602e-01,-1.044620930674649895e+00
-1.919139041394302692e-01,-1.151522973775205072e+00,-4.018360510919771200e-01
8.943258110187504162e-01,3.209641926568345682e-01,1.054209619013900090e+00
-6.435461219745435280e-01,-7.603815402567746240e-01,-4.979047598344804038e-01
-5.603495430556009183e-01,-8.584552703242978033e-01,9.049612846241464892e-01
3.542252155394694929e-02,2.135880780510399958e-03,1.008743092008555386e+00
-1.524209932803275054e-02,5.143891325010477855e-01,-1.025714226169188503e+00
-6.198415097021642284e-01,8.289927489051145404e-01,3.423748083373722578e-02
-1.158113050023025892e+00,-3.138720223227770556e-01,3.414583001285816932e-01
7.902963896175486669e-01,-6.577532047680335614e-01,-4.646516303019008753e-01
6.183811303541199011e-01,-8.622825904859358070e-01,-9.330201340700566837e-01
-4.658765847870273702e-01,-9.131720763142137098e-01,-3.238537469271918212e-01
8.828186150002821364e-01,5.878254205063243587e-02,1.074412503695187482e+00
1.408079844163631744e+00,4.175604720735605346e-02,-1.845613995503194438e-01
-6.280632341848393363e-01,7.384700203300583743e-01,-4.800761870377486251e-01
6.103605062467012399e-01,-4.734981018804904074e-01,-9.428177970767817051e-01
-8.524508465031255255e-02,-7.140205070974123824e-01,1.047027133450446845e+00
1.142287371681920183e+00,-3.152870824342957068e-01,-7.326380508988874496e-01
5.477823163104921234e-01,-9.023439982281724614e-01,-1.434625536220019704e-01
1.097400605844168320e+00,-1.794313941278682656e-01,6.124087617668414474e-01
-1.053674256223381400e+00,1.945470371603917059e-01,-1.053510709578193483e+00
-7.511391591250164979e-01,1.655558954229980340e-01,9.269569687646224132e-01
-1.273528786358435250e+00,1.613633119527853321e-01,6.216008245652279163e-01
6.919360944755397202e-01,-7.871034573668862500e-01,-3.557736193356236254e-01
-9.144128408902180150e-02,1.425204781406970378e+00,1.791210999154596029e-01
-1.361255602486069805e+00,-6.634462880846071775e-02,-2.456829503850931906e-01
7.444560153765806820e-01,-7.014429214196575835e-01,-1.546352512296748083e-01
-7.538177922915361151e-01,-5.474053386024309020e-01,-1.037321079655098455e+00
1.157516515023782278e+00,1.517601750514541437e-01,-9.235702479773091333e-01
-1.260503765994093195e+00,-1.524928163142565407e-01,9.157601462442835905e-01
-9.712337348415365224e-01,-4.846204126521413413e-01,4.736922206925227030e-01
-1.139484730159976644e+00,-2.905522128200559995e-01,-6.735650562530680618e-01
-3.061323698699889295e-01,1.038385660020516799e+00,-9.480576386247658860e-01
4.219308354770628933e-01,-1.020461642799749713e+00,2.027846464398501691e-01
-8.848326001370627747e-01,-5.622862265036070450e-01,-1.194384682375724260e-01
-1.092768350297454560e+00,3.111580631908371641e-01,3.047957136709594783e-01
-1.003094121623987478e+00,3.254616061169152141e-01,-4.766165827488319517e-01
6.828273200142030985e-01,-3.781039452404871271e-01,1.095552115047235153e+00
5.222144251663357606e-01,-9.809446558761540924e-01,-4.230758347289299559e-01
-4.676716395237004442e-01,3.227416596268993243e-01,9.477878725714697916e-01
7.914228100227528595e-02,-1.161989595170402012e+00,-9.502050031885510561e-01
1.094893165236982435e+00,3.381239639144988374e-01,7.872875881458717418e-01
-1.988116549094880170e-01,1.371693403163344982e+00,6.714374676606831294e-01
8.718530719358470737e-02,4.544247515708369489e-01,-1.036269472501866629e+00
1.177298191951805073e+00,2.438684383873339356e-01,1.079636409179617340e+00
-2.543349784938402913e-01,-1.000171605329720270e+00,-9.526654891156548510e-01
-3.479195866535925719e-01,-1.025599535945707741e+00,6.502637222227281022e-01
-4.589278863459525515e-01,-9.095466249084230848e-01,-9.430776203611880293e-01
9.895831437188008783e-02,-9.983321684456403222e-01,-9.701819307344105026e-01
-5.573291686022040503e-01,-8.389623632633694816e-01,-1.576972734659345121e-01
-4.986886599781704121e-01,9.033801936611647321e-01,-2.651408290914766125e-02
2.033906476344898503e-02,6.090758623368233149e-01,9.794386446408120950e-01
6.604580190442977949e-01,-1.594108944895815672e-01,-9.471969760113098102e-01
-8.728957640948364904e-01,4.721932070441791085e-01,-4.541568389886135315e-01
-1.623513400582823063e-01,-8.742445357639557768e-01,1.035258814016624340e+00
1.297283987901257873e+00,-8.786878089239810730e-02,-1.757542851646889670e-01
-1.279246120524725638e+00,-1.963555500533926967e-01,2.944052368294347022e-01
-8.959142102062408464e-01,3.885314512691152022e-01,-9.689578053344551911e-01
-1.086614599851979390e+00,3.887354390875086829e-01,6.642499407773003739e-01
7.475144899306657154e-01,6.724551468451496206e-01,6.028132545476093673e-01
-1.313424107099256721e+00,1.179786382648696369e-01,6.114170997142548414e-01
-1.266300408089598539e+00,7.432237470874296370e-02,1.276166499353972583e-01
-7.280578892114492051e-01,-7.079735833745414153e-01,3.647123098569943905e-02
-5.415103895958126023e-02,-1.071112506963603606e+00,-9.664742312283052250e-01
-5.499920905105413205e-01,-7.402433745403983467e-01,9.899822076255455627e-01
-4.851415451971631820e-01,1.254535787246499612e-02,-1.052036516096669150e+00
-1.365504421212551556e+00,-1.044234005722236014e-01,-5.457468287782222260e-01
4.787468855345957119e-01,8.922012930191312030e-01,2.693046875427614895e-01
-1.155383298302367523e+00,3.239494834741271090e-01,8.316052112365974747e-01
-5.850118998217336275e-01,-1.538786794188040374e-01,9.750793953924414836e-01
-1.951119876410624399e-01,-1.173166018392783227e+00,2.149741795180628440e-02
-1.151767924097814921e+00,1.246763909044640295e-01,-5.323090243230323981e-01
-1.141858954666000070e+00,-3.441620411413093272e-01,5.657802360762169691e-01
-4.244623035544494161e-01,3.096389833450384210e-01,-1.043445853164100212e+00
1.745703904484722374e-02,-1.213977583181310438e+00,1.058346516948282412e+00
-4.439752469653542311e-01,1.022190574465805302e+00,9.643848180279374072e-02
1.180158027400648013e+00,1.523118492920413625e-01,-9.464847980039993169e-01
-1.472208674335387657e-01,-9.481888851332718193e-01,-9.628610552577736570e-01
5.466963244822843349e-01,-7.983754387302444133e-01,7.083890254972933231e-01
1.182973453272580938e-01,7.788879860587952786e-01,9.724047183590749377e-01
8.170283119489072376e-01,1.956621964856644635e-01,-9.344303623543558368e-01
-1.371262294371844437e+00,-1.095407001768868849e-01,-3.107591859024542158e-01
-6.971013874147615752e-01,8.095409200326555421e-01,7.110652772705595703e-01
-8.529960444911039996e-01,-1.526201284962213356e-01,-1.078494478991949501e+00
-9.670484038198146060e-02,1.278715481017452582e+00,-8.051589573386163101e-01
2.365060532598763365e-01,-8.246230342664044866e-01,-9.701514208668836625e-01
-1.161046187978820136e-02,4.920547750626547145e-01,-1.029939159366690893e+00
3.625278068891804040e-01,-1.043731884375479702e+00,5.635748436011414064e-01
-1.288326897042909369e+00,9.344455058567230354e-02,6.817991626791501669e-02
-5.011785677710330900e-01,1.017233063327948051e+00,4.122290259139901325e-01
1.265148751655114534e+00,2.193368159519422933e-01,1.496108117204000831e-01
-1.550176075498181094e-01,-8.052415383452011799e-01,1.028067255377995037e+00
1.024227251062849869e-01,-5.714560987050720797e-01,-9.728937003639100967e-01
-1.027105444165577058e-01,1.411116809886612478e+00,5.602949899695964797e-01
-1.369115433165425388e+00,-1.217966971714812691e-01,-3.460708869652339703e-01
-6.046668493903688546e-01,-8.118602425029506353e-01,5.436120245374558291e-01
-6.752459520904170454e-01,-6.925714124647733838e-01,-5.811373513252624523e-01
-8.932670993432855200e-01,5.053964628974776385e-01,9.194756252718473410e-01
5.582343931086130029e-01,4.341315541627892016e-01,-9.687719074563343469e-01
-3.167745900806445136e-01,1.034693189776288547e+00,-9.448998440941398513e-01
1.011043533774295122e+00,-3.520988015035326768e-01,1.986848736416331473e-01
-1.278622344493975715e+00,-1.823764131879930805e-01,-5.618904758441743974e-01
-9.925013834823367409e-01,2.594603180414661869e-01,9.018298053661536473e-01
-2.060702136237521909e-01,-1.149278772115075009e+00,-2.946615175696005728e-01
1.178454824534746148e+00,2.927160257226429918e-01,1.603192291813545223e-01
8.026975465793119158e-01,-2.499383016466255603e-01,1.081429540773493514e+00
-1.273241151739265220e+00,-2.152411192201691414e-01,-3.482202367911364782e-02
7.770773679121822930e-01,-7.030056913360114290e-01,-3.659993579262986185e-01
8.204966683233019253e-01,-5.436120082050583946e-01,2.258185927068405707e-01
-1.229259234681435276e+00,-2.379184397802441286e-01,-5.328879558245179782e-01
-1.195904442514754695e+00,-2.769104473774927633e-01,-5.448253468492981755e-01
-2.949361583841550449e-01,-1.067679688117385117e+00,-4.574445735021940851e-01
2.061784549299539859e-01,-1.382347710819963105e+00,-7.570790017099354730e-01
-2.199748412547995469e-01,1.184274473954637585e+00,-5.351019607785794108e-01
2.628490670933606443e-01,6.519930140922026718e-01,-1.016732593941644058e+00
-1.679679715241934324e-01,-5.740874430395577210e-01,-9.913136262949230337e-01
1.400419972936398361e-01,4.436932900696192728e-01,1.002009109876599746e+00
-5.326093005530390112e-01,-8.418895862667101770e-01,-1.004490854584610071e+00
1.230260525813625661e+00,-1.412217608115160505e-01,-1.007536558146249900e-01
-4.887323605334782939e-01,1.604301151431399286e-01,-1.034599903033600610e+00
9.182127334067631264e-01,5.021638822545340108e-01,8.493383822080516898e-01
8.089978172087540775e-01,6.087841304658704322e-01,8.045285006504743208e-01
9.992447397992287872e-02,-1.341341285547775986e+00,4.120760906043952065e-01
6.175447077367335336e-01,-6.826912027725038357e-01,9.907174680686843260e-01
-5.013443480304615729e-01,8.504510475095322652e-01,-8.853426832345856479e-01
-1.068197864789328211e+00,-3.741332890551548052e-01,-4.433658051337842632e-01
6.957566171972050517e-01,-5.858737477458048071e-01,9.858286096950609201e-01
-1.301958391407433746e+00,-1.685357391532854854e-01,-2.888977118505089980e-01
-7.239225500082934195e-01,-7.116681135928498714e-01,-5.147414820958023940e-01
-2.722076373283088269e-01,-1.105892442822107746e+00,8.825118950469125201e-01
1.052543981021203112e-01,1.272321712921148817e+00,-7.090375222177196513e-01
-1.097119476955197737e+00,-1.281274336125517652e-02,-1.084210360624281222e+00
-1.000914524735440070e+00,-4.653294223524401252e-01,7.785585059121256923e-02
-8.577133601180750855e-01,-1.690571253015318298e-01,-1.054607264000501532e+00
8.531128592544559575e-02,1.251992263793642701e+00,-3.545720952417681371e-01
4.289424543075616714e-01,-9.721453366397575513e-01,3.774516627592991447e-01
-1.333810311437482743e-01,-1.210273276811962173e+00,-3.748251620830040376e-01
2.638888397794278973e-01,1.108023494189417812e+00,4.489014834650207897e-01
-2.760835647488730782e-01,1.292499424316375878e+00,6.580367626016970783e-01
-4.841811251519043992e-03,-5.272188110665172456e-01,1.020080203295118393e+00
-8.005150246643416567e-01,6.428310550640033982e-01,9.205711747641289744e-01
5.217245874643062775e-01,8.681515077391638302e-01,8.477676128085477603e-02
-9.943460266128499592e-02,1.328034218171405767e+00,-6.408515424656092696e-01
6.816404232140507169e-01,-2.747077386490113793e-01,1.076532767234390953e+00
1.057367376011343785e+00,3.592025015638893870e-01,9.223161900287329962e-01
1.845939979947136544e-01,-6.475650003138384569e-01,1.030281793602446871e+00
-9.366086110716762003e-02,-1.130409521027764930e+00,-9.632913547975650026e-01
9.436059610713758428e-01,1.077425961729972237e-01,-9.381767863743876168e-01
6.186484523291282400e-01,7.590161618120950804e-01,6.187226700675221291e-01
2.760348771267839840e-01,2.602290640826051549e-01,9.991213304412839280e-01
1.434507275963728956e-01,-1.309201606751160263e+00,-9.447651873718558857e-01
3.435032398870516146e-02,1.302860006015674199e-01,9.916711163876478219e-01
5.283004250369415233e-01,-8.549446541123595367e-01,2.642170150534876583e-01
1.450982428099325261e-01,-7.852940348495521805e-01,-9.698973989370974769e-01
-3.070081179927148241e-01,1.029842163700014357e+00,-9.103311046326156841e-01
8.430114134982987784e-01,-5.620577897630691933e-01,1.193734863271039698e-01
3.056228557551810554e-01,-1.145603501160150195e+00,1.255640204078895539e-01
7.357419295743504728e-01,5.053533864724959468e-01,-9.659501603755972221e-01
1.135995172860057911e+00,-1.394414873393679255e-01,7.694094481648331429e-01
4.785183808925557725e-01,-9.947942674156485809e-01,-2.358712347522244623e-02
-1.169095392576992021e+00,-3.120611336693898674e-01,4.177993162784532366e-01
3.834192429810377445e-01,-3.474735662456983065e-01,-9.723471100959122371e-01
1.651831985015303483e-01,1.168533051222558683e+00,9.195174607685848711e-01
-1.170669489747097058e+00,-3.145228340153627955e-01,5.967172411294145995e-01
-9.948070789050668106e-01,-4.814172343776073615e-01,8.132116106088979057e-01
-9.493135348476761104e-01,3.837358214869055484e-01,-2.909182054532443162e-01
1.068522613036920088e+00,3.689484962573295612e-01,6.238298552660062057e-01
9.994869909639469974e-01,3.076217378181261286e-01,-9.448588973262357360e-01
1.023349905656401493e+00,-3.855901761978513531e-01,-4.358084504477366394e-02
-8.445117511241801989e-01,5.703813819858646328e-01,1.196573676696998378e-01
5.446354133074545745e-01,-7.863354707796025300e-01,8.725837258412210140e-01
-4.276161886429123982e-01,7.638043207808695723e-01,-1.062940671369444035e+00
-1.121636013501686291e+00,-3.436584856206838512e-01,-3.575272386545780834e-01
-9.112978285500636932e-01,-2.918347558197219027e-01,9.353372136613777865e-01
-5.061352052030232418e-01,8.255771246737747537e-01,-9.241383585073710272e-01
-5.948240306003466094e-01,9.667335131692168515e-01,8.227865299457096659e-01
-1.391673155179839583e+00,-1.382766880559520017e-01,8.551848241901457426e-01
-1.667357996762907635e-01,3.960667000862323484e-01,-1.036632800750401540e+00
1.262782177613561041e+00,2.071400615140687462e-01,-3.507382005092160582e-01
8.079267119969296002e-03,-1.352056457858434646e+00,2.819858690835112536e-01
-2.725386197257752881e-03,1.261202621353675890e-01,1.006879491225366463e+00
9.195158242805134829e-01,5.062553074549286380e-01,5.404928600426917029e-01
1.127839115290189209e+00,-3.610386344793198310e-01,-8.676423349086659353e-01
5.553630758164719294e-01,-9.360129610998466632e-01,-5.038828388660741009e-01
-6.154920894795194997e-01,7.865529263101362911e-01,-2.169258927081216537e-01
-2.807578882862716285e-01,1.111559272700185064e+00,-6.600708289768988379e-01
4.685496619057074597e-01,2.367549884560997686e-01,1.039121996408014059e+00
1.255567710549857718e+00,-2.208767940633812182e-02,5.803187176948704229e-01
-1.009723002225997757e+00,-4.382476682813553626e-01,-1.707377374955898752e-01
5.883892209269363516e-01,8.274693465670700521e-01,-7.675633381332950256e-01
-3.358228405540738537e-01,1.250897174017493937e-02,9.807360685039788750e-01
-4.732554843469543027e-01,-9.179594754001324519e-01,-5.179253005635943152e-01
-8.633499207805354070e-01,4.900057249989547836e-01,-3.665866411074473197e-01
5.117435455559223856e-01,-1.028160810801966196e+00,-9.025832679508933865e-01
-1.994006475312262994e-01,1.336661579938592359e+00,4.880606107268654625e-01
4.410230585531177971e-01,6.439896516983744101e-01,-1.003423964192171836e+00
3.524101695905468845e-01,-6.364629568652256930e-01,-9.457017102946527753e-01
1.389907121488375807e+00,8.101077993861116600e-02,3.144505062975839205e-01
7.686743277763440074e-02,1.261014859273522859e+00,6.364522161323126204e-01
-8.150325929428344773e-01,4.978418451427592539e-01,-6.251235804596423362e-01
8.099979789067603964e-01,5.799386762214593372e-01,7.475945715093038624e-01
2.859624498478829935e-01,-1.264895472343755989e+00,-5.112190545649772933e-01
-8.609734865153377825e-01,4.218850515489214748e-01,-8.097826873326789965e-01
-1.052245713987830511e+00,-4.512022585880403058e-01,5.867162742795628549e-01
-4.962754091296998071e-01,-9.093671186639975534e-01,7.540151315351490968e-01
9.550359585537092633e-01,8.273600602231134804e-02,-9.326656372473883794e-01
-3.313482256947219429e-01,-1.064354621737022999e+00,4.089343628438031897e-01
-1.406805562256397746e+00,-8.337449649384973127e-02,2.347939250208786466e-01
-8.162681315608531774e-02,1.289630437533134888e+00,-8.982595247258599036e-01
-4.073699795236973009e-01,-1.760750918854342983e-01,-1.024356458315103913e+00
4.934817409167672753e-01,-8.505896224355741220e-01,6.250942422867883375e-01
-1.340517683233828139e+00,-1.542764656062957096e-01,6.496849284932758595e-01
-1.580584756995649098e-01,-1.066540702614017011e+00,1.034878936643902403e+00
-2.695517713189881648e-01,9.942109353189845233e-01,9.426938659256792752e-01
-4.804965592360752602e-01,-1.539403980805485218e-02,9.738954517324096560e-01
1.642591178194413581e-01,-6.602893257364048640e-01,1.047383133670161115e+00
7.419588377693860926e-01,-7.609016561311342519e-01,-5.712713902903373553e-01
2.776915511417160087e-01,-1.156647263046152618e+00,3.012454011781503516e-01
1.468226053156955480e-01,2.593519938616112852e-01,9.984623042855199637e-01
6.357646998851039788e-01,-8.456612332146115074e-01,-5.778375532105430867e-01
-6.135808117834423703e-01,7.482339273888299891e-01,-5.583339463449352724e-01
1.814375927090108864e-01,-1.200653251857138448e+00,7.564006182668706613e-01
9.536536918650332373e-01,-4.176761733724097536e-01,1.468640465610874524e-01
1.866803987004967968e-01,-2.185407856132986770e-01,1.034896695383149989e+00
5.226919453126717130e-01,-5.417272812885061128e-01,-9.323137711473701295e-01
-5.581342179184541064e-02,1.606794083125162309e-01,-1.014129272834705109e+00
-1.309949659559284385e-01,-1.220212791404490238e+00,7.338013264100560207e-01
1.038998778602281625e+00,-3.662579715672437675e-01,-2.538955258367956991e-01
2.880049313785933429e-01,1.074732808044641441e+00,-3.574403700242927417e-01
1.054319388159424831e+00,-4.161328617536957930e-02,-9.416661595342368241e-01
1.348734017073746294e+00,-4.235484566322070266e-02,-5.240473321917822336e-01
1.447635432315992343e-01,7.362465529044985857e-01,9.912394157693628083e-01
-1.026445864450265200e+00,-4.532620157662221039e-01,-1.881120772550902431e-01
1.848469240642187927e-02,1.334346322686218667e+00,-5.605561738987692166e-01
-8.774211216904844735e-01,5.529712962967673340e-01,2.913944235664917559e-01
-2.856066677541383991e-01,-1.100574423953382341e+00,8.437133262275400836e-02
-7.495674889593586521e-01,-6.734220922823836997e-01,1.068485499391218507e-01
4.358312774790876754e-01,9.586265236584285976e-01,-8.085595651897242719e-01
3.607270974962968335e-01,1.006021796347339903e+00,2.271900849341198791e-01
-9.984376142489755912e-01,-4.833077080008669757e-01,7.941103264001661000e-01
-7.286228029783103910e-01,7.529503549028503384e-01,5.991273851250024096e-01
9.879283241581711394e-02,-1.397803781709510806e+00,-7.268191179299158255e-01
-2.181223894860305768e-01,1.242545820158756475e+00,1.325065290076370694e-01
-8.879559871206010868e-01,-5.434275557953389679e-01,8.539744845314736210e-01
-1.157404297453929143e+00,-1.388661997754044863e-01,-1.094442099338188257e+00
-1.177034295260415142e+00,1.929236598184923823e-01,3.018718312552620339e-02
-7.963513509761908082e-01,6.603642882399218816e-01,3.466067345900035734e-01
1.299906714184459577e+00,2.114285337770240858e-01,-5.971962997553460495e-01
-9.821923810943382627e-01,4.266598005967809915e-01,9.046881949192292494e-02
-2.740506723180607951e-01,-2.706675027087350749e-01,-1.016338600900209110e+00
7.744989867779171755e-01,6.661294468050488193e-01,-4.934886589475152574e-01
-8.179141633834311476e-01,-2.329872001799995207e-01,-1.053820549548793117e+00
-4.650348743000707330e-01,1.057021458889068510e+00,3.919920752596769420e-01
-6.228340196207167168e-01,8.179289744454436573e-01,2.242608490998729553e-01
-8.898239114974038078e-01,5.108258230628434093e-01,1.782534098815350132e-01
4.517166804651104317e-02,-1.344560787609849761e+00,-4.265362583601213786e-01
1.300530473794796249e+00,-2.519207508803174289e-02,3.720921621411271696e-01
-1.056852088334581774e+00,-4.208342247305089101e-01,3.487325377324675402e-01
-8.909999143966000901e-01,3.534133024291097880e-01,-1.035743744992004167e+00
-2.115030408929093608e-01,7.244171907504423080e-01,-1.071491415309603346e+00
1.402062967352815659e-01,1.233465363985732477e+00,-6.284348354434372563e-01
-8.075841229647079400e-01,-6.233061557057631985e-01,9.219429188364381966e-01
-9.247878578255283033e-01,-5.304330905801091234e-01,8.809496705798117722e-01
-8.488001465267014378e-01,6.659519404980975832e-01,8.722375076189390342e-01
5.330577409997063754e-01,8.394754070378281918e-01,9.124844958211386636e-01
4.416976729969566695e-01,-9.212414717122685559e-01,6.289691267909226502e-01
5.600893891187503915e-01,-9.869447280651794108e-01,-7.368349271570081571e-01
-7.157695761655714639e-01,-6.934381976189148977e-01,-7.644713123337737448e-01
3.858933347982551609e-01,3.930804909877517739e-01,-9.961702242250713990e-01
7.533425509548853372e-01,5.253673916454626447e-01,-9.752861011894214949e-01
-1.146828604204848778e+00,2.232763349416620469e-01,-3.233416954376056029e-01
-6.295335968957370687e-01,-7.628259201730770434e-01,-8.327739878135681506e-01
1.025860755569034666e+00,-2.475474275727974349e-01,8.665933751111060124e-01
6.509413321944852449e-01,1.195793359175476300e-01,1.042082800649218877e+00
1.703796608193447748e-01,-1.417234931737479275e+00,-9.388436323801665484e-01
1.069393480057386325e+00,3.003552386571178290e-01,-9.333868177430638680e-01
-2.529708923617171590e-01,9.712445877433202313e-01,9.761524427455463560e-01
-3.449152771145838625e-01,1.059983654156321897e+00,-4.988859334815564650e-01
3.841902843506895815e-01,-9.787339440456499506e-01,7.967414412127080681e-01
-1.347150857853137429e-01,-6.654490458162634070e-01,1.030518624994900545e+00
5.281315395329486684e-01,8.374741422057024876e-01,8.988491363916766286e-01
5.452803448663242625e-01,7.548747354207673288e-01,1.014484684181140794e+00
-4.419114295827778482e-01,-9.181687440798401711e-01,-8.904183022059239949e-01
3.010401407167951349e-01,-1.269745630178087614e+00,-7.837148444325141572e-01
-1.141275477592586518e-01,-8.322756657494759791e-01,-9.636397089877054567e-01
-1.598801564186307644e-01,-1.203746583626886579e+00,1.263068782006312139e-02
-8.435496905955381930e-01,1.564413944965041547e-01,9.431207223519436633e-01
2.146101216171737991e-01,-8.210587311230745922e-01,-9.626291014768826315e-01
6.513452624988724793e-01,-7.702831857478706912e-01,5.046601962557434318e-02
-4.473394638183215144e-01,-3.029104172663263372e-01,9.828771874908893702e-01
-1.120291987163378966e+00,3.069724158939758363e-01,4.453345254570703626e-01
9.046950433801631553e-01,-5.384520398408662034e-01,-3.909267351321438766e-01
-1.899824087795815852e-01,1.389012515828191408e+00,5.917699941899619009e-01
-1.048106415436483030e-01,1.258261083632153499e+00,9.435293661222758921e-01
1.070471576109973677e+00,3.415411872708446483e-01,8.379789884108747033e-01
5.420085186348075901e-01,-1.019872925686247322e+00,-7.882808474733403736e-01
-9.107646753138347595e-01,2.027098871881489670e-02,9.426235098080164576e-01
5.654414718079335822e-01,8.476981190840569003e-01,-7.304209355353649125e-01
-1.271808861862793461e-01,1.295233554605590420e+00,-5.634486321801102093e-01
2.603498658360030582e-01,-1.212168695262583196e+00,-9.302267186039140379e-01
8.338806104710149159e-01,2.057559362149971594e-01,-9.339002294169705953e-01
-1.072889410380061248e+00,-2.054402918487804042e-01,9.369500215591524128e-01
-6.294583460854596968e-01,-7.636569257570505753e-01,-7.669628272377915224e-01
-8.892963006848505492e-01,2.122079732132831631e-01,9.330933347857813809e-01
-1.263000285209369689e-01,-2.287435646835275227e-01,-9.971480335349255375e-01
-6.341365220809024317e-01,7.490162263746281690e-01,-2.778326656486845847e-01
4.174563639973158380e-01,-9.081606702804719822e-01,1.042733855479145655e+00
1.174447510862865585e+00,2.974156481551680220e-01,2.040498062381144728e-01
-3.567582280679852391e-01,-1.011107394567053452e+00,6.508408216908735389e-01
3.117919560802310391e-02,9.180963171095173347e-01,-1.027368327760354916e+00
3.838164935877894091e-01,1.760485443292871266e-01,1.019760786114378481e+00
-3.351242428123869105e-02,1.328818305944510447e+00,9.361940220538342849e-01
-8.227608670714779970e-01,-5.644174312332425059e-01,9.518202128631034764e-01
9.594853471837561099e-01,-4.270057702184540394e-01,-4.058100441636961625e-02
-5.670033483220044551e-02,3.766133531851091343e-01,9.937112253494285730e-01
1.330518299656950454e+00,1.574820260822751561e-01,-4.852350961480634828e-01
5.882431290661929157e-01,-4.247452247730562069e-01,1.093008967015951072e+00
1.210450922267467089e+00,-2.113468238930701348e-01,-5.967288901997506168e-01
4.546772350133990725e-01,8.540003320836891954e-01,-9.862943228852520949e-01
