1.186551485646508697e-01,1.260391729823149509e+00,1.694696901692228641e-01
2.300940232631989157e-01,1.179278265535970815e+00,-1.476569162259458168e-01
-1.055080153411183552e+00,5.008342607883623510e-01,2.577474951975262246e-02
-1.186443354506140635e-02,1.458738952326646521e+00,-1.774610675297842166e-01
-9.423280179229839293e-01,3.528570346026206894e-01,3.377351090355386054e-01
-1.360734530429411615e+00,4.269148674632042284e-01,-5.347907419073480995e-01
-1.240129375792145661e+00,5.699429257362399470e-01,-2.865268244153775790e-01
2.470770355637560145e-01,-1.322372850251396281e+00,4.162742728792520608e-01
1.297779718634396007e+00,1.286172359773816443e-01,3.128988183902108033e-02
1.336003328716066640e+00,1.232500057862427473e-01,-1.201616530668083299e-01
8.077556346278425004e-01,6.584274485617817030e-01,-1.541665475605963898e-01
-4.718301802278149215e-01,3.621429893904205000e-01,9.608763279716561190e-01
-9.351316788656247603e-01,3.074456529602824784e-01,4.089471566379543344e-01
1.053442624061291077e+00,3.109594565435671587e-01,-9.486518460444779421e-01
-1.393816517844477465e+00,4.106464835862113638e-01,-3.216796758494658848e-01
4.093070276723824452e-02,2.741761084892705425e-01,1.294471729332996146e+00
5.365326289440957019e-01,-8.839189974005959849e-01,-2.825447358801204123e-01
-8.607812993539670776e-01,-6.496223364203164152e-01,4.477504559098846038e-01
-9.137318389035766764e-01,8.123596904759269322e-01,-4.728188147101038963e-01
5.084904269377215069e-01,-9.236736784109221832e-01,-3.006923123021097988e-01
7.038127117019803425e-01,-1.007131807656820310e+00,8.322588926390132869e-02
-3.936388709850345835e-01,-1.038077236170017237e+00,1.541516400463929515e-01
-1.003947792718416610e+00,-3.281281559618230981e-01,1.036363379933963325e+00
1.305345763735217546e-01,1.291078876267228726e+00,-1.522677491417423479e-02
-6.940947323473574126e-01,-5.781945825281968876e-01,-7.756665677610774523e-01
-6.226191013685773434e-01,-5.961515656477983649e-01,-1.097824043808657501e+00
-1.450059846383303874e+00,4.088915192099056850e-01,-4.224308690203905647e-01
9.598362058590590440e-01,4.821581674418511376e-01,-1.302039954671996812e-02
5.113936865900066131e-01,-1.349747552586943344e+00,1.887904781923296360e-01
8.208050842479385212e-01,6.404584974578063639e-01,-1.112336273435815537e+00
-8.372420741476828132e-01,-5.507873320549102614e-01,-2.375304329367809997e-01
8.122654566787568253e-01,7.639451877575764716e-02,-1.024881965596590838e+00
-1.024629161703975999e+00,-3.728654414751528812e-01,-3.341265807166509672e-01
-1.807625378523863291e-01,9.091788323020296714e-01,7.116377214440184895e-01
5.909301000974165330e-01,9.717089414002424430e-01,-8.312674965506965385e-01
5.933445424492801434e-01,-5.020190729521277762e-01,7.268930550280638947e-01
-2.798578750424848272e-01,-9.319574100246443837e-01,7.977017162708891496e-01
1.123631366492042760e+00,3.872232994458485456e-01,-9.370620371501640067e-01
-1.097840507228293960e+00,2.818921678007295650e-01,1.986531073022170246e-01
-7.535832442786200014e-01,8.404469640033779276e-01,2.609979470957358300e-02
-1.615280172081046406e-01,-1.267837665940337200e+00,8.047033972032485716e-02
1.045211306057943990e+00,-8.260224043987389742e-01,3.399263137152660486e-01
-1.049189361129021947e+00,1.516737463452698109e-01,4.067127466012492865e-01
-1.100379266264966960e-01,-1.342683163505604238e+00,2.320303646968254752e-01
1.425610815143681709e+00,-2.502065352421657396e-01,6.005035739110300419e-01
-2.646389867893481629e-01,-3.363103387241883624e-01,1.082822059619706012e+00
-3.417822301486239667e-01,-9.767222071499818137e-01,-5.036939808012905750e-01
1.001094722151749938e-01,7.202107886277228088e-01,-8.343106077834130385e-01
7.815652941814047461e-01,1.713418299005110557e-01,9.981829247699777197e-01
-4.977032012826628771e-01,-7.119639278322186238e-01,-1.027286592791791797e+00
1.214707808532682787e+00,1.756724361035648385e-01,-5.498353076263767791e-01
-1.527697533808149988e-01,1.053608124192413786e+00,6.415086723583109940e-01
5.637917456933209115e-01,7.471941000128613508e-01,5.538316223488077839e-01
-4.704978337895608376e-01,2.142943891260918055e-01,1.140071939678582114e+00
-9.344571405247594775e-01,2.214581797323746104e-02,7.476896354356554752e-01
1.098451740541177696e-01,1.152437365395838187e+00,8.551858716258565751e-01
4.599413946372492012e-01,-3.766306136847474839e-01,8.416338336824953359e-01
5.033708401352989803e-01,-1.150862135730526675e-01,-1.201563217711682174e+00
1.090405503040513091e+00,-3.194331343612032414e-01,-1.738343465655135534e-01
1.168804691770777004e-01,1.227898315614541547e+00,4.493705286435370483e-01
6.254452909772479918e-01,-3.763456250025841165e-01,7.773628449912820537e-01
-7.842585265919549409e-01,4.374671104305937752e-01,4.362617504547955938e-01
1.309328786103350351e-01,1.232235160239387284e+00,2.688722268134086102e-01
7.308976176637074218e-01,5.391699939449532408e-01,8.684960853249519275e-01
5.665543197677809228e-01,-1.277455309841845299e+00,1.847769544218942628e-01
-4.018049389896547474e-01,-1.037664824760348381e+00,1.438449053646419507e-01
-4.507534513099284990e-01,1.998354558891901056e-01,1.149080628724527875e+00
-1.234336167362397596e-01,-1.168054412621218452e+00,-7.041993921302055481e-01
2.091186593719266684e-01,-1.038872917986000788e+00,5.751224813381026202e-01
-9.278311098953295755e-01,-1.281109815608349189e-01,9.273115917939093178e-01
3.534847314664225082e-01,8.178481770614624002e-01,1.249123884073723323e+00
-1.302503092727807399e+00,-5.832872311672873678e-02,3.212046997439080287e-01
-2.347301796231092419e-01,-1.069099817954306308e+00,-5.664823240637953949e-01
3.715010959101435750e-01,9.120022715492448473e-01,8.046344315610963749e-01
1.273099375248432530e+00,2.258658343238878208e-01,-2.336544085057030706e-01
8.624134148759078355e-01,4.395059438941198993e-01,7.088473274907307609e-01
1.639848375755199594e-01,-6.441177585178935461e-01,7.712749145987473076e-01
7.839303489414336523e-01,-1.054335376317991457e+00,2.270037047838153743e-01
-6.250603848294594700e-02,2.185359605600808997e-01,-1.044167445996752264e+00
1.361896773576212638e+00,3.121471101564206665e-02,-2.147246131885731935e-01
-1.750995491664200307e-02,-1.293566516564057300e+00,-3.997533643248235014e-01
-4.122182698303915593e-01,7.007971774090354655e-01,-6.833280415467268831e-01
-3.726003687283681587e-01,-2.539812700088033837e-01,1.167374493830406479e+00
9.522692949382072225e-01,-5.368226150293939902e-01,-1.341429745715661537e-01
-7.118568435284903240e-01,1.142298751660496769e+00,-2.695278703129165843e-01
8.473670193071817236e-01,7.259089681086676737e-01,-7.123130053971611364e-01
-4.852179227877565504e-01,-8.821123645406675484e-01,-2.313144310191226072e-01
-8.041856031349622902e-02,1.428574158882930600e+00,-4.124385637162364948e-01
-5.128955381375117639e-01,2.434687936174849410e-01,1.060406831582794362e+00
-5.976992310262477792e-01,-9.449101372728875292e-01,6.734845367767291480e-01
4.230581538093325378e-01,1.058562708770057981e+00,-2.901040074452236328e-01
-7.423321466424782633e-01,-7.454740038973387550e-01,4.060512399359010316e-01
8.670040514560880540e-01,5.224579112996686758e-01,2.031403472850663305e-01
5.797796315702786751e-01,8.582791824573906547e-01,-7.795509617959675563e-02
-2.371150207464721993e-01,1.508272421343330727e+00,-2.062223607835159123e-02
1.795462473098826950e-01,2.658936997690299342e-01,-1.080054554643937070e+00
-9.246839603140583064e-01,-5.241258914762728649e-01,7.578277938843708261e-02
-1.074450856472042304e+00,-4.007177739913662107e-01,1.776527638861767622e-01
-1.359891831276667684e+00,8.111464255042761737e-03,1.409899535547698424e-01
3.977971138143266416e-01,-1.041446847017198918e+00,-3.168256491044263434e-01
4.004786294591622386e-01,2.261499857403967417e-01,-1.193082035119896300e+00
-9.638363849650215254e-02,-5.268908211831678789e-01,9.378103979772228760e-01
2.601944585522108500e-01,-1.029570198254228908e+00,5.652596635966584682e-01
-3.344708269854609894e-01,8.231044651902755804e-01,-6.371529769794755937e-01
1.129952935733458341e+00,-1.322993682060800702e-01,7.150723021635163601e-01
3.489066430625712423e-01,6.898626078744308776e-01,1.385379380450842746e+00
-7.424618727070537716e-01,-2.987215522128842671e-01,-1.064259972628468720e+00
3.149526382176910388e-01,-1.355743402367971973e+00,3.785542369190804668e-01
1.085330556084087572e+00,2.218258206671976929e-01,-7.981389990000073986e-01
-1.275139861466557445e+00,8.579774723342961651e-02,-7.013161735730455426e-01
-8.329401727493764840e-01,8.664223737306480100e-01,-7.330788704546029044e-02
2.932888991353923558e-01,1.205488403708939060e+00,-4.469232059020702974e-01
-7.542803178015597965e-01,8.593151924736558422e-01,2.680837801439399717e-02
-2.244952530767088394e-01,-1.010409470706847612e+00,-8.619577786719924140e-01
5.804315341307192573e-03,-3.955294236365671234e-01,9.601378614469072703e-01
4.470808617038303789e-01,-9.098913052442497706e-02,9.841554390537242680e-01
1.329402435873925148e+00,-2.589877620254635859e-01,6.101446795504636977e-01
-4.596081224557718170e-01,4.462001684231851617e-01,8.837254280364508219e-01
-9.932446267819686758e-01,8.827563632692523310e-01,-3.154892798852675373e-01
3.371658943805135866e-01,1.217744854916145814e+00,-6.176979529726518425e-01
-1.107582432913760906e+00,-2.738202748417111754e-01,-1.780444079164749671e-01
-1.266264765295794792e-01,-3.099272236199180908e-01,-1.255649815921760171e+00
3.739476033898523899e-01,9.433456325472882043e-01,4.450786811752225902e-01
-1.091019789763201686e+00,-4.132694784040651381e-01,1.023381896220834086e+00
1.411136338128484435e-01,3.967104353635870218e-01,1.326371736992025152e+00
-2.916190724178363003e-01,8.261901056792396725e-01,6.784845063575226654e-01
-1.348604738668617853e-01,-1.894390922245369480e-01,-1.206211898113255021e+00
1.338446922680573081e+00,4.835319986341998083e-02,2.908360002743397010e-01
-1.114600905196348579e+00,-4.250858886532389302e-01,4.678701145832629416e-01
1.029504312004337896e+00,-9.663194772238407892e-02,-5.321761882709322711e-01
-1.253957254833834023e+00,-2.625225869901879339e-01,5.942209334395336384e-01
-1.329526000485122816e+00,-1.355338754285043690e-01,-1.982483079852567776e-02
2.624101581937008931e-01,-1.010318698350060274e+00,5.600406585615417265e-01
1.171818147393760778e+00,1.658295110242307968e-01,5.987162117042008624e-01
-9.400889817228188505e-01,-4.699377797908722565e-01,-3.632784593938168105e-02
-8.094662637947391826e-01,9.687652361600930240e-01,-1.876083458659926484e-01
-4.278709524299289524e-01,-7.224465449095286429e-01,-1.366028872681806838e+00
-5.919658005405069590e-01,-7.506639430892140252e-01,-6.107644684239862398e-01
-7.578582404886233803e-01,4.862326907652352315e-01,-6.810712530027978051e-01
2.023894216428741011e-01,-5.982050593674981265e-01,7.832969054631557793e-01
-1.055596064493245168e+00,-2.858853304638028225e-01,-5.077722410024578803e-01
-8.518416383956540772e-01,3.096050548353715751e-02,8.096146033200269931e-01
-3.032372711788927644e-01,-1.082968626359121611e+00,-1.110227477916027466e-01
4.930864793343476271e-01,7.247422569653592106e-01,9.550239656214567496e-01
-5.654979415876001392e-01,7.224693035882475689e-01,4.166150091138351441e-01
-4.577440781655341406e-01,1.280839376867144885e+00,-7.470482989977539345e-02
5.763629176420953515e-01,9.508600967309712715e-01,-4.507555079937841103e-01
-1.155622962434575129e-01,5.808371742454444542e-01,1.205873336906047699e+00
-4.846828851658049331e-01,1.048137894248484248e+00,-4.700160094302996416e-01
1.409541178832547370e+00,8.430747117632241341e-03,8.951639762435847913e-02
-1.561022664631616097e-01,-1.346514905748123825e+00,3.299062636348710220e-01
-5.417257190335283967e-01,-9.800646524039140495e-01,4.787730991042236095e-01
8.106045831152860481e-01,5.074693109947012726e-01,5.823319060391098922e-01
8.407893759149129842e-01,2.317101789481996188e-01,-1.144034637094726747e+00
4.900538674888949009e-01,9.740923996121839679e-01,-2.781096067585508980e-01
3.105018767397028090e-01,-1.431728848691490086e+00,-2.781685239478491958e-02
-1.498788438674578893e+00,1.030733394675859976e-01,-3.234750004102248111e-01
-9.269873677402481471e-01,-6.880071879811543445e-01,8.276744274923716338e-01
3.477292617040648182e-01,1.187279740141008011e+00,-6.621512968644407415e-01
-9.247500266192848484e-02,9.715489003432131732e-01,8.402808718352142714e-01
5.052645432920593871e-01,8.219580096866530017e-01,5.071428501986680049e-01
1.784645080843114684e-01,-1.077978652792846770e+00,-6.023807105863178135e-01
7.978259630739144015e-01,-6.063430278135048535e-02,-8.764894603110888749e-01
-1.048757832910809817e+00,1.084455077539936280e-01,4.722948830214363514e-01
-1.088861700624658146e+00,5.301298388080647461e-01,-6.608030266561273902e-02
3.653991201017747770e-02,1.798414162409406880e-01,-1.086887842339536725e+00
1.125176504492443330e+00,-4.917461632205340494e-01,5.603246821819759527e-01
-2.993311951948164351e-01,-1.017644658192381035e+00,-5.261574654474008295e-01
-1.493438624376337120e+00,9.530260791188703562e-02,-1.718527557556142893e-01
3.924195284798595029e-01,8.774843820895695812e-01,7.721928128738745345e-01
-1.351726758443897225e+00,-1.362313679317018467e-01,2.689963282530338784e-01
-9.725177579710114761e-01,-3.824036411548641379e-01,1.121808497889689393e+00
7.523882250329457788e-01,7.427267612555665810e-01,-3.944457601347869935e-01
-8.770905804821041984e-01,-5.105144068556780601e-01,-1.080399920166272010e-01
9.656614230219668915e-01,-8.678467382744529113e-01,4.137422808490974768e-01
-5.239032028485572923e-01,9.790354211945441198e-01,1.860174883256479617e-01
4.507402725687601613e-02,1.426055848412199234e+00,-3.026211008926075197e-01
1.019421988323765182e+00,2.250614592305351658e-01,9.250074337472652397e-01
6.580330837244567910e-01,1.973330744163772077e-01,-1.258071993486487683e+00
-8.093521679237957178e-01,-4.736115901146861762e-01,-7.762701816405930266e-01
-5.794534512937586646e-02,-5.983600475503632055e-01,8.847649552273991747e-01
6.834580516724995947e-02,-1.463667325269949027e+00,7.096064001109417263e-03
-5.619527925829087556e-01,-8.205211328598731313e-02,1.288938077840915408e+00
1.523741932828300005e-01,5.718096831485153242e-01,-9.026171601763479657e-01
3.783221530565572532e-01,-3.749782860126563699e-01,8.590015939173001325e-01
-7.479323069857347905e-02,1.547271466318014266e+00,-3.567715742726905725e-01
-6.712592453205029619e-01,-8.025872559159039632e-01,9.908391437473290653e-01
-6.766169248187263729e-01,1.221462501710617321e+00,-2.801899104659720807e-01
-4.369136418385396459e-01,1.027177103349304677e+00,2.789346900134253016e-01
7.625450831992823808e-01,5.675254913664191658e-01,4.430079783308222829e-01
-9.263076349858465619e-01,2.075536014379828764e-01,5.347431493267150726e-01
3.795415730226134876e-01,9.426539992453463190e-01,3.364465502852519996e-01
-1.325619802560927374e+00,1.919729724591751063e-01,-6.514706228524745901e-01
-8.438128871276483478e-01,4.184220986946931009e-01,-6.856127749230090940e-01
-4.366269013360488116e-01,-9.222368668329059549e-01,-3.794619115328532466e-01
-3.476812890976319070e-01,-9.702625456553306549e-01,-5.396238511693858264e-01
-1.792838705707328062e-01,-9.177022315411001996e-01,7.483097825019138227e-01
5.756158254362285787e-01,6.756962902301590912e-01,9.200857096181677131e-01
-2.694674025790411709e-01,1.258262205528449362e+00,2.534767357869880944e-01
7.321063611135216753e-01,-1.149688166016677338e+00,2.601197314009006667e-01
1.440710632330753471e+00,-2.704145664344743127e-01,2.509807871864925266e-01
7.950044906833524383e-01,-2.115915628877016175e-01,-7.107560219998175777e-01
-9.141195861614788143e-01,-5.223548495958727500e-01,1.024748673170562258e-01
-1.418686692582726561e-01,1.267579039146245368e+00,4.106911886476172779e-01
-1.155686773213292495e-01,6.671238232734790774e-01,-7.960560664707218015e-01
1.040471595118953374e+00,-6.886023829178941624e-02,-5.753458382536972282e-01
-4.574589568010616336e-01,7.110600239696049929e-01,-6.619862140658344662e-01
-9.479081954367597762e-02,1.536733539906489865e+00,-1.301630016520801403e-01
1.402302102004317763e-01,-1.456300087244272623e+00,-1.792088036669946260e-01
1.148762567739875173e+00,-4.134533924069910826e-01,6.001632482894506682e-01
1.992622674799626181e-01,1.309962148823327510e+00,-3.413691963759803993e-01
-1.208602520542649605e+00,-1.484114359648785741e-01,-5.103952732524613678e-01
3.656084678520499232e-01,9.185805341996994278e-01,-8.255619522000372523e-01
2.446499065939905515e-01,-3.886443960226291239e-01,8.907962409645939772e-01
2.293363110393008553e-01,9.757723290589220833e-01,-7.353386691998119451e-01
-5.543277214835212741e-01,3.201008712381768762e-01,9.322123460748698021e-01
-1.721014062709888826e-01,-7.345860753278775634e-01,8.458025994415336868e-01
2.117662553890774235e-01,-1.105817345661018081e+00,-4.907438530441077251e-01
3.176190406950410994e-01,9.016637268792833115e-01,9.742854580539412890e-01
-7.929131061815374304e-01,-1.905645041767479661e-02,-9.394767800175920502e-01
-9.203136402134318717e-01,-6.553170499616939315e-01,8.106648453796028164e-01
-4.517949412453162727e-01,-9.229269159252282417e-01,-4.254575014145473566e-01
-9.731041365328041426e-02,1.366975611151263204e+00,3.607767543396355192e-01
1.145144610933988005e-01,-1.482825964433190924e+00,-1.251980245655172630e-01
-7.188080134882706140e-01,-8.927379739630023625e-01,7.498638440270443128e-01
1.593703189082252281e-01,5.075575684836032275e-01,1.346659751133873151e+00
-1.031527275909588592e+00,4.330657655753626933e-01,1.478366492577325164e-01
1.583279605784601307e-01,-1.550751496277522401e+00,-4.514488487205832457e-02
-3.916751482332094803e-01,-8.832697421106310287e-01,-9.687888964932591662e-01
-4.179710691246676935e-02,1.426453970106905667e+00,2.172129991221617984e-01
1.248461901677422325e+00,-2.518277469613005096e-02,-2.788436285013639604e-01
-4.373279639380121542e-01,-9.363360017514176237e-01,-3.505849337326166215e-01
-3.581317289935341264e-01,-1.105648220565579543e+00,2.394324250034593204e-01
-2.899071368341747390e-01,2.380308449518732106e-01,1.348386055269399586e+00
-4.095466701540826371e-01,4.796479767118208004e-01,9.151856519144556668e-01
-5.902042085709811037e-01,-9.661578471858507378e-01,6.499780008765551065e-01
7.023757640803516278e-01,-8.804974976876009940e-01,-6.424415757657345183e-02
-1.377550142935350275e+00,-2.635736571099757397e-02,-2.528668539533689974e-01
1.457892262488908575e+00,-6.915081522123035784e-02,3.484119573237468570e-01
6.269570439448587384e-01,7.753939445709703282e-01,1.713426567294212000e-01
1.555659980857050373e-01,1.051155173849608770e+00,1.058181824526257975e+00
1.377843097757197821e+00,1.379405678245483879e-01,-3.000683358391955102e-01
9.402471878452148824e-01,3.793322150364524803e-01,6.058700504789655827e-01
2.837800282760726267e-01,7.581170588240885300e-01,1.458383099523884230e+00
1.220791198441819984e-02,-5.151638449609251547e-01,-1.424391681467118476e+00
-6.923684405957279686e-02,1.484006170896067234e+00,1.868554365754087959e-03
-6.647122194194963196e-01,1.235643236974766079e+00,-2.578484498882947507e-01
6.448276680532584182e-01,5.644851279723479553e-01,-1.106037259982974197e+00
4.672593604422667357e-02,-1.024608741813887836e+00,-8.153128660333035516e-01
-7.544189064285865554e-01,-7.017193035364415188e-01,1.671094954010488368e-03
-8.286163704274429609e-01,-6.807507373401551209e-01,3.363688568842700954e-01
-8.185515438643701236e-01,-6.260551968675985846e-01,2.359341376945369925e-02
4.951888099128269882e-01,-9.167423316366567487e-01,5.327883543408187261e-01
-3.374881323749475692e-01,1.192506832462118804e-01,-9.920899651521839502e-01
-2.281568809356128991e-01,-1.276724747105132174e+00,5.891574380187812876e-01
8.314625529308051766e-01,7.247222240523025771e-01,-7.108211681317783137e-01
1.061988820910610754e+00,2.856778443471485462e-01,4.400298890009413100e-01
1.015621578225144761e+00,-4.937707712682388173e-01,6.000775465661795094e-01
1.170208643066921406e+00,-2.184261754424028923e-01,-1.566475975835795453e-01
7.753729330317949212e-03,-1.291656321731853296e+00,5.198491632077746338e-01
-7.593514050893515090e-04,3.562251166685284076e-01,1.329651293789386513e+00
7.002489817008005213e-01,-1.792928080928823664e-01,8.591532424408359070e-01
-6.766149967053218806e-01,6.974101013899637325e-01,3.273795011461342885e-01
3.090531381815859735e-01,-4.220968300940213802e-01,8.844506567852985501e-01
-5.951036927715015468e-01,1.177077649812344529e+00,-9.163919112341203932e-02
-4.220385339237008870e-01,3.518733886968278823e-01,-8.422123029037899000e-01
7.768559285764740086e-01,-1.556529971629614928e-01,8.249078882867121321e-01
3.104885743333813952e-01,-4.339953222778073494e-01,-1.145744905352245491e+00
-4.828773360082313504e-01,-5.196647172520861835e-01,-1.280381295626718652e+00
4.782109799276247908e-01,6.564714618105318422e-01,1.360275800666816970e+00
-9.895041629987783027e-01,-2.484162312344673496e-01,-9.987686223459252277e-01
-7.322814817013043598e-01,-8.060720902647303121e-02,1.111546444736551287e+00
1.077716775375180402e+00,3.533019181021196387e-01,-9.416627570928760571e-01
7.047482447079173040e-01,-6.554386661819061599e-01,-2.976757493710620595e-01
6.167643975977275816e-02,-5.428075973021447842e-01,8.655578590585006893e-01
6.219115124104993703e-02,1.185810352089316400e+00,7.935243214258722588e-01
1.233360530233142405e-01,8.831435621098533417e-01,1.224550669939422409e+00
-8.771245350376501992e-01,-6.954983141450662432e-01,7.373957874955439085e-01
7.846725586190209101e-02,-1.015729783710831224e+00,-7.952084818135553013e-01
8.276604248887712290e-01,-1.047594811566545658e+00,2.812841907046823020e-01
8.033970059678754438e-01,5.729249912629714725e-01,-1.153439093070444343e+00
5.523461912585079236e-01,-4.809845410692040885e-02,-1.233544226701001278e+00
-6.218204249422127905e-01,-4.514677181670291306e-01,1.135278360917586493e+00
1.875859357071176514e-01,1.285548527546560571e+00,-3.760221135915223778e-01
-5.334641498769721046e-01,1.370141819017163254e-01,-9.206989260387091756e-01
-1.036625812411564818e+00,5.043993205931124324e-02,5.238012941380126852e-01
-8.232265820790780619e-01,1.867984318513332687e-01,6.934509999492121102e-01
-1.146346389187443554e-02,-1.306305361106131047e+00,-4.852936227570038841e-01
-7.918902948626487248e-01,6.380093113451636988e-01,2.287121458387363082e-01
7.443733373856972757e-02,-1.146007492474179656e+00,5.473216538806605636e-01
-1.470743791805638745e+00,3.537029892787824648e-01,-3.771767681008363349e-01
5.985292603721770188e-01,-4.541326094710470551e-01,7.520318722553925861e-01
-2.139655280208981880e-01,5.603929703682833940e-01,1.131390685215855285e+00
5.238151036113252168e-01,-1.357897912542323393e+00,2.051249819945824282e-01
1.870463044438766820e-01,-8.315513098554300209e-01,-8.142969094661388629e-01
-7.023035460260333984e-01,7.059001437370372445e-01,2.962811909666375199e-01
2.589428031878019953e-01,6.754505375532634526e-01,1.414894838565645685e+00
5.582833815952823464e-01,1.016127177185805142e+00,-8.274394380653549153e-01
3.807442520810682685e-01,-8.603533555172286906e-01,-5.655062094799143679e-01
7.692199972349306365e-03,1.401663404612627506e+00,8.033699925784253126e-03
1.373237849623835549e+00,3.676402337901622797e-02,-1.919247289578499549e-01
-5.136658634326594919e-02,-1.466860687753215098e+00,4.378366689329536432e-01
-2.185758178355038939e-01,1.308204962420498996e+00,-4.233370010669389449e-01
-3.341419186777454947e-02,-8.195305240410233338e-01,7.752767338650264906e-01
-7.333068126979832568e-01,-7.261720985750113044e-01,1.227555705445526196e-01
-2.254957184886054178e-01,-1.272100587254003656e+00,5.915953909869208216e-01
-1.462715676235509576e+00,5.426779071887048722e-02,-1.588427860593386309e-01
-6.827669254850314839e-01,-3.019627629104942312e-01,-1.092899700604576640e+00
-6.972715895831748112e-01,-3.371929250992583560e-01,1.211412562458672904e+00
2.736283682259594841e-01,1.016900491792019023e+00,5.319168094260969815e-01
9.251242371402185194e-02,-9.610936796814815164e-01,-8.084751912695566922e-01
-9.965123261193493676e-01,-6.440915657707022013e-02,-9.076750047117291276e-01
-6.028522376466948218e-01,-9.012660865749034800e-01,4.618694129035779694e-01
5.573016493863576226e-01,-1.909409123034597200e-01,-1.068830002964078263e+00
6.912741738360186350e-01,-9.914698037216479465e-01,4.845418253786934470e-02
9.950573462181447892e-01,-3.894428711010419208e-01,6.461948666317626211e-01
-3.476234995115203286e-01,4.093091303001997194e-01,1.104503434527252859e+00
-1.330710504156483509e+00,-5.941259496840285877e-03,-5.270900643601738045e-01
-1.457124040589055092e-01,-9.036545560047899439e-01,-1.213062930322025945e+00
-6.060204876478137992e-01,1.296206883758417527e+00,-2.448291291728289520e-01
8.406045989173387412e-01,-4.375665667352458543e-01,6.789952172990056933e-01
-1.266824109189716108e+00,-1.124148891814676504e-01,-2.416738099882966562e-01
9.497234357205250888e-01,8.570515232287277685e-02,-8.357198901186438933e-01
-2.803106276713775991e-01,7.807621242200303291e-01,-6.999534021108410053e-01
-9.592449879300332660e-02,1.300120272172837321e+00,4.573142414360089059e-01
7.895609507175002095e-01,-1.418338257504554445e-01,-8.305456058593667645e-01
7.589088208742545971e-01,-6.853950514380527381e-02,8.882019422453749646e-01
6.340599560298433301e-01,6.769672730557633189e-01,6.101219724339256301e-01
-1.344095109138345068e+00,-1.188336040349399075e-01,1.969307391080423741e-01
9.952515852217573844e-01,5.897198039720757956e-01,-7.721429383178357586e-01
1.167439997310378619e+00,2.010113901247456980e-01,3.942741762732693833e-01
1.285385195374393330e+00,7.751616480567548317e-02,2.597201860985552391e-01
1.124122159206489835e+00,-7.305643932863923329e-01,3.096930377417209668e-01
4.313027918602545530e-01,-3.376939276891526287e-01,-1.105466993445014756e+00
1.270332775091552291e+00,-5.992614688154338509e-01,3.884357430854216697e-01
-1.057385864735070680e+00,7.876471718334052685e-01,-4.310727644562946104e-01
-6.057233762079735628e-01,-8.384783236255870520e-01,9.323263453402548528e-02
1.126353712865450163e+00,2.009728697411203024e-01,-7.509293453425124332e-01
-4.301818836154529535e-01,4.567444283763080204e-01,-8.039965411507024040e-01
-4.570144300213833111e-01,3.166233000636929362e-01,-8.469441085316435913e-01
-3.253902674140347062e-01,-1.191811094995876452e+00,5.522467513803546169e-01
8.360418233789645992e-01,-5.921311686040411359e-01,-2.261364268832762869e-01
-3.926311098457620219e-02,-3.036864224938991552e-01,-1.304038466649972916e+00
-4.871064978512222310e-01,5.374476397320195886e-01,-7.439283520441493103e-01
9.343224676059156408e-01,-5.281113939676082003e-01,6.073640247226815836e-01
1.124815374993307415e+00,4.487301571483698903e-01,-7.406920325498328461e-01
-1.193361927445968584e+00,1.282520263938771166e-01,-7.259392853012016644e-01
-6.142889635906325328e-03,-6.186853507641073557e-01,-1.338401093686111931e+00
-1.223239930686442101e+00,-6.186363724351291726e-02,-7.133382666575874831e-01
-1.341666053991966923e+00,-1.121951198375881892e-01,1.187167081948714564e-02
-3.259363462064182593e-01,-7.747227525486956035e-01,-1.456510541245201962e+00
-9.830609586285481427e-01,-4.814493281263550473e-01,1.950215683690299517e-01
1.540705468561215374e-01,-7.785903127147918434e-01,-9.212902505665291342e-01
-1.089174803284486681e-01,1.110671846711351884e+00,6.814009842015802398e-01
-2.182639249438140805e-01,-6.870551947287455441e-01,8.614043459942970493e-01
-2.394635805335181278e-01,6.824347703123625486e-01,9.560507227350024673e-01
-3.153199879126606930e-01,-1.130539550457686282e+00,2.157856744592541176e-01
6.824463728200692580e-01,5.439038989599024321e-01,1.053768735194730688e+00
-5.975755671751472597e-01,-8.539813241306269953e-01,1.051443508366339957e-01
-3.755194522227522924e-01,-9.941016531326343220e-01,-2.093980295044663431e-01
2.278868982021406975e-01,1.244130915919357649e+00,-2.459048359818851170e-01
-5.639780885863168169e-01,5.344318709433925479e-02,1.219651267974993347e+00
4.295384333092118756e-01,1.037857110166606311e+00,-2.521078234888889935e-01
-1.075168418180462382e+00,-3.463258642475073312e-01,9.569464921125487855e-01
1.462080266697359354e+00,-3.526317428186950265e-01,3.581046506096209892e-01
6.664595217479447609e-01,9.022734652994662818e-01,-6.330255628810971258e-01
-4.306019504740092874e-01,-1.044697977985736603e+00,2.699769475918030737e-01
5.267799223606073333e-01,-1.255912241060645140e+00,1.168851897217721980e-01
-2.264302997640954274e-01,-1.179908942922080595e+00,-1.900884890211107792e-01
-6.358511049545753080e-01,1.172126063152489683e+00,-3.705496633842482179e-01
4.095384962280552710e-01,3.581695393118751736e-01,1.224517672463791618e+00
-7.527046409969053720e-01,-5.758932430666304780e-01,-4.018443381112752344e-01
9.619201651262797581e-01,5.282650959724961570e-01,-2.038717727268848923e-01
2.354390444775107116e-01,-5.142551672698060516e-02,-1.271294787440271357e+00
-8.035745367305219267e-01,-4.926181231393449989e-01,-5.619426877765242301e-01
1.690160607170310414e-01,1.222397047807336712e+00,5.229177051042476626e-02
-1.366471425106104309e+00,2.731690969843498795e-01,-5.854516321964026160e-01
-1.161590006208346626e+00,-3.920773108221085046e-01,5.585428553765409143e-01
3.083437906874175183e-01,9.804260158299630268e-01,7.024509385146293639e-01
2.246246885075300348e-01,1.104591498229479551e+00,4.027667842911387130e-01
-3.738455465924858112e-01,6.964896652025736046e-01,7.334581741502064212e-01
-3.821121226961889938e-01,-9.346785234321032254e-01,-5.601051152904005237e-01
-6.750784304424063409e-01,-8.191077424117858552e-01,9.670114181563501665e-01
2.460925071537450604e-01,9.354277094274319193e-01,1.267024762699733964e+00
1.407763247586565208e-03,-6.826812232773878941e-01,8.227694137451267986e-01
-7.759603201767774072e-01,5.410789046279621539e-01,3.802552939030524048e-01
-6.939412263646853596e-01,-1.386674647647015424e-01,1.225782615383291807e+00
4.006123097584808335e-01,6.570242129324933567e-01,1.372935639264425411e+00
8.463095855506208576e-01,2.378416940239397315e-01,1.021374878428965349e+00
3.787026991917545327e-01,7.678380970568093877e-01,1.396474090889251007e+00
6.407128867486200363e-01,5.501596608315749704e-01,-1.067573023526679821e+00
9.825857790485660326e-01,5.989995900171124488e-01,-7.603425256196001403e-01
-6.320200581379846749e-01,-5.878616112240265812e-01,-9.570353656144247045e-01
1.464032572725412484e-01,8.363592451151353746e-01,1.274347955000211252e+00
1.032940524919763403e+00,2.709801044261966885e-01,6.740443818169360446e-01
-2.347385695273069006e-01,1.083427340439538922e+00,-5.387804848819569559e-01
-9.091183096957402565e-01,-5.471525397208077957e-01,2.084701312543151830e-01
-1.536052821305165517e-01,-1.289966395339727789e+00,1.532757495207332787e-01
1.281289204125191317e+00,-3.773042899355860680e-01,1.269936687625949079e-01
-8.808974076782243035e-02,2.158565417606653214e-01,1.289404584193709180e+00
2.665935651181091659e-01,-4.893505635450461910e-01,-1.135858000064147166e+00
1.338692249599022333e+00,-2.462225652592644476e-01,6.276314246579887124e-01
-9.124658058086093648e-01,9.005750132398336882e-01,-4.159173812343840426e-01
-7.867194595536236568e-01,5.853249079279601030e-01,3.203186094961990582e-01
5.601935297579916373e-01,9.251790942238071747e-01,-4.179639011750058697e-01
-2.866096316296135038e-01,-6.911128832080168927e-01,-1.414845001392768697e+00
8.442339870188408923e-01,-3.077614600742288320e-01,7.321860009445759765e-01
1.512415125559214424e-01,-1.576263162811425977e-01,-1.297066726361838729e+00
-5.943103142241328296e-01,4.115741939666355265e-01,-7.645595626745946838e-01
-1.448361698815563425e+00,3.035998744387594095e-01,-5.620338268056259690e-01
-5.209732589095543709e-01,6.890388030716120271e-01,5.343045225081731742e-01
1.057748677482829233e-02,8.595494626536333005e-01,-7.213179266832048242e-01
-1.650377674551314344e-01,-1.475021783309995727e-01,1.177502422234747215e+00
-8.433591323571838494e-01,-7.414917898621992132e-01,1.050394653745678530e+00
5.654494643555613154e-01,5.846669771378948388e-02,1.023813971693749547e+00
-7.001571495636786657e-02,1.463467929837950710e+00,1.702509107286511109e-03
-1.265073479808792867e-01,-1.160881599252239660e+00,-7.026658076206100390e-01
1.185593981437057104e-01,-2.555824101450105967e-01,9.855631212722906209e-01
-5.329971391039726170e-01,1.868080586424146761e-01,-9.126435176451519471e-01
4.382200951919094645e-01,-9.123263122313203244e-01,5.688971538837062081e-01
-4.182265893699974035e-01,-1.012445600268609969e+00,-8.215512848742928531e-02
1.099329494144082542e+00,4.627181814269448190e-01,-4.504875710339394379e-01
-4.338272584738875892e-01,-8.448409206476196198e-01,-6.840181939859024673e-01
5.182265459019373965e-01,8.813574441511363711e-01,2.342026586708864933e-01
6.651910744562101740e-01,-7.543640044379236187e-01,-2.593125594926352084e-01
2.510464184651657327e-01,1.162917696883572383e+00,7.674668398581763196e-02
-3.720119908955147464e-02,-1.488024871653709398e-02,1.177177234898050928e+00
3.645589719484463309e-01,-1.400208186771248364e+00,3.314973292068501554e-01
1.197673898774334056e+00,3.329460748508138446e-01,-3.432310393070711618e-01
-6.720145074921138884e-01,-8.795457499897416653e-01,5.550323194609000366e-01
-2.191129400334536625e-01,1.506168591205521601e+00,2.321681187591302306e-02
-8.842574195657464386e-01,-4.644040097346966434e-01,-3.694211961921283760e-01
6.380092605037079867e-01,6.969427563186954000e-01,4.619700061504517508e-01
9.309141757120000804e-01,4.160318704949024227e-01,-1.221464234129644000e+00
8.216327921260810907e-01,7.144958857437009314e-01,-5.114077756672722463e-01
-1.120860940095420144e+00,6.152315879540013466e-01,-1.513132213771513079e-01
-6.230867150331843574e-01,-6.241829253074556716e-01,-9.056844755855267826e-01
9.040225222053752119e-02,-9.099929575239932289e-01,-8.819283536285358327e-01
7.979715526507303869e-01,-6.464470265297155294e-01,-2.218961092290158421e-01
3.912030205617852419e-01,-7.876519073635686041e-01,6.444510584066192038e-01
1.008756778436087798e+00,3.793971997848570865e-01,1.569566154450046380e-01
8.353463737226732855e-01,4.140776256768317065e-01,8.995358793864148828e-01
-1.392843092039724451e-01,-1.222574432386868581e+00,-3.092146090432549843e-01
-1.109410657480579321e+00,-2.155873826954184114e-01,-6.265866488059690376e-01
-9.812809397565013247e-01,-2.178716678130986628e-01,9.867856177859021249e-01
6.414659466041667812e-01,7.778141417523487533e-01,5.094526378040181713e-02
2.466924698645124592e-02,-1.407889170692143699e+00,-9.948790950364329311e-02
1.327442116504479852e+00,-5.019037320044548167e-01,3.587219466298807724e-01
-1.886969586943044175e-01,-1.040893261682686477e+00,7.037649435580217716e-01
-5.988406624289684954e-01,2.413394737466222073e-01,9.367605467824592358e-01
1.052160067060539106e+00,-7.039048407946917330e-01,4.879563161375428670e-01
1.035224364692196364e+00,5.211691613815554458e-01,-6.494291458231060687e-01
-3.659084583787242662e-01,3.424134806955317356e-01,-8.840713499069600134e-01
1.145628850008586497e-01,-1.451593113890500275e+00,-2.050319415620452945e-01
-9.993375237429229230e-02,6.783414321442303718e-01,1.136259750980713967e+00
-2.428786481340844405e-01,-1.067349811981501251e+00,-5.869024814814139956e-01
9.745487258440020950e-01,-4.542360032909288359e-01,-1.637200807089102261e-01
3.908088846623137269e-01,7.616861503867800032e-01,1.407055115109276944e+00
4.561695930578333891e-01,1.950936037060687911e-01,1.110220992887828828e+00
-1.154005883051801851e+00,4.596073365893774132e-01,-6.388568632870274266e-02
1.523607169366061331e-01,-4.470885114059460208e-01,-1.320424371080691772e+00
-3.363891927715036423e-01,1.533520379609710327e+00,-1.693388660959600778e-01
1.366471454910396677e+00,1.437379492845529960e-01,-2.602756961204051867e-01
-1.361106571208482663e+00,5.230720183416972396e-02,-6.549021989658078136e-01
-1.025157222721502004e+00,-2.679931146515548424e-01,9.128467845975731798e-01
-2.009221040697158900e-01,1.318547877526920598e+00,2.895888404770254332e-01
-6.695793495686629404e-01,8.698583932197835322e-01,1.491530878887057376e-01
-1.773397976250077474e-02,1.243224759932419765e+00,5.904778130490561106e-01
-1.241386577491717935e-01,7.469951994520808158e-01,1.011769319323549965e+00
1.045139273401283875e+00,2.898458840685326221e-01,-9.567403405367056468e-01
5.527401808137966110e-01,-5.367275381992017147e-01,-6.721816696287090664e-01
5.432083570696839142e-02,-6.347882843894689930e-01,8.338714564563327603e-01
-5.517126552839685116e-01,8.957091610345223609e-01,-5.434377028652890296e-01
7.294626823499071600e-02,1.372550070749329443e+00,-2.330818919332009742e-01
3.258025551560342348e-01,-6.457383322059345732e-01,7.357029187689815286e-01
1.150178736976571692e+00,1.241278486073306708e-01,7.417312879100407264e-01
-1.854292488146737361e-01,1.603989002054770685e+00,-3.005787805971669724e-01
-8.459650001334442226e-01,-3.236670821070806170e-01,1.212345052138707580e+00
1.030371151685486764e+00,5.483765219373866184e-01,-7.848413698549318029e-01
6.940852668341523923e-01,8.625011121704397876e-01,-6.325252437390225246e-01
-7.763225242410738414e-01,-8.346880528632171226e-01,8.435714892774863749e-01
-8.708723364768652386e-01,5.015046123921234056e-01,2.643236137131486641e-01
-1.666055022623996462e-01,-6.715950814635621158e-02,-1.125515889971232530e+00
8.414257226550627689e-01,6.366351229342912532e-01,-2.521649177528521579e-01
5.498919163479141226e-01,-3.839914485154145019e-01,7.877308299923714285e-01
2.442139065983405799e-01,-4.180147429342432330e-01,-1.242573912649080681e+00
3.522884473670539474e-01,1.096227818405243637e+00,-1.652329033224178290e-01
-8.283931750960976670e-01,1.274873820995906237e-01,7.817346132612438270e-01
-1.413991933992942429e-01,-9.907707438219037419e-03,1.199157654349361835e+00
9.830340338291114755e-01,6.640473363049285149e-01,-9.988224038972964847e-01
4.738817447004699535e-01,-6.511325888465375744e-01,-6.747308625734166343e-01
-7.502037167222401770e-01,-7.892968265230532188e-01,6.558330518913226825e-01
-3.156947724071921257e-01,-1.183679467199309832e+00,3.985600417943158669e-01
-1.138752646077530739e-01,-1.379919500337088323e+00,5.021156518257158252e-01
-1.151853867737235415e+00,4.117603134434616452e-01,-6.111002708655973725e-01
-5.162006858908029239e-01,1.344385173642899556e+00,-1.980411230157326508e-01
-1.302258454335694648e-01,6.709259105819018743e-01,1.085492079395834253e+00
-6.942757919642121578e-02,2.516980392046080928e-01,-9.933551707175563017e-01
-4.050169560399359825e-01,1.169119813071383129e+00,1.843791832676374698e-01
-1.134792586532566983e+00,7.746011617947569095e-01,-4.040519683067833601e-01
