1.829238540455894735e-01,1.257678243431987086e+00,1.271638014235274283e-01
-1.425423098717728265e-01,1.201882337970315184e+00,2.456801961408251397e-02
1.076713127050297619e-01,2.759293967979634665e-01,1.130028000103309616e+00
-1.505853189128297520e-01,1.426442515783001630e+00,3.195908903610691354e-01
4.084158321903543776e-01,1.529824749408529860e-01,9.676507915997863973e-01
-4.315567219479921057e-01,1.431850460900530586e-01,1.453654959855185780e+00
-1.897834646522346402e-01,3.069647416347414670e-01,1.347073981764429496e+00
3.748667054804868393e-01,-1.245870094910022541e+00,-5.387800539897724672e-01
-5.653931874906809735e-02,3.895248794894606292e-01,-1.243715128913709833e+00
-2.103479397512411642e-01,3.925053155934527527e-01,-1.271309404750770700e+00
-1.982383037047366070e-01,8.092905060668342809e-01,-6.446034799888349376e-01
9.974925324549067662e-01,2.557415943927786595e-01,4.654669332926592018e-01
4.781494373350947402e-01,1.097601100457882839e-01,9.463391025860407035e-01
-1.013824717281176513e+00,5.214534975472508993e-01,-8.981220202912781891e-01
-2.169828126402637003e-01,1.198740589779423438e-01,1.467440459696854660e+00
1.293127583205876618e+00,2.727612948725335329e-01,-7.698862584359668360e-02
-3.345425637907856187e-01,-7.555863246557437130e-01,-6.827753383554635569e-01
4.949020303788712605e-01,-8.123527116975171047e-01,6.771921058206201716e-01
-3.939810873289413262e-01,6.112196118190214023e-01,1.090679265703274003e+00
-3.513964292752229102e-01,-8.001530499092261994e-01,-6.621382720909934072e-01
1.652719400510390541e-02,-8.433730410337637595e-01,-8.972413974549635629e-01
1.628406789476536942e-01,-1.096877197369116264e+00,1.632849175683022680e-01
1.097577577286960260e+00,-5.284791889473683391e-01,8.400366189599435263e-01
-1.584756806149624584e-03,1.290711094388702351e+00,1.349746435984768289e-01
-7.356872462472979768e-01,-7.047565814740721635e-01,6.162933827793405372e-01
-1.062291503489089850e+00,-7.068180287353414970e-01,5.658744574968053165e-01
-3.136059628074429062e-01,1.070401313447669617e-01,1.529217898812850418e+00
-7.109438296419956504e-02,6.671619827904982092e-01,-8.389112281660948689e-01
1.291540218481675717e-01,-1.218263888490935143e+00,-7.862163440771500200e-01
-1.155173329968909535e+00,7.973166871097550068e-01,-5.925037862150077661e-01
-1.885211728990750513e-01,-7.086737728004957049e-01,7.231894174833332078e-01
-1.077249138247984073e+00,2.430154442899067624e-01,-7.046077816758880008e-01
-2.687515974677793795e-01,-5.722388739165570337e-01,9.491308542236321921e-01
7.383053509443464613e-01,8.512764315636652812e-01,3.097468912033338184e-01
-8.530691585036056512e-01,1.074078026704020861e+00,-3.210166727469645487e-01
6.750703369260466769e-01,-3.732388452543120017e-01,-7.330942734095475810e-01
7.987128903254682166e-01,-9.718469784702218339e-01,2.764492233481512934e-02
-1.005794172664711938e+00,6.103514675163291825e-01,-9.520628977125886738e-01
2.792302772521751963e-01,5.233151965888022117e-02,1.115110709721399918e+00
9.304513566925823320e-02,6.697146550931607489e-01,9.042924793039061049e-01
6.921850803121265550e-02,-1.274454318366779360e+00,-1.046618920005220332e-01
2.520707239026885316e-01,-5.974709825624376913e-01,-1.212360656233584022e+00
4.810975794708802211e-01,-6.592949520581700695e-02,1.026361008502287619e+00
2.155057630399613844e-01,-1.337745842584241895e+00,-1.809360100813473260e-01
4.957026710477054343e-01,4.281460513704078708e-02,-1.485940718977567965e+00
1.092499720904738680e+00,-3.864188652611676433e-01,1.129905768375087105e-01
-4.958391789643556424e-01,-1.024227597783093024e+00,1.720765109600317644e-01
-8.264775037679137348e-01,7.281097341790487842e-01,1.076607054693990984e-01
9.444275205914409721e-01,3.234757190332967491e-01,-7.999947503516905423e-01
-1.002630480659212564e+00,-7.950516804056163567e-01,4.153839182832465560e-01
-6.295884414379475658e-01,4.205199710191738216e-01,-1.111519715889554449e+00
6.689490517917207058e-01,9.985972761126952202e-01,3.166586488167950630e-01
5.264233408554086502e-01,8.444418824047911221e-01,-4.389601291264936256e-01
1.173542127061986795e+00,1.106932505378281639e-01,4.214263930394911983e-01
8.109707062360180796e-01,-1.704996343857438923e-01,8.637110419409370632e-01
8.655996761563571340e-01,1.148061613558265526e+00,6.490339408657644360e-02
8.009694846496034915e-01,-2.779274325060982487e-01,-5.856180005645476028e-01
-1.235414797443159296e+00,-6.685193912715555777e-03,-4.290533671369770596e-01
-2.546182371931867139e-01,-9.067679119127364240e-02,-1.117223049020474201e+00
4.616604027878424277e-01,1.224634954566895750e+00,1.023136849505439233e-01
7.253898408145234011e-01,-2.438215058738192331e-01,-7.426112619356399769e-01
4.972120495755067981e-01,2.676391392821473314e-01,8.233545366558656653e-01
2.807260941339266291e-01,1.232295792807324597e+00,1.023675841497484473e-01
8.250416808649340128e-01,6.737363513171197305e-01,-6.667732851961822860e-01
1.225937761054688713e-01,-1.136259780398988450e+00,-8.251683866241686927e-01
1.531339378602276646e-01,-1.098100670930606260e+00,1.720807017592042576e-01
1.180904656819423915e+00,1.005198239624829765e-01,3.985713626202453397e-01
-7.143316986159651272e-01,-1.166581590756970543e+00,-6.558482233266083039e-02
5.409153747451261873e-01,-9.764899089848840807e-01,-4.556659269440596072e-01
9.870361561892815327e-01,-3.168316609658055061e-01,8.139822512476369010e-01
1.235759556032985484e+00,8.687364982003062952e-01,-2.689475603791526837e-01
4.096917474262902759e-01,-3.227547690194952357e-01,1.237364552914568927e+00
-5.675121750314999769e-01,-1.092732002239864553e+00,5.330669680649786912e-02
7.928117162117670480e-01,9.659639687448149381e-01,-2.357137453590429366e-01
-3.173865482800051763e-01,4.805506995432988759e-01,-1.180986274740852382e+00
6.549319300573330782e-01,6.033682880101580714e-01,-8.039886706801315785e-01
7.466226579474521952e-01,-5.997492809622388954e-01,-3.456864392868914115e-01
1.535518140872714210e-01,-8.737585943620678197e-01,-9.953232233307665044e-01
-1.033322106157478437e+00,2.045113615670320628e-01,1.799198546586824043e-01
-3.080794695851926668e-01,3.079444030584415626e-01,-1.308472821504198524e+00
-4.202144544932136516e-01,-1.268896264615565483e+00,-2.162076905789971915e-01
-6.406905591049930626e-01,6.045365604311367935e-01,5.933202784216466963e-01
1.185767775356532328e+00,-3.280055419851680698e-01,2.290586747770856080e-01
-2.092630739964603248e-01,-3.317206349841916313e-01,-1.029155019374268898e+00
-1.994220015467850771e-01,9.746626136740954571e-01,9.457777389027226533e-01
-7.565176863713783950e-01,8.851418238599925159e-01,-6.297376079838074014e-01
-2.125494798897710758e-01,-9.615795053716995611e-01,3.118534843727084338e-01
-3.807355927566252740e-01,1.383706038990596410e+00,3.972339954994986710e-01
1.097533541164655624e+00,1.308912478340307772e-01,4.744356038846621049e-01
6.966302104858117517e-01,-1.048724868087463458e+00,3.443304524163174896e-01
-3.001255630574004019e-01,1.123334015759987370e+00,-1.781540919399847711e-01
4.434127300647370262e-01,-8.820083221858289191e-01,5.450803484721473691e-01
1.516579650366404741e-01,6.870891386857385097e-01,-7.555346928877694213e-01
-1.029040754684877462e-01,9.584152524206870361e-01,-3.869309091081142848e-01
2.234287396600042816e-02,1.428689233721090135e+00,5.384072585893779905e-01
-1.085073480978598015e+00,3.001733625995669508e-01,-4.433563769355884643e-02
1.305215503650104525e-01,-7.013061657872613486e-01,7.915966099907262299e-01
2.446830195174732325e-01,-6.112187498122655382e-01,9.555740378014889735e-01
2.350847873136606425e-01,-2.688029113584846641e-01,1.319746147275164372e+00
-3.618781250700038310e-01,-9.379100851736645872e-01,-5.767161048356999054e-01
-1.213831301142036301e+00,3.064990080605716205e-01,-2.600838742702447082e-01
9.328461155901224267e-01,-5.383869117819536365e-01,-7.955968590564951870e-02
5.276987700021603667e-01,-9.569729390859709195e-01,-5.029624624952676593e-01
-5.978796207346874780e-01,7.399459580668278358e-01,5.388464985921559425e-01
6.325519173209961377e-01,9.783378173445853032e-02,-1.181495569254022326e+00
1.369737529190504510e+00,7.420688957480758852e-01,-3.001252175096041364e-01
-1.015282518681205337e+00,-4.400478254046157334e-01,7.407380145073603206e-01
3.319502898959412196e-01,-1.264636283314595211e+00,-6.091327635550427555e-01
-8.674732025976351624e-01,4.401923466286891129e-01,-9.580688457275579051e-01
-6.095777807249324054e-01,-1.729074629058363344e-01,1.312899551970505341e+00
-1.483107130118801098e-04,6.793320488296898940e-01,9.941624881379654832e-01
-4.449646785147857719e-01,1.241313051502775933e+00,-1.045776504140581188e-02
9.413135115575237133e-02,6.880453808750683908e-01,9.087424990373761391e-01
-8.619104765103887678e-01,-1.032271118622466011e+00,7.631053335406080829e-02
9.503343953654657117e-01,-3.890725018549979208e-01,-1.543666197995660905e-01
9.490303314714080285e-01,-1.300310784790711634e-03,-5.254160124449871461e-01
5.118374014387020443e-01,1.463871532603665607e-02,-1.394442616199139895e+00
9.211667142689998755e-01,3.407673467261357891e-01,4.760612866160104928e-01
-2.303048154193676200e-01,6.635043087183315480e-01,1.171344908877395286e+00
-6.181298217486336233e-01,1.262758010997787395e+00,-3.862463256362642233e-02
-1.055781519514502054e-01,-4.925986013514811468e-01,1.039045750475389385e+00
-1.249089175069490798e+00,-3.252987842778369276e-01,1.506736287310326272e-01
4.345575745877232055e-01,9.982645061092068062e-01,-2.060594942600555701e-01
1.089174058862397709e+00,-6.294955114096763005e-01,9.087692884138079963e-01
1.320148037175291167e+00,4.129957570161982838e-01,-1.523084912088590870e-01
7.114691092702253306e-01,7.475976542803772773e-01,4.035869836305844838e-01
-1.197092522167967132e+00,-2.091507520811833332e-01,1.795748214473394111e-01
1.981128679058435371e-01,3.183942503956757042e-01,-1.318233730683144644e+00
5.365137111968660832e-01,-6.441354945988427838e-01,9.691120353253586117e-01
-6.039084376695099676e-01,1.162119303953918908e-01,-9.870246923274381690e-01
6.750583797091347371e-01,-5.136704356958167184e-01,1.129098884440474349e+00
7.005534631251376931e-02,-4.027830683240933296e-01,1.272501430095576813e+00
5.226772986621155415e-01,-9.376567436297427172e-01,-5.008560423814300000e-01
5.188220622702032214e-01,3.986092590270743918e-01,-1.153712540351750970e+00
2.071747844554808204e-02,-6.510313448899803790e-01,8.256255185491893078e-01
-1.139879809178438591e-01,7.846632661238349682e-01,1.000124444984152206e+00
-1.345531911276561798e+00,-7.900772321164684087e-01,3.692685827591638548e-01
-5.813172219622196879e-01,-8.533874472469201722e-01,4.698438598987510484e-01
-6.182333039457843515e-01,3.242133065938768710e-01,8.873007988454977291e-01
7.567560238789494687e-01,-5.470285705911996921e-01,-3.747597582903437474e-01
-4.382783211580260629e-01,-4.928275031281507679e-01,1.009395506055014158e+00
8.671619862088885133e-01,-1.452745769654375796e-01,7.803806267938753205e-01
-1.087117325076165791e-01,-1.121642184502828599e+00,8.485580708647488812e-02
9.310974308242651043e-01,8.068492517820180510e-01,-4.031231192280704256e-01
4.674450265097812030e-01,5.912044805787923796e-01,6.687976463182654374e-01
-2.029070725466275080e-02,1.161340697563526536e+00,7.117134489534058250e-01
-4.728876982592889466e-01,1.049525386496008350e+00,-3.382060796471741404e-01
1.220990935495738672e+00,5.415017168504084877e-01,1.442705723448870492e-01
-4.168041849930165244e-01,9.292456688868461212e-01,7.191678189966679291e-01
-8.322134525888620973e-03,2.943737364246002963e-01,-1.381363617280260137e+00
3.162583808418597542e-01,-1.351160433560946839e+00,-1.437169826743379675e-01
4.979187919005748086e-01,-1.071169692584722277e+00,2.964616743191018089e-01
5.335264456207261530e-01,6.597789117985471963e-01,-7.305865177577024472e-01
-1.195349250332766067e+00,4.012553326355499106e-01,-6.925070110204574192e-01
-2.942906056861967490e-01,1.054201418675261293e+00,-2.615457085527494452e-01
-7.440431161090185763e-02,-1.338681571937780035e+00,-5.911246368401447127e-01
-2.168906775235822648e-01,-2.026048309659040370e-01,1.507825152189940177e+00
8.777706111589298477e-01,-8.645658563949238928e-01,7.069293194728490937e-01
-6.637364833842888112e-01,1.235212571762214440e+00,-5.193210874833137369e-02
8.615902879692349803e-01,9.298852198071492214e-01,2.269504111229561361e-01
4.852252534792416694e-01,9.058987604080743772e-01,-3.633249071849137812e-01
-6.321310334994876268e-01,-1.017359799862423975e+00,-3.494845792307466614e-01
-9.306400201136475481e-01,1.054519857481642370e-01,-7.288522427280180738e-01
5.457231744529981166e-01,-1.083713247057221246e-01,1.012500740552075396e+00
1.890857882359914949e-02,2.980344740754459210e-01,1.175517746948854025e+00
-1.083481280192283736e+00,1.868810722550485748e-01,7.840320335576289601e-02
4.722244245911302873e-01,-2.546044215662576216e-01,-1.238539820153058191e+00
-5.219073643018240505e-01,-1.055601256457162185e+00,1.239362080421292367e-01
-6.616431640208503273e-02,-2.095962192435637528e-01,1.490190118618607951e+00
7.583967204737751544e-01,9.365170800940216811e-01,-2.608138042058466555e-01
3.596639474492773214e-01,-4.088717276573837767e-01,1.273400563429697874e+00
1.179671535307465602e+00,-5.755009135701107947e-01,7.922445377156456248e-01
-4.325826230787139237e-01,8.813256751108199394e-01,-5.562875779149819566e-01
-5.589215239224637477e-02,-6.777389069242103492e-01,7.610069166536732599e-01
3.304807078061094971e-01,-6.548146554255449558e-01,-1.148408850896111888e+00
2.390558616647769918e-01,8.515833841668708493e-01,6.965956235048770262e-01
-2.799470940690603760e-01,1.406398103048033699e+00,2.663089966456753666e-01
8.558859248454768753e-01,4.246299302987202595e-01,-1.016199443585049877e+00
-1.297022818819248968e+00,3.308156568061079716e-01,-5.128214416380378893e-01
-7.264605252500582200e-01,-6.257722427881230454e-01,7.500789760602286638e-01
8.760165890715223558e-01,-6.003905778471183563e-01,-1.277792049946946396e-01
-2.334685505350215726e-02,-1.419264092169796765e+00,-3.635765439459869297e-01
1.323169249186758600e+00,-1.985136111474573861e-01,4.401140114679438775e-01
-9.008379676909175071e-01,5.936359154742004707e-01,3.145317458412075912e-02
8.239823490775169956e-01,-2.929471175118647519e-01,-5.068088195532782780e-01
-3.235184519851264651e-01,1.500897305302104190e+00,4.117912871968906208e-01
1.020770859431055833e+00,-9.253009664480768004e-01,4.223061219014592749e-01
-2.111115678742159496e-01,1.059367888422362514e+00,9.281481966003460871e-01
3.265467253866786157e-01,9.161076175783078313e-01,6.147397518599259092e-01
3.989464859469349922e-01,7.092488171026943844e-01,-6.615316114259993663e-01
6.012582069212364377e-01,1.335537949283178462e-02,9.085068906195842287e-01
3.258036839799229867e-01,9.990604931014773760e-01,-2.038988469156093053e-01
-5.544957856969536802e-01,-7.935867145446869053e-02,1.380134805171427503e+00
-6.179918555505206079e-01,2.403669978266036733e-01,9.578475302079386688e-01
-3.643914589325289444e-01,-9.905348989290343464e-01,2.668608447879394774e-01
-5.311545109689059796e-01,-1.018989982648902171e+00,1.817137523128244392e-01
7.427224675154275868e-01,-9.373011585042430038e-01,-6.416772650482835405e-02
8.896642990960098585e-01,7.757034933590114534e-01,-4.911601505330307482e-01
2.935960801871434489e-01,1.176472562256656751e+00,4.998005266656299628e-01
1.885039155987380810e-01,-9.777543242960008429e-01,-9.663786177529821719e-01
1.456735975947278383e-01,2.717920012451613410e-02,-1.479798301604639876e+00
-7.677845736741863991e-01,-4.344243640764174769e-02,-7.685029965119708484e-01
1.564436454956064648e-01,-6.975082659355159587e-01,7.797293824575826093e-01
4.417217427717793354e-01,1.211033918872506776e+00,3.658269283907159553e-01
-7.742944476852836599e-01,6.321895113793966070e-01,3.048279936411440461e-01
-6.472407575760715792e-01,1.457663346729564102e-01,-9.890284544294952740e-01
-6.160857040107423632e-01,6.053269694577821936e-01,6.380583576907620236e-01
-9.628851424139907300e-02,1.485813933700250500e+00,4.129929243821790497e-01
-2.140305457547383716e-01,-1.396867559124420621e+00,-4.189775638647026956e-01
5.116990260437380700e-01,-1.732763014026252324e-01,-1.248572985230988586e+00
-3.313266895895058961e-01,1.324175264838509225e+00,9.498264884173181211e-02
-4.278706288703668092e-01,-3.893022500351341897e-01,1.186852907909534016e+00
-8.326836158803030408e-01,9.762586745436362401e-01,-1.121128124652634034e-01
8.647264012267301680e-01,-3.335866702651447135e-01,-3.812927624749449795e-01
-7.322368945927110184e-01,1.004289328800863190e+00,2.611157583666089479e-02
9.738857543097879654e-01,1.979032868389331845e-01,5.395780530727393165e-01
8.426807083979366286e-01,-7.568483075669377724e-01,-4.107914744898959886e-02
-5.235783381528481550e-01,-1.038197168325158293e+00,-3.956246221933024665e-01
9.655835633408570429e-01,9.443675133290359014e-01,-1.973065308902909876e-01
-8.824124493129782421e-01,-1.768552611114231898e-01,8.377120318843936930e-01
8.609154150862013966e-01,-8.311490792230514790e-01,7.082450000115478872e-01
-4.092293445771705840e-01,-9.941499417650968562e-01,2.848228983235300826e-01
3.905891425046954524e-01,1.317564827579683850e+00,3.459979067016858423e-01
-1.588401491417301969e-01,-1.428232367311338180e+00,-4.030918753047826320e-01
7.821287036309325646e-01,-1.022485264684009465e+00,4.677183013847153181e-01
1.341063062288977203e+00,5.251767451160482825e-01,-1.491486458244479785e-01
2.265977653818140314e-01,2.139822192958594771e-01,1.084580663515523513e+00
-8.322272833758641297e-02,-1.486086510820953999e+00,-4.653567091834741598e-01
-9.546422277943444890e-01,-9.414213551697173665e-01,2.729667268781645340e-01
2.445869055934095371e-01,1.387526443529157216e+00,3.140812444053586727e-01
-3.651567245549962037e-01,2.298741252902946341e-01,-1.204517959298032626e+00
-3.357872633125304485e-01,-1.004571781611444337e+00,2.626273050644038487e-01
2.442546501595637964e-01,-1.156088107238582463e+00,1.088308930024400184e-01
1.369214364371002413e+00,1.699821673081953755e-01,2.349635554254862757e-01
9.496613231299297908e-01,3.835915000661642704e-01,4.316901278651489315e-01
6.722912364850650579e-01,-1.067933557482710016e+00,3.343887038535914291e-01
-1.282431415516601669e-01,-7.192159168595363417e-01,-8.596609975828646277e-01
-1.571430614359687894e-01,-3.049201374644650575e-01,1.358164393903729561e+00
2.451953261235755577e-01,2.274328703355702752e-01,-1.462797360475822206e+00
1.410284989773147590e-01,8.860726349247971534e-01,-4.676060931576210833e-01
1.063127273502931791e+00,1.057553388081565959e+00,-1.476430561678368156e-02
-3.924376168668923248e-01,4.159479622883978656e-01,-1.296341088602138480e+00
5.457644931342227057e-01,5.605836867035279836e-01,-8.848295146063485106e-01
1.448268718862976367e+00,7.954403815220119078e-01,-2.279170061940442027e-01
-1.430628913563393168e+00,-4.975215226885585929e-01,-1.441279434225653695e-02
3.270721063348412672e-02,1.438969760590078417e+00,3.679236521457469045e-01
-1.894041424371598614e-01,1.075602375501601315e+00,9.177951664068751958e-01
-1.138018937885954651e+00,6.871531351349099426e-01,-4.364608430853727516e-01
-8.344444852615615638e-01,-9.912108430374449997e-01,-1.947945637887592563e-01
4.167477875368606061e-02,-8.403694441042239838e-01,5.946453313721610234e-01
3.810288081805514038e-01,-8.359511361054944301e-01,6.474360269490624376e-01
6.931654026713220118e-02,-7.793826697902563883e-01,6.710337248879340022e-01
4.809928188062767562e-01,-7.986514442323864316e-01,-7.073144063858798347e-01
-9.640492670532645469e-01,5.126428095791485395e-02,4.246674558948585476e-01
5.810672492949088275e-01,-1.298270007477355437e+00,-7.774296394775055685e-02
-7.539474606732265993e-01,8.807436846681366838e-01,-6.145508933256393913e-01
3.702625373625760830e-01,4.941331441800457247e-01,-1.010839492180976018e+00
5.194379612880494212e-01,-2.789697680418685155e-01,-1.134790685324756687e+00
-2.412376921157921295e-01,2.438419664982192578e-02,-1.175944947313443567e+00
4.953132260525905939e-01,-1.264742033817756628e+00,-3.062216881086502474e-01
1.332548185951071940e+00,3.445186522418675068e-01,-2.217439541017689891e-02
8.052406656587371980e-01,-3.593456833244781934e-02,-7.816233226891807773e-01
3.857048133192736428e-01,5.443673979097726212e-01,7.786282644068872605e-01
8.533434342908720049e-01,-3.532357727836248906e-01,-4.505130547074850389e-01
-2.947608900486422406e-02,1.031887079916935290e+00,8.260739401925599745e-01
-8.046096253596113357e-01,2.613897985864027107e-01,5.436282672245680292e-01
7.661849044627527805e-01,2.883426792730978214e-03,-8.492104518146281755e-01
-1.171958648989381402e+00,-3.583040181231013088e-01,-3.092210186048876541e-01
-1.252730427028045268e+00,-6.029681000334615737e-01,4.579237378844000506e-01
1.335144562593771012e+00,7.357247897574189510e-01,-4.313801178629297906e-01
-9.319428704667570562e-01,-4.411900555862627304e-01,9.875230096323823759e-01
1.158070440980929261e+00,-2.311572939682036421e-01,6.194419654557613564e-01
-1.007794008980474665e+00,5.678229766633279274e-01,-9.137574864217155035e-01
-3.572917964626193821e-01,-4.976474759898964484e-01,-7.997314218725121160e-01
8.495373181544217944e-01,-5.216324458825546406e-01,-2.319922730477895767e-01
8.079867423020936634e-01,1.171246810480929490e+00,1.226095930650068500e-01
1.228356817170256354e+00,8.859831414422977280e-01,-2.919039759807795162e-02
7.841336505558889058e-01,-8.614896359157151462e-01,6.631650832451305710e-01
-8.164371864808197543e-01,-9.761301006105291833e-01,-2.254350915925226739e-01
2.047786561638169911e-01,-8.584415962763444208e-01,-1.040548505285005199e+00
-1.196148607242357720e+00,7.277825316662166477e-01,-5.862359868079340952e-01
-1.269534980116650447e+00,6.895500905785334478e-02,-4.610393437643627301e-01
1.167572724806825724e+00,-5.719096543794409682e-01,4.347803787025500410e-01
-3.655094339552866778e-01,1.298005941647829342e+00,1.039209266639744833e-01
-8.789377388906637334e-01,2.861676313474151648e-02,6.145672702613173000e-01
5.952383198190724922e-01,-1.628612068478959007e-01,9.852271958120908391e-01
7.520461276816774454e-01,1.348593714297232314e-02,7.922844818956449320e-01
-5.061784300296773287e-01,-1.279875734305727208e+00,-2.185783828646007121e-01
2.942426773031502352e-01,4.630895767281503206e-01,8.862418726815828318e-01
5.206464321641347537e-01,-1.108668147784150460e+00,-3.438274465939916702e-01
-2.680017600163339675e-01,4.866021128329160034e-02,1.535012267254102225e+00
7.006254826389067825e-01,-3.253759389167059646e-01,-7.302602760972760620e-01
1.153165010507957833e+00,5.017208793318065352e-01,2.415637158087956260e-01
1.444421757785586680e-01,-1.223770973770813342e+00,-8.011656030489648916e-01
-8.397750844674906068e-01,-7.736737166164564528e-01,-2.928312575853128097e-01
3.566167688630401678e-01,5.475571530264830011e-01,8.076592549736165694e-01
1.405163795471672916e+00,7.095868583676839814e-01,-2.172864619137076236e-01
-8.462072735682452107e-01,1.110924353158510680e+00,-2.804124279815504717e-01
-6.055609663475000071e-01,-7.632893487599111682e-01,-5.056250002806634836e-01
3.207626851547712432e-02,1.373956671939725371e+00,2.756776863215655848e-01
-2.860271709442501198e-01,3.156116152722943102e-01,-1.320055548992880912e+00
4.145365713922804507e-01,-1.448049074460240560e+00,-2.780882253240406499e-01
-3.841366272507322210e-01,1.237810685787932075e+00,5.085799701817502738e-01
7.612264331966754893e-01,-8.116229041796529931e-01,-1.886885818994018527e-01
1.605557009751255038e-01,-8.603975744901879441e-01,5.604209213560977787e-01
5.833955393632058728e-01,-1.293209175674510547e+00,-7.958016328211703350e-02
-5.603852234614021405e-02,-2.435727700394557382e-01,1.450946299146275154e+00
-1.048045817136392444e+00,-4.310036138380837767e-01,6.838258479640987320e-01
1.250749996340978942e+00,-4.755854933019886821e-01,5.261653923181146553e-01
5.294214828900110081e-01,1.049632368110985370e+00,-9.939502765811135399e-02
-8.296852261233242931e-01,-9.197390833623930728e-01,-2.271435419550210388e-01
-8.373676239542708899e-01,-2.627283561911700760e-01,1.025109039538462108e+00
4.866805476795943997e-01,-1.006382764139822195e+00,3.733236000765898233e-01
-1.108093096927389221e+00,-7.041061516952645816e-02,-5.065700044905345756e-01
-1.701098405302845992e-02,-8.304777086849999268e-01,-8.793392773604432611e-01
5.686940913061305780e-01,-1.811398127999210017e-01,-1.096881067622039518e+00
1.132965100887121768e+00,3.267154457003698664e-01,3.434399454852068989e-01
-4.335538928976579998e-01,-2.745632833437025577e-01,1.336149582111537448e+00
-1.215706556115976333e+00,-9.106482976267722407e-01,4.607148415662826180e-02
-1.794258965352037993e-01,1.146787285420340252e+00,8.718025516674706710e-01
6.112778102896095911e-01,-2.597433984344465485e-01,-9.581168523607332954e-01
-1.551681265261991571e-01,-3.667190474033026892e-01,1.231798138556079447e+00
-8.979415957145745475e-01,2.794749852547627200e-01,-8.504953471558898137e-01
-6.650183861912573047e-01,7.096861291691101137e-01,4.818655951831145035e-01
4.856099705079831019e-01,1.252086865812447991e+00,3.242097839468298659e-01
-8.856655774737917097e-01,2.412496635425604927e-02,-7.405023992625933138e-01
8.320901684960616551e-01,8.433667869339812884e-02,-8.185696234858267362e-01
5.764637380755187612e-01,7.897832597194229809e-01,-5.258302950826906352e-01
2.875590216725373849e-01,-3.900630400959432253e-01,1.274619722767946328e+00
-8.288405574442508916e-01,7.820273134042690089e-01,-7.974688042190685167e-01
3.158248738342510631e-01,4.328009624033504199e-01,-1.127702012220523686e+00
1.712685718135960045e-01,3.362638631464498484e-01,-1.258281416063860014e+00
2.181172546733319839e-01,-4.878775401951981339e-01,-1.267945230745209484e+00
-1.138472956266744385e+00,-2.395891658161694859e-01,-4.106006820911390354e-01
2.888220600535498228e-01,-3.298504780970067385e-01,-1.389792241203899881e+00
-3.428126992060638312e-01,5.577051549831782973e-01,1.222996760364854385e+00
1.202892369191669586e-01,-9.443462154884733062e-01,4.151864118572742846e-01
-8.235955562806926977e-01,4.279634548212732370e-01,-1.005731228294337809e+00
-7.640867130064536994e-01,3.622997680383462371e-01,5.700813425401555223e-01
-8.075221685484883505e-01,2.197832972554041586e-01,5.709904341735886346e-01
5.524847262763558087e-01,-1.234769929173918479e+00,3.705180066312016574e-02
-2.939305589107005234e-01,-4.092057462523048805e-01,-9.202599733810463700e-01
-1.303303314448996053e+00,-3.012874263535527675e-01,7.006935750851725486e-02
-6.988082968089173175e-01,4.295668738964127376e-01,6.377235794914664080e-01
5.317415612506628531e-01,-3.291351532570923055e-01,-1.062860357416763435e+00
-8.089300956269558363e-01,6.702071666056693688e-01,-9.548023476395013365e-01
-6.390644221851574658e-01,-1.146467023719232037e-01,1.243383253879392969e+00
-1.345402568272440647e+00,-6.028781432019646447e-01,-2.359363597748803665e-02
-6.277597187232396569e-01,-3.069055050867879331e-01,1.233175278219914350e+00
1.029221463011129600e-01,-3.824961333213057757e-01,1.286817866565744817e+00
-1.443768654982951594e+00,-8.202709007093268445e-01,2.655946576865533815e-01
2.542523878412488725e-01,-6.717507420140291785e-01,8.487298627612556157e-01
-9.432779191509703676e-01,-7.281863555425901469e-01,-2.422555120004825091e-01
7.066991904101553867e-01,1.063256881455212133e+00,2.825302252520126567e-01
8.622781085868196360e-01,-7.197369536797301182e-01,1.251438345484003588e-02
9.821843086631353303e-01,6.165788328772749960e-01,3.037063272948989923e-01
2.172625313031611716e-01,-1.171688167486930388e+00,6.366834292648620997e-02
1.013282971541192179e+00,6.679529210030928921e-01,-6.317353601477779801e-01
1.313333013073444133e-01,-9.579071587210579164e-01,4.032386814284055765e-01
-2.002624528602800213e-01,-1.049011140977401002e+00,1.804745594224871630e-01
-2.392473774512914042e-01,1.265237838698688444e+00,4.687501024599650262e-02
1.256578125590497308e+00,-6.604216027595656568e-02,4.744749956307947047e-01
-2.630395119375281143e-01,1.104259387992796659e+00,-1.913907538698197686e-01
1.022984262177086379e+00,-5.605220430100623652e-01,9.115884812259318348e-01
2.495981569709978531e-01,-4.931251272135491609e-02,-1.524970763399481122e+00
-6.617918888806525457e-01,1.020823416763102509e+00,-4.230107695707282511e-01
2.808165654890191210e-01,-1.111228980850700543e+00,1.897673993470954390e-01
5.801251511193875054e-02,-1.123037360412284524e+00,-7.771077316776031640e-01
-1.946028744274422295e-01,-1.200708980056473418e+00,-4.134534243347066929e-03
-3.049328295761341567e-01,1.019623754727378095e+00,8.848031175746524646e-01
1.199262324758389120e+00,4.301142180927040592e-01,-4.149968250111871204e-01
-3.587176278415435404e-01,-7.155701015577031754e-01,6.472845350327819380e-01
-2.607921890596492376e-01,7.133216799404066277e-01,-8.179717174002260061e-01
-1.285268466748063165e+00,1.423860175911655567e-03,-1.494975083846118713e-01
-5.134164187887300113e-01,-6.438723647003871120e-01,7.252697391769458157e-01
6.188671042674086936e-02,1.231071890645032640e+00,7.866025468895765371e-02
-4.843878894848133720e-01,-8.361599508955550389e-03,1.431753324073069544e+00
6.307922431878438818e-01,-6.216439927531169918e-01,1.015207355019058788e+00
6.964709553390424635e-01,1.020444145980337725e+00,-1.528736082368870319e-01
4.055397812157836013e-01,1.125937152286561771e+00,-2.455048122660523358e-02
7.697286386492641075e-01,6.037258914574425983e-01,4.537092797109718578e-01
-5.485709516321063406e-01,-9.910807337276500428e-01,2.240094795100987801e-01
9.969791567648191855e-01,-9.421789338403316894e-01,4.243947235490537206e-01
1.263125939614358373e+00,9.619869638479570106e-01,-1.415352005549144199e-01
8.085838447115957228e-01,-6.707007587626061529e-01,-1.983880058724570294e-01
4.425917798906253142e-01,3.709487351492927742e-01,8.402288023675024142e-01
1.268336016124324672e+00,-2.805699818710498672e-01,5.620768159988919210e-01
1.353163430473833806e+00,7.204599729807887876e-01,-3.563838751021309315e-01
9.642367362544780329e-01,4.016712557106746906e-01,-8.514240700672885964e-01
1.380105668693156540e+00,8.244371851275741347e-01,-3.142334088091846001e-01
-1.099619265540474622e+00,6.721713243465011756e-01,-4.380913121627244555e-01
-8.160291143137187175e-01,7.885034311715647393e-01,-7.840630726655704041e-01
-9.210660921462290318e-01,-7.010473809616715180e-01,5.666719883862630924e-01
1.275605731131015386e+00,8.447075440793726520e-01,-6.475024883266219944e-02
6.054341239197622571e-01,4.731148452948980010e-01,-1.002169665491037920e+00
-5.021078064589196144e-01,1.014796575035817439e+00,4.871109431267600098e-01
2.613853131073928804e-01,-7.211008038300804612e-01,7.622487436391899296e-01
1.408995825342668207e-01,-1.294737152838842276e+00,-1.220833809154522054e-01
3.118493366181722751e-02,-1.094880674003805981e-01,-1.336872397323987327e+00
1.295998084375706849e+00,1.894593342273277747e-01,3.757867424223589742e-02
-1.160024171650561042e+00,-4.214537072078009539e-01,-2.782628131482753342e-01
5.288590630043537022e-01,2.897093575982703784e-02,-1.402181326489879254e+00
-3.357652346760494066e-01,6.976753155719329635e-01,1.103234938931545450e+00
3.843312915361656867e-01,4.122711969832891232e-01,8.639784059540539518e-01
-4.395093564650127127e-01,1.020993238569381845e+00,-3.299565156687284673e-01
-1.403470130383144276e+00,-7.305440315448161748e-01,2.411337540487281661e-01
6.663584377302974593e-01,-1.320739609079216448e-01,-9.391844240827731394e-01
-1.306998578942708544e+00,-1.195888722451566577e-01,-8.692157164050552665e-02
-7.141604969865712471e-01,2.846015145110491473e-01,7.184192049851895190e-01
-4.548166750776646006e-01,4.722907292188184385e-03,1.516220961155371860e+00
5.811583895492818952e-01,5.671535414920331197e-01,6.101317218760373695e-01
-7.051198079829629206e-01,8.459996353136550740e-01,2.152379770589073482e-01
1.183343000960836333e+00,-1.816060414597459871e-01,4.716883982019969695e-02
1.093181679138925722e+00,-9.006326901887949932e-01,5.985049731949664276e-01
9.830006081105081561e-01,1.689649525276528952e-01,-6.136017840493750430e-01
3.223519984611661338e-02,1.418702296601335178e+00,3.645382916118238281e-01
-7.124629985982572355e-01,-1.160187718083120378e+00,-6.124024993563990243e-02
9.703303249990044010e-01,-2.292141355396421498e-01,-2.379775319895786889e-01
-8.700615675801820492e-01,7.744165414632074584e-02,6.236161080259889911e-01
5.210375923625258920e-01,-8.060145738912315450e-01,-6.533608937919274107e-01
-7.070557568265806170e-02,-1.076044009797455958e+00,2.093777668295007111e-01
-5.174561963911514795e-01,6.778258500336316050e-01,-9.478205028468148496e-01
-6.670034063482040976e-01,-9.132412911551019974e-01,3.015625327335570427e-01
2.131277844944770850e-01,9.675382118916361351e-01,-3.444516491070983566e-01
-3.180194189321250975e-01,-6.026650520375456122e-01,-7.838658714812787309e-01
7.954608909567954800e-02,1.189425024056914415e+00,-1.524661630622949592e-02
1.176479960981655637e+00,-2.577582421531984455e-02,-5.081438450291628217e-02
2.807932864626158653e-01,-1.297948324544856202e+00,-6.632209033868987635e-01
-4.195723080032374153e-01,5.704110414003760177e-01,-1.077809688726662607e+00
5.847825717486887509e-01,-9.994569310616424618e-01,4.386117725082917529e-01
6.478416409980029822e-02,1.430151203374254054e+00,5.172657668422249166e-01
-3.152974364117154260e-01,-6.332368991490606724e-01,7.960231432936120122e-01
4.287680050704684165e-01,8.106034357841286342e-01,-5.150547314403530752e-01
-1.275596447679207435e+00,6.002831012841076674e-01,-7.376804837108538182e-01
-5.545427330393033483e-01,8.681156015407608395e-01,-6.212731995260587503e-01
-6.239330240038346714e-02,3.751229824055782869e-01,1.230091325348748654e+00
-8.711037095331244373e-01,-7.349548674448785901e-01,5.469235943617348772e-01
-9.019071115506155367e-01,-8.699057104184714229e-01,-2.094874411498459654e-01
-2.880139301346566483e-01,-4.701367489121719978e-01,-8.943766844068476995e-01
6.018465341940818503e-01,-6.937286311916784909e-01,-5.876000618575832890e-01
9.325101387817429088e-02,5.759582781697233367e-01,-9.196434975553061664e-01
8.465628769953336130e-01,5.723800971332226872e-01,-7.963296818406430111e-01
-3.202163778237793190e-01,-1.224408510493152580e+00,-8.937173360538981648e-02
-5.518224488108895986e-01,-4.345624075123485364e-01,1.084678871342238171e+00
1.048489611439071378e+00,-4.157639754205626481e-01,8.437630314732943448e-01
1.997581359822951999e-02,8.917633514458975785e-01,-4.726816175328233949e-01
-1.256497932857378041e-01,-1.373193851869938253e+00,-3.020084559583552930e-01
2.569320949245427754e-01,-2.228282749619905911e-01,-1.423736219367538913e+00
6.967828187485850533e-01,-1.059696461750314622e+00,-7.673025914701039896e-02
9.801273266514787252e-01,1.117267829156202985e-01,5.667828085829577089e-01
4.013824565253805154e-01,-4.769480978526430270e-01,-1.205004910204915847e+00
-7.104163910730245668e-01,7.226485494369596640e-01,-8.591580883420013581e-01
-8.504202611037218196e-01,2.636616954450654582e-01,4.898836936056861768e-01
-2.379247920693382812e-01,-1.397393973918374943e+00,-3.911102081896033478e-01
1.152182837751789979e+00,6.403627737284136590e-01,1.537215064294231437e-01
-5.872841741834692320e-01,-1.092610878006906594e+00,6.307891597075385159e-02
-2.388603167774742408e-01,-2.462386721064706574e-01,-1.032081438640102489e+00
1.389712015813353796e+00,8.208405940724797789e-01,-3.280589965294925525e-01
1.079162768006483031e+00,2.802695826695795200e-01,-4.853859763788109793e-01
2.437803093994817330e-02,2.157403200308947167e-01,1.224708817965763696e+00
-1.335453530758393903e+00,-4.027118559679233045e-01,-1.449464490364358593e-01
-1.186646076159726532e-01,1.433700266396325640e+00,6.511070206171121200e-01
-3.518565343154101965e-01,4.191905560336824377e-01,-1.286905019856611876e+00
-5.579083046714996552e-01,-2.233101208806403948e-01,1.386764199585398316e+00
9.769036759639563305e-01,-4.735255401132202890e-01,8.817537432284738852e-01
3.259196802404124016e-01,1.249315834061809793e+00,4.424773469431051431e-01
2.104732609615435346e-01,7.151994168001741814e-01,8.194068427096139473e-01
6.120111199641349309e-01,1.211852912274282268e+00,2.268066434278799004e-01
1.030894831171513371e+00,7.030517956020598813e-01,2.001584613281098268e-01
-1.021687122499765232e+00,4.991183988036616559e-01,-8.937086014027969538e-01
-7.182126372320004615e-01,-4.111384217056676116e-01,-6.004682844663080665e-01
8.168281496024849542e-01,-6.130903816355700586e-01,-2.411648462060057285e-01
-4.880638284471132127e-01,7.666053702269279846e-01,7.590231865746516204e-01
-2.134580367646083110e-01,1.359456422357252947e+00,2.232844046564344542e-01
6.998906851061111878e-01,-5.683470516777184844e-01,-5.015164414677195648e-01
6.622396893171087484e-01,3.529377752474128771e-01,-1.151241796476387247e+00
-2.588013135016055677e-01,1.533777889026122443e+00,5.273135648154041455e-01
1.262229911902792212e+00,-4.925568726346066240e-01,6.740631006470994002e-01
-8.446676292010337761e-01,7.487217109007466842e-01,-8.392317270452488431e-01
-6.639067358583631284e-01,9.874924471418128347e-01,-4.580799308181484619e-01
8.806037716031737128e-01,-9.776228889293921975e-01,5.289462630911314633e-01
3.328452009475538209e-01,3.132747302327215100e-01,9.332017418872644576e-01
-1.112255851991223121e+00,-9.612256026739331161e-02,2.295673857829604037e-01
-2.987031454763751648e-01,7.950977237955931809e-01,-6.748960755124034927e-01
7.408370081914400496e-01,-2.666911670564631187e-01,-6.711086062823480303e-01
-1.263662724333063370e+00,-3.558228026566487290e-01,-2.343359514098461438e-01
-1.700053015165463033e-01,1.145447095062471110e+00,-1.103342295182191957e-01
8.394210604261590492e-01,-4.591093317126492684e-02,7.790133248150982181e-01
1.205717853170566567e+00,-4.214650329371930765e-02,5.038953612793174719e-02
-1.052787571083614537e+00,8.530239811371513881e-01,-7.542873383691177658e-01
-7.172937619965451539e-01,-5.391713631124965822e-01,-5.464276652290566139e-01
6.923314565905387408e-01,-9.272901092367026310e-01,5.260440061661378897e-01
3.986620727266944608e-01,-1.224361811522680643e+00,4.021297755344142855e-02
4.845117338236454851e-01,-1.375821783029253398e+00,-2.040302238341638874e-01
-5.224233423243186403e-01,1.710243317804138186e-01,1.252031133292636600e+00
-1.381416804261786369e-01,1.212065348646988561e+00,7.904868097372674818e-01
1.103515989191742985e+00,6.271044007209776172e-01,1.854344491584200005e-01
-9.815780540993720438e-01,2.354177528590694346e-01,1.897619356802131285e-01
2.325121691962299120e-01,1.061862653879128482e+00,6.190810534096491402e-01
-3.107216156732138246e-01,5.291198111528762071e-01,1.294026070214436830e+00
