-3.195027882113702367e-01,6.829128045926011747e-01,-7.325288266846646801e-01
-6.010912081080788116e-01,6.422107523838461729e-01,-4.257282091176374794e-01
7.509385866853632852e-01,-1.296807224767664579e-01,-8.362612542873684163e-01
1.385835327171031306e+00,5.783235482388775495e-01,-1.054902158459950501e+00
1.217185513709960976e+00,-6.081998933578786765e-02,3.798936136208530545e-01
1.688781423286459971e+00,3.859889659644029081e-01,3.080125654090468679e-01
6.031157962026292285e-01,-1.209088052759799553e-01,-9.055818484588046280e-01
7.458167221271438940e-01,1.406310001669796028e+00,6.436795990495863817e-01
1.318689655987794751e+00,6.140034089788105609e-01,-1.095627087895941765e+00
-4.994529402983820532e-01,7.506634654563285602e-01,-4.979996393692798229e-01
1.609752891529990571e+00,9.809678747514652963e-01,6.820079145901343232e-01
1.147542376956173671e+00,8.232926121581903844e-01,7.795239350795992728e-01
1.240627941637224341e+00,-7.496922549553798609e-02,3.243113397603202830e-01
1.732428972528006872e+00,2.697100090255193927e-01,-3.234373357953724826e-01
4.591801965379842532e-01,1.621643512972937184e+00,3.329162409126684152e-01
7.442844779279977896e-01,-1.021124688305714706e-01,-8.888682058372078254e-01
-3.867558802308680016e-02,1.114280317838727136e-01,-1.042243305577888135e+00
9.589086968063553762e-01,-4.657179413397046219e-01,-8.497859526134232677e-02
9.706536560951859460e-01,-3.820838948347792807e-01,-4.082913386897955021e-01
1.250326303902407732e+00,-1.568310706877648619e-01,1.402500212566014648e-01
1.285281982128414269e+00,1.681212300529898673e+00,6.507902065838397920e-01
3.032727207165049621e-01,1.585032147563748328e+00,-5.028964059017358990e-01
6.548065341455597821e-01,1.814400774846488817e-01,-1.041025452618642655e+00
8.328382633126117929e-01,-1.586659317756380916e-01,-7.860035821793945887e-01
1.433181276390302239e+00,5.874343539020570049e-01,-1.020145591013234210e+00
5.253528540286293014e-01,1.112534574496648387e+00,-1.045048550991997116e+00
1.455764931886418090e+00,1.677853678465811293e-01,2.804954069947868112e-01
3.919089792126990157e-01,5.905782658697932286e-01,-1.101882457987925834e+00
6.635412576197041723e-01,-6.528397888110177849e-01,-3.356517620238359534e-01
5.544156986104303853e-01,1.612590136485770653e+00,-7.942490694973503018e-01
1.706176650660053307e+00,8.425105772809318161e-01,-1.112614059798666011e+00
1.161069850250432411e+00,9.426876205684823207e-01,-1.229000202632737127e+00
-6.666773865158412762e-03,1.244044244927202891e+00,-5.103964596779422269e-01
-2.970807751317328660e-01,6.695729125591658448e-01,-7.492428932489885174e-01
8.235516785032721554e-01,1.183183376722766411e+00,7.849471236728067236e-01
8.276995304613377069e-01,1.585880677575755238e+00,5.864535399835932861e-01
-8.301690044575019134e-02,1.111740473259074991e+00,-6.173031430103368411e-01
1.591189803208773679e+00,2.690044292583512742e-01,2.650878446435513958e-01
1.466186797724115198e+00,1.489567454680295722e+00,7.149491032198520557e-01
-5.042730625630300473e-02,8.760718408603663798e-01,-8.345263837418249731e-01
1.987090670920338073e-02,1.131371872616094398e+00,-7.037544574402063713e-01
1.187162698895174673e+00,5.216784499133882980e-01,-1.069173646099336850e+00
5.331160643310089986e-01,-5.245173996068439592e-01,-6.943577718373348251e-01
7.585938795402025203e-01,1.319167005989354990e+00,7.091923567683217078e-01
9.277200358048119933e-01,1.616561851450230014e+00,6.261309036828820451e-01
1.292334871307617483e+00,5.664350310103422048e-01,-1.066233501277852991e+00
1.067523228252357681e+00,9.517558518364092057e-01,-1.206230107315986233e+00
6.183851807809728207e-01,1.974936403830928500e+00,-2.753604169345691410e-01
7.288002506170515593e-01,1.773947331462253640e-01,8.408398685277613804e-01
1.316873267782114665e+00,-9.747354806255102699e-02,-3.403632786195384119e-01
1.284316993107186500e+00,1.560467535251903959e+00,7.010836009817400516e-01
1.100414274770679768e+00,-2.787230300084276857e-01,-3.901068087168517162e-01
6.450015119799630270e-01,-4.042059848215915352e-01,6.474872646448706082e-01
1.526016722512577806e+00,1.129725251355003929e-01,-4.186285643172225068e-01
1.077589723531158672e+00,6.722845307113290980e-01,8.199001249444191064e-01
1.146604992238680731e+00,1.422032978395710634e+00,7.350548004949052361e-01
1.465534942034933730e+00,1.449177591248446487e-02,-3.602044528057528339e-02
1.057113125836432577e+00,1.201211940567143976e+00,-1.220622801611266350e+00
7.398504631648389340e-01,-5.989045864827985399e-03,-9.542545836474511933e-01
-1.125451799918145979e-01,1.254081709377090847e+00,-3.093038035550617071e-01
3.641205438826954910e-01,-1.299086956375439250e-01,9.290553773430896278e-01
-2.996469641876429169e-01,6.525887170381801106e-01,7.141557795523072460e-01
1.493530182909663884e+00,7.740846978366637821e-01,-1.095512199361773131e+00
1.798171192023530374e+00,7.256018728157553888e-01,-9.992900875661123727e-01
1.407872533778800506e+00,2.067170789284293597e-01,-6.984789680266745293e-01
1.371377666153621222e+00,1.262168381901054737e+00,7.593638818796679679e-01
1.077764714183426120e+00,4.932373921916745063e-01,-1.076638813847015541e+00
7.420513477329061525e-01,1.198649669393643258e+00,7.496694140617491398e-01
1.721868424903311379e+00,4.535279948143051687e-01,2.788595502909965718e-01
-1.298973209188172828e-01,5.803883810184246039e-01,-9.117104424665098961e-01
1.190399788136187409e+00,-2.295640751852542349e-01,-1.297903707181990995e-02
9.697904123435170665e-02,1.308325450483645902e+00,-5.998926608653002424e-01
4.125597146438499396e-01,1.767001557474722206e+00,-1.652173218653851805e-01
-5.420255828778102192e-01,7.511057911093355077e-01,-4.436727419676562700e-01
1.113637592089744555e+00,-2.810097141489029671e-01,-3.181329593272784195e-01
-1.699626698111589840e-01,5.410076659054084969e-01,-8.854507803791139553e-01
4.923508846111706583e-01,1.639585133561195063e+00,2.998610874053314612e-01
1.011310131802273665e-01,-4.383088300053292197e-02,-1.022922332665197054e+00
6.414955544295561918e-01,1.416648467332323635e+00,6.014374350025165628e-01
1.987962563205339026e-02,-8.768955200925990234e-02,-1.010259972995192435e+00
9.150000595711353935e-01,2.251222474930749395e-01,8.009701630129663075e-01
-4.221117622176095985e-01,7.441221625460933131e-01,5.517802527512924993e-01
1.309311993770861382e-01,8.301584614412718111e-01,7.675039314427402060e-01
9.325465209595362737e-01,6.957459722649056433e-02,7.195885513813081724e-01
-8.689126623978071784e-02,1.312449601404001687e+00,-1.273231877164794912e-01
1.044049404807905868e+00,-2.428999599879945182e-01,4.000243862529528349e-01
1.205981702010859857e+00,-1.884677720823385583e-01,7.664809798874129554e-02
4.618570037621999580e-01,6.604772590249283759e-01,8.844466311032901373e-01
8.348639962427459871e-01,-4.933233563218202278e-01,2.928045316316809088e-01
1.336351248846467055e+00,8.116706726094126134e-01,7.477511565095246171e-01
7.219352801815602794e-01,8.956966483937950363e-01,8.601489466125836758e-01
4.249381027371481601e-01,2.327097732634013372e-01,-1.067402746395369251e+00
1.259249506274886077e+00,5.284942661562023192e-01,-1.062365640960031055e+00
-1.492922255567829537e-01,6.134065818085799870e-01,-8.641255433887816695e-01
3.505381457730510353e-01,1.568750854641296488e+00,-5.930271774482861469e-01
1.063798119524347774e+00,-2.717243055031396959e-01,2.767725958080237691e-01
1.074842264626266974e+00,5.569293936646769749e-01,7.802979110461663037e-01
-9.963255158160447267e-02,5.386895948994177008e-01,8.491018993646163304e-01
-4.426010110974309270e-02,1.345512134086019440e+00,-8.622051353223800230e-02
7.516731948827560794e-01,1.686596078719633018e+00,-9.244007578164609162e-01
2.008131117748418681e+00,5.244343465828671391e-01,-2.768974952703451842e-01
8.025533538639629816e-01,1.329057921094398020e+00,-1.117141880129073117e+00
9.207576085667711074e-02,2.170768555251454124e-01,-1.045632806665504067e+00
-6.449717248247786028e-01,6.922322567668270921e-01,-3.172605382034840438e-01
3.834050389424759064e-01,1.616372863148082484e+00,-5.717360084965480427e-01
3.660347494014394056e-03,7.452528014318210436e-01,7.718272920018547367e-01
5.915331049747885039e-01,1.921160922764407308e+00,-1.954523463867759991e-01
6.358683618361863354e-01,1.949999566678948026e+00,-1.400607785738895161e-01
1.533526229968319221e+00,3.860927635836772787e-01,-8.615411299843019899e-01
1.724589514402125712e+00,2.359848262205212488e-01,-1.762949750780492264e-01
6.325702290047400256e-01,1.660270504250042300e+00,4.182549889297949020e-01
1.296740833719825403e+00,-1.282053553384970568e-01,-2.728858242314457505e-01
2.353825120665025972e-01,1.105387836121569212e+00,6.300133661901222704e-01
2.353510992242388022e-01,7.977228714589462699e-01,8.185567855050785990e-01
7.010383297160783789e-01,-6.017980461191640984e-01,-3.865449168424250903e-01
-1.412405401243546077e-01,8.793141900554942714e-01,6.410704566709470864e-01
3.691260355718669617e-01,1.580894291520709150e-01,-1.058589994380889410e+00
2.764691070723234723e-01,8.840928501668486872e-01,-1.013528775692441597e+00
7.047266062229050609e-01,7.495309086929538012e-01,-1.155249440935788297e+00
2.056900599281141329e+00,6.126258438043025167e-01,-5.291694889368472321e-01
3.919328584917040614e-01,1.368110323956972296e+00,5.309615643145737529e-01
-3.655617073354602842e-01,1.013907415763868114e+00,-2.437211041014588908e-01
2.277235751012662390e-04,1.291626074796260015e+00,2.307803399761075014e-01
1.727367327008830333e+00,7.038956907164272137e-01,-1.006582590169737390e+00
-3.462600778830229320e-01,9.932789892005761123e-01,1.759036177235737963e-01
4.414376906012871804e-01,-5.391230640210450398e-01,-7.253526404101753311e-01
7.512539902088379851e-01,4.093652551138081686e-01,8.520618907981437617e-01
1.533203264936712884e+00,1.267694758624431373e+00,7.491854485542027708e-01
7.641918960568028218e-01,-6.527126397209042086e-01,5.596108359297978507e-02
2.672269601790930871e-01,1.227278364966296387e+00,-8.598818668526673203e-01
1.358422186420907174e+00,1.320620327473017719e+00,7.458501049902372948e-01
-1.111986033482901121e-01,5.637877992810611527e-01,-9.170103411452157349e-01
8.507901797522344767e-01,1.471611553738098932e+00,-1.096501590517017011e+00
1.802240396463983485e+00,7.973764633125598467e-01,-1.029478025554425580e+00
-2.202424833576346053e-01,9.432856407407188559e-01,-6.377818624574345119e-01
1.037712696427415482e+00,1.293379356615175224e+00,-1.225361711385864361e+00
3.398370816632419467e-01,1.040697293643790600e+00,7.388508919401119979e-01
-1.395832591064245232e-01,6.990604911908268049e-01,-8.605200452591811322e-01
2.636901642733936457e-01,1.175248965613207019e+00,-9.039425785262600321e-01
-8.100259177730581572e-02,1.102423077659925532e+00,4.121772480059033295e-01
3.887948597363845016e-01,1.648122790594595655e+00,-5.688577955042078971e-01
6.397615924042546753e-01,5.256076895096783996e-01,-1.112936042561719852e+00
5.398179097186728281e-01,1.309353309593823456e+00,6.205847025472444045e-01
1.315434818374882076e+00,-5.276038475280758061e-02,-4.959631715072493341e-01
2.869248725731356475e-01,1.604580815005751893e+00,1.159450691942549017e-01
1.835344400791289132e+00,8.120348173669524883e-01,4.875516378443696675e-01
8.331912969608197272e-01,-3.250818346566472505e-01,-6.668616886209951522e-01
1.020189679709397002e+00,-4.258753058940863423e-01,-1.339482191784455156e-01
-8.571926747679471659e-02,9.013704279115516416e-01,6.585630261910309091e-01
1.029212226034857514e+00,2.075171338533393639e-01,7.267578190182251152e-01
6.895538345551693871e-02,1.406848578518981041e+00,4.309262250602172856e-02
7.726830155101009900e-01,3.427574758373150982e-02,-9.442500162919723605e-01
5.365264846448485336e-01,1.641842976255530884e+00,-7.837662582828083258e-01
4.922395588481511819e-01,1.790368848118979228e+00,-4.528782881631587820e-01
1.056986137832930606e+00,8.029825337523973650e-01,-1.185047747516729144e+00
6.795484576197495796e-01,6.032492524602833806e-01,8.801579077893341152e-01
-4.926254686425719509e-01,8.874421632547018213e-01,-1.138920915352782115e-01
-5.646361611721495422e-01,5.088423829544483912e-01,-6.496784800956204586e-01
2.925143161352876109e-01,7.473782092675427258e-01,-1.058148826187396807e+00
-1.155128354228394244e-01,6.217032388115756314e-01,-9.160501758278905005e-01
1.427467343562733637e+00,4.303941162243403729e-01,-9.440776346324635249e-01
2.061614644033766541e-01,5.526369415357004211e-01,8.998721086651073620e-01
1.032854201195058996e+00,-3.379603257567384555e-01,-3.597526980014412734e-01
-1.273706372405291887e-01,1.256948820735251049e+00,-1.331985050845303775e-01
3.899228911705811540e-01,1.722358383635151480e+00,-1.810900701544912450e-02
5.938675221372224922e-01,7.205708613101990956e-02,8.624129775192967973e-01
-3.424728532147118532e-02,1.021613702835968418e+00,-7.338095699929693128e-01
-3.036484393357578027e-01,4.475912748644861328e-01,-8.878187524023459787e-01
2.276675196952489266e-01,8.187111502199019286e-01,-1.021637950721133725e+00
9.494669375020622359e-01,-2.444389222102321679e-01,-5.903040424090534311e-01
7.708086523181945093e-01,3.693896556594366554e-01,-1.107339227877099042e+00
1.222986079173274732e+00,-8.819918938973578260e-02,3.064708091919454702e-01
1.645946898274286641e+00,6.730014533206752914e-01,-9.788184988842115741e-01
1.013760682721272371e-01,1.034173272883840644e+00,-8.402089665092361548e-01
1.653388142386101323e-01,1.450236955225365554e+00,-4.737770997540879381e-01
6.782466085517104004e-02,-8.982547818026559439e-02,-9.902369226756415621e-01
-1.079879595125136788e-01,8.543447922922903226e-01,-8.137170300752012420e-01
3.665513192502789508e-01,-2.141528970152259403e-01,-9.394642226244798167e-01
9.080837707153754934e-02,9.055525937959457705e-01,-8.887068263893845854e-01
-2.643308665810026881e-01,1.082719826493092175e+00,1.858925289972078176e-01
2.065897359077486062e+00,7.902308955594993245e-01,2.888508827722183758e-01
7.256765087324750230e-01,1.836311389526403826e+00,3.029783218288495950e-01
6.397248403991284693e-01,8.302558787877092339e-01,8.501122145483145376e-01
1.340263040913670212e+00,1.622226420437439920e+00,6.954744402978916273e-01
1.844259882288159791e-01,1.277235596202483725e+00,-7.322481997473307969e-01
-5.082088446869408305e-01,7.809957136637625252e-01,-4.539822147668848840e-01
-2.836856532487314619e-01,8.491718148079644424e-01,-6.339197785819212783e-01
9.315757248622419384e-01,-4.259944738157303012e-01,2.779870966838144386e-01
8.298072562319258605e-01,-5.581937649185597650e-01,9.426664298895219563e-02
1.863199347212760593e+00,3.580640069898356481e-01,-1.152130410492996498e-01
8.919852046394439737e-01,-4.426280873254986314e-01,-3.945499448378829710e-01
3.656167079625311511e-01,6.783515458546236498e-01,-1.080076230393373304e+00
1.014402866225428523e+00,-3.215577792095473675e-01,-4.447514681718203744e-01
9.859646794092542521e-01,1.546092552924318131e+00,-1.137841219407347060e+00
4.503600852148428313e-01,-3.795215897963045149e-01,-8.240886602410508743e-01
1.158464338878291283e-01,2.975957238180685360e-01,9.366902879429221951e-01
-3.334186199589376232e-01,7.979838462170946167e-01,-6.128975994269371119e-01
1.109476280381767932e+00,3.001419822700758522e-02,-8.117883828325908047e-01
1.528021559016254027e+00,9.763021531143186715e-01,6.993702229425590167e-01
1.336271755652736593e+00,1.269702473114181940e+00,7.587378677464063914e-01
3.670685734836635211e-02,1.363233412484815332e+00,-3.822280724626692106e-01
7.289897024646212476e-01,1.161804443447919999e+00,-1.106753045491404741e+00
1.132384340320933491e+00,1.179884855510582753e+00,-1.217507185625277710e+00
1.584988206281179757e+00,3.113494334327568946e-01,3.080156218148775160e-01
1.718400184842936218e+00,4.133246784397618945e-01,-6.678649467173244370e-01
3.145292601483037909e-01,-4.135960070923028753e-01,-8.311762281181209744e-01
5.632491298240757116e-01,1.155932774523637185e+00,-1.075913370995913887e+00
4.547168947138801043e-01,1.754307099877127518e+00,1.058945816749055080e-01
7.667170268702377944e-01,1.805885773614523293e+00,3.706979245095046727e-01
1.139125966458017558e+00,1.069517710550631495e+00,7.862520014952639746e-01
1.760784140319340274e+00,8.208809521603148696e-01,5.298541751773205855e-01
1.126429432834437749e+00,1.082106894270551400e+00,-1.221395976119828974e+00
7.758180369970220092e-01,5.965774892574358113e-01,8.554067801246233449e-01
2.987064972405871766e-01,1.062037869153166225e+00,7.109492308123173121e-01
8.925963637781897386e-01,1.969715906635005620e+00,3.084565327928275313e-01
1.257110532224757993e+00,9.069473372792110633e-01,-1.189889165600194421e+00
1.113829476228738180e+00,1.704331868867731137e+00,6.192781193890328773e-01
-6.736080056158546547e-01,6.770858432377915292e-01,-3.248300856502748801e-01
-2.333970618453560797e-01,1.033596986565626041e+00,3.632283866584649634e-01
1.327909929061759087e+00,-1.054247815828871920e-01,4.321249339845201209e-02
1.410525230611469061e+00,3.528992885786813583e-02,2.025399945458310202e-01
1.350026627639292931e+00,2.618302179175411859e-01,5.391126812817088609e-01
2.264288977410869597e-01,1.074151053880624485e+00,6.878909851293057987e-01
9.732032942847781420e-01,9.436460200710413693e-01,-1.192657073789946898e+00
1.262347773388064365e+00,1.729135810902797443e+00,6.338712103289896316e-01
2.970658998178735688e-01,1.177095515923616720e+00,6.242486789348485887e-01
9.552910667361576014e-01,4.466734018500697623e-01,-1.104363954547557203e+00
6.377276643213698470e-01,-5.964580568288184725e-01,-4.925316536236551967e-01
-5.684149700777042513e-01,7.577932136797230767e-01,3.194465420655506760e-01
-1.960003914530751568e-01,6.571417152794259975e-01,-8.595298253099649122e-01
3.379691462356744780e-01,9.115755620556853511e-01,-1.018720259160913688e+00
6.791837392065576129e-01,-4.134072410445985835e-01,6.113203624664116376e-01
1.604893093982686647e+00,5.701129048116390097e-01,-9.020241237793491518e-01
1.233615417661265257e+00,1.151041523449253701e+00,-1.228688929322500289e+00
-2.683667501399169542e-01,1.096574836276803744e+00,1.110443914327569614e-01
1.721658483433331055e+00,2.520709690008688386e-01,-2.727613012467736131e-01
8.573991067165411817e-01,1.461684208595720014e+00,-1.115826672223492411e+00
7.084635129851678537e-01,1.210709594056833094e+00,-1.116805509212341896e+00
1.049944377229060199e+00,7.693619115618912652e-01,8.316958997685194310e-01
1.055644948842118680e+00,8.512921218873299445e-01,8.223190222378721215e-01
3.367725079331365112e-01,8.286648782707746463e-03,-1.019826402914999708e+00
2.684471752405554468e-01,3.769602830467874699e-01,-1.064088505751903391e+00
8.475468554219205419e-01,1.519036441334212117e+00,6.407606686345569402e-01
8.505073004927786728e-01,5.129585688733167004e-01,-1.146153297775179825e+00
9.029011671704239086e-03,9.029381454650114991e-01,-8.535434046503916905e-01
1.198779944432365685e+00,-2.161420324214350652e-01,1.316858404297832352e-01
1.455334329413791705e+00,7.389762065044083172e-01,6.943824955893701523e-01
6.487867792989189253e-01,-5.015183232042546013e-01,-6.237352051348379334e-01
8.642477408785630422e-01,9.115535667046004153e-01,-1.165154365187615726e+00
7.518262253060115086e-01,2.074531279335928513e+00,-2.214511220174856243e-01
1.148148853711783435e+00,7.734213521864141683e-01,8.033737393149918971e-01
7.619819426125548079e-01,1.079660068387701122e+00,-1.151886600586407905e+00
-4.753510764805260469e-01,5.396312130998165424e-01,-6.868925925672371147e-01
7.902505066843806825e-01,1.182895384909553149e+00,-1.147688048860974197e+00
6.502446971963758982e-01,1.981001496805149698e+00,-3.561355548793221915e-01
-6.449617835101478791e-01,6.241403085044052723e-01,-4.497579121963052873e-01
4.066691462401091361e-01,1.437422482812944491e+00,-8.259339764921284077e-01
1.410086333103171830e-01,3.479782800272933074e-01,9.625653458817062802e-01
-1.804236661087076365e-01,5.401070178508422526e-01,8.477468604212979875e-01
6.931377226850249373e-01,1.551509688940422738e+00,-9.729543209704245577e-01
5.366024545750376351e-01,1.182916771768742770e-01,9.093864796423043462e-01
1.252572272516909058e+00,1.588546198639535501e+00,6.855560185143146912e-01
-2.075985597786648706e-01,4.627441746007465717e-01,-9.021300576030134577e-01
6.873167655480617588e-01,1.995365383102380541e+00,-4.017125225326512727e-01
3.658090376989078796e-01,1.679010418389053905e-01,9.519703348642959417e-01
1.541351299254783758e+00,1.200003910856664996e-01,5.749207422178421317e-02
2.157667034580922627e-01,1.514375914955194524e+00,-4.350831279528354911e-01
1.351602156978674030e+00,3.771856705961427192e-01,-9.406008815976202309e-01
1.410018697718076863e+00,6.768006076049062347e-01,6.939944958758554883e-01
5.329432486794868362e-01,1.464448741442510915e+00,-9.270826472813911145e-01
8.052746020459885523e-01,2.074904075233184653e+00,3.522725523273842214e-03
1.647077903736931415e+00,1.765129264170699763e-01,-1.618525164934542515e-01
9.960493007240002195e-01,3.352073870536649292e-01,-1.022235601486497503e+00
1.189568652074402433e+00,1.115868035670757763e+00,7.901556105958128517e-01
-6.323696530910969393e-01,7.260160103640219686e-01,-2.758930693210622787e-01
3.554203618707901108e-02,1.364041810786320141e+00,-3.775020631777976643e-01
2.092426858803441370e+00,6.948487021918634543e-01,6.374711305602463740e-02
8.435793512076538159e-01,-5.777773548303707929e-02,-8.790401694978011715e-01
-3.896326495219741282e-01,2.497675901626070505e-01,-8.805377303947347079e-01
5.379984470357702664e-01,2.232120759084571526e-01,-1.051831572560177452e+00
1.585972088427979765e+00,1.366471569444374923e-01,-3.090928565206810807e-01
9.155516130860262836e-01,1.781511222601082300e+00,-1.005740786312495860e+00
1.900990677526763983e+00,8.671612245449277223e-01,4.734522135604239956e-01
1.090784787844444104e+00,-3.350295769018901137e-01,-2.173504227212501028e-01
6.710982345847801289e-01,-1.604735436825182049e-01,-8.721372862204266330e-01
1.634891954607788689e+00,3.913935268579557536e-01,-7.524910948254269760e-01
1.169547262683444444e+00,-2.637474556317751517e-01,5.292237478240457982e-02
5.973524323075359854e-01,1.687462101736913134e+00,-7.967648699808211887e-01
-3.779590516968937552e-01,9.912580847828695862e-01,-2.368688045321208913e-01
-2.220865236454293637e-02,1.077579880236239296e+00,-7.048029571754906852e-01
4.375305081452177114e-02,5.938542195551094194e-01,8.664610949016984254e-01
7.192178798732574707e-01,-6.432837393528735292e-01,2.504301067596879649e-01
-9.851658007559602193e-02,-1.825769304356680139e-02,-1.000683745297777705e+00
1.417228805324190599e+00,1.293771450530229794e+00,7.389302015593285367e-01
1.633412162429092873e-01,6.064209634160514506e-01,-9.976093822776079811e-01
4.692064484087982712e-01,1.808226870650541995e+00,-2.055499672963871649e-01
1.090689360617061343e+00,6.276640121572624187e-01,8.089274355866277189e-01
-3.832279773698940052e-03,1.249398572791018625e+00,-5.327836355243861233e-01
1.394576170307447294e+00,9.303130738538391009e-01,-1.189241561243721046e+00
-4.154833980649237368e-01,3.114292409031335085e-01,-8.651217361474383694e-01
1.820552352346161973e+00,6.366034916343921157e-01,-8.755403952270315315e-01
1.496921583913572551e+00,7.209237670027794642e-02,-4.214702750186560265e-01
-5.699669253229080468e-01,7.355865186339206607e-01,3.916117273291666590e-01
7.675233598061302620e-02,1.345042290118936945e+00,2.444062897052314276e-01
2.821542192627548573e-01,1.613874248698678349e+00,4.490220425873141241e-02
3.297517275535544190e-01,5.460730824608709399e-01,9.067842877327513262e-01
7.431591105904307160e-01,1.394496564775938197e+00,-1.060127063746660658e+00
1.633598166370003213e+00,3.108978980996655594e-01,-6.402742880221715671e-01
1.215903279674391158e+00,-1.058740866645893480e-01,-5.290725213051219455e-01
5.517409670693690371e-01,1.809876315739362918e+00,-5.970456911452783899e-01
-1.837781988201024896e-01,9.234530497549876815e-02,-9.785058838659341784e-01
6.250562975818904077e-01,-4.762442440716019298e-01,6.432273926284085563e-01
1.058453345881984697e+00,-3.610626196690083223e-01,-2.177744851458435771e-01
-1.629963555605140890e-01,9.017047802677098656e-02,-9.654233809363501617e-01
9.572981703485040628e-01,1.693880806862181121e+00,5.650303857704218613e-01
2.641467654140736143e-01,1.553102890457926655e-01,-1.069832655800505350e+00
1.201444575390184122e+00,9.236032865785278601e-01,7.772418966160720144e-01
-1.086145166906197918e-01,8.769472625270501309e-01,-7.701462058907923014e-01
-3.856950628728082475e-01,7.445673601775282258e-01,6.012782117588454378e-01
1.581095036161652978e-01,1.389766616669952271e+00,-5.550721443785499032e-01
7.395132336479006696e-01,1.958258945208878554e+00,-6.310907444334490357e-01
1.575154432771839419e+00,9.260140224305173362e-01,-1.147551734464000273e+00
5.005839998253630574e-01,-6.260703723906414775e-02,-9.683628971150671783e-01
1.891609645511691973e+00,9.406730876343321057e-01,5.169574982271332164e-01
5.624881042885467863e-01,1.479521899091681636e+00,-9.369591108322686823e-01
5.225339107742243278e-02,1.356200572602708432e+00,1.921964648116128715e-01
1.642125473678280434e+00,7.556292148918439811e-01,-1.062809473725473186e+00
1.855211353767877824e+00,6.343243696536782217e-01,-8.402134810576820101e-01
1.222719168510230325e+00,9.361059608184849612e-01,7.827961524114911418e-01
5.693442774763225467e-01,5.806585675157188015e-02,8.765264427705459216e-01
1.276583725955179993e+00,1.668944284279809953e-01,5.163293892972907750e-01
1.010961371187786062e+00,-7.694408359968821220e-02,5.660382085501871607e-01
1.520886984393331476e-01,1.360788200731068098e+00,-6.123355192145732984e-01
1.364289238096157542e+00,3.089003116754962530e-01,5.269042525169272961e-01
1.137182903655140853e+00,1.362965189872253902e+00,-1.220537150410493155e+00
-1.777742996696776365e-02,9.925543482286304231e-01,5.694222093156835474e-01
1.352240945650332593e+00,3.460470888157291536e-01,-9.192056917818406392e-01
9.983388258907391899e-01,5.223296703040417599e-01,8.266680234793990500e-01
-2.950118252009925612e-01,3.099604501647477695e-01,-9.088757294625933181e-01
7.563516516055751593e-01,-5.326281924346090157e-01,3.697082697058816647e-01
6.854519746861229557e-01,1.786945837463508546e+00,-7.797333873212591859e-01
-1.016700642354705503e-01,4.924261328703962715e-01,8.762985350764082026e-01
1.008278457859193677e+00,8.443123788342374869e-01,8.318832021775453001e-01
3.567498819806728672e-01,1.216830392325784826e+00,-9.327636708844643243e-01
3.672763466621757344e-01,1.141023607045665189e+00,-9.750360867850856872e-01
7.921163992837036982e-01,1.660803290182984560e+00,5.266915002139060942e-01
5.794777889464015619e-01,1.899609408703673008e+00,-4.258662993493894100e-01
6.698626917656099744e-01,1.332596235046503264e+00,-1.048279883338065099e+00
-4.177095744460951332e-01,9.694460383251746194e-01,-9.829911069295571568e-02
1.304588915167828045e+00,6.665916755327073728e-01,-1.102119819410372514e+00
1.032244925566580263e-01,1.603342676731350502e-01,9.812642844479940729e-01
1.221175521970390143e+00,-1.675530175126036525e-01,2.148901194832082417e-01
1.545148252247802390e+00,8.848544272558115376e-01,6.586051962413261851e-01
8.311159883574879004e-01,1.754611613555091321e+00,4.757721935244623168e-01
7.048762649675595071e-01,9.335551540619437816e-01,8.404149945180244830e-01
1.062542979483710237e+00,1.556471952769820755e+00,6.745210732880962956e-01
1.606709417459103229e+00,2.356565024424202293e-01,1.848224336180481486e-01
5.428345625699133592e-01,5.148880731840753677e-01,-1.121214454924097881e+00
2.033880534369074677e+00,7.427629096601592318e-01,2.522448177906532196e-01
3.102272885478425390e-01,1.018455723715959937e+00,7.243719668335799611e-01
1.753091617116570244e+00,2.747370647564750246e-01,-3.021721985947176670e-01
8.282538223423290269e-01,1.345161024467879732e-02,-9.201081299613361741e-01
1.313195179698289694e+00,1.985019148935425470e-01,-8.456210185232820864e-01
1.538137804251471730e+00,2.556532931337640591e-01,2.649669790995884400e-01
3.459863750792672166e-01,-1.016063962485620614e-01,9.353967699193006524e-01
8.415539599023033057e-01,3.047437563975868291e-01,-1.056846671628224987e+00
3.226071988021279036e-01,-8.133249395088965050e-02,9.494739306626035491e-01
1.019421487675361337e+00,7.596291336119220805e-01,-1.171765324461065738e+00
8.292761035403450887e-01,1.308276644893873852e+00,7.250360869200510594e-01
-5.706495806871622264e-03,1.124354495811863863e+00,4.684130289574404693e-01
1.731988318199743526e+00,5.983725074068114713e-01,4.321954453459081469e-01
-4.640623575211559326e-01,7.992092147347852338e-01,3.744267025210986088e-01
2.003899016305833225e+00,5.607364405763841653e-01,-4.883345504851059338e-01
1.962262287602008826e+00,4.883807100059635031e-01,-1.344027854324049420e-01
4.200986488501032290e-01,3.341670484382742723e-01,9.365059318270414490e-01
3.542792538238199174e-01,7.724490449805138104e-01,8.499766610143328904e-01
1.096250814985717970e+00,-2.688542525334136624e-01,2.861818285320155142e-01
6.176779559680842802e-01,2.430471217581169352e-01,-1.055534276872202915e+00
4.988770530821940996e-01,1.257313263640394974e+00,-9.894618017091165729e-01
1.254246499740653276e+00,1.456852186287620698e+00,7.413480415979818439e-01
2.872539972820883913e-01,-1.510720648366356000e-01,-9.897756020908397012e-01
1.206148028998559107e+00,-2.277154855595308613e-01,-1.601149068806574927e-01
1.513783233374047965e+00,5.861101401579670717e-02,4.793243694594841696e-03
6.601824370350121152e-01,-7.319073010035297144e-02,-9.354315694016311911e-01
5.255727711958052550e-01,1.846197244515403568e+00,-2.692403472495716668e-02
1.711053496165937604e+00,4.848653106475493968e-01,-7.928212588451654108e-01
7.019167451164443072e-01,1.820955379350075676e+00,2.944612079150429884e-01
5.100058952671486789e-01,1.451748813658880533e+00,-9.034949937165345224e-01
9.293388927170317393e-01,2.395255158088555603e-01,-1.002110946278780945e+00
1.064269012175068224e-01,1.473724157590385886e+00,-1.547419329125457876e-01
8.866178492988475712e-01,-5.462760507372925733e-01,5.467274818864694547e-02
9.002259777608629943e-01,8.242609195102927888e-01,-1.167845048031702415e+00
9.777724926094235602e-01,1.121404198972368427e+00,8.017104612963290577e-01
1.214894802799849183e+00,1.480926662281855377e-01,-8.150326524455246968e-01
9.125309787679124485e-01,-4.464551000124496460e-01,-3.515253617026138366e-01
4.315685630482635760e-01,-2.705668001997665328e-01,-9.104440725681884894e-01
-5.990145849908505848e-01,8.138553697300751066e-01,-4.867170152350538265e-02
4.229540467659201886e-01,1.181250996374021645e+00,-9.707821064796271493e-01
1.662394000826077578e+00,6.992855038533926093e-01,5.532389896412335251e-01
6.500196327415975750e-01,1.259061069540169608e+00,-1.066839139622994814e+00
8.973141308079630729e-01,1.511677893115286553e+00,6.587370866174806494e-01
9.946247973226169936e-01,6.934811498206225888e-01,-1.174308375161734919e+00
8.589276788488430237e-01,3.624433380084933487e-02,-9.219885573870325590e-01
1.111030547569237692e+00,-1.962565319904580052e-01,-5.124086631033637484e-01
1.017953068564454666e+00,-4.003857624565735351e-01,-2.244134097774100334e-01
1.175528687866724598e+00,2.088525807637919007e-01,-9.139328251591207763e-01
8.579164396370489998e-01,1.001285000541828785e+00,8.278113088649408091e-01
3.857520171670973386e-01,-1.314301143893369661e-01,-9.437252982158934600e-01
1.375011680274115689e+00,5.486325783052112826e-01,6.638836426822775083e-01
7.259929479323722068e-02,2.952234527148205889e-01,-1.021561012993078776e+00
8.835102877011178357e-01,1.983517883326192166e+00,2.940161783642623594e-01
1.375364849882370066e+00,9.671952132496381208e-03,-4.723815432597296415e-01
1.132660201094110475e+00,1.829097721706592461e+00,5.603423092654191695e-01
1.837814167961866696e+00,4.825158568067446363e-01,-6.499726010261013265e-01
1.000172920337113025e+00,1.133319110693501219e+00,8.071029659774076048e-01
9.196433662311130908e-01,6.006577290962976656e-01,8.534391744184894879e-01
8.017573269057404195e-01,1.997924201046562098e+00,1.545687084330049366e-01
1.551035647269572403e-02,1.357843450543321229e+00,-3.258827359044072502e-01
8.101420582403101589e-01,1.385308901493930156e+00,-1.119108970789265634e+00
1.404079825946716875e+00,2.604056751329284491e-01,-7.904002682067908792e-01
1.163828095249993533e+00,3.025181050228478719e-01,6.883987535527692492e-01
7.723443599618183830e-01,-1.555827842708160103e-01,7.234897351445787050e-01
-2.176780591890781769e-01,9.748366562878348907e-01,4.433297156782723958e-01
8.373313363502783435e-01,-4.736322691605776569e-02,-8.782707737715821361e-01
1.352003713446187083e+00,2.137074912088356982e-01,-7.964310203870719196e-01
8.240988544678795602e-01,1.682557844133041769e+00,-9.852309464501344261e-01
2.427225334577083338e-01,3.189153768840654601e-01,-1.055519921998272936e+00
9.464953420195885980e-02,6.909670854672051998e-01,8.172406094668083210e-01
3.319538866772374641e-01,-4.936582475457781949e-01,-8.022080897362015017e-01
8.540886966693408411e-01,5.666703594789337384e-01,-1.135297536028222254e+00
1.652809221788256178e+00,5.120567940866042056e-01,4.642022407045985899e-01
1.385747414557152002e+00,1.912979599454887880e-01,-7.202814715935186296e-01
-2.141354404360305275e-01,1.171525018411537777e+00,-9.229733578948996764e-02
1.160204610981173001e+00,-2.040318578143435480e-01,2.477008321092290244e-01
7.031381590157039785e-01,-4.586923937915540206e-01,-5.837280424343480600e-01
1.403786280868271286e+00,-4.329272477363405730e-02,-1.279641634351201540e-01
1.198898032866162700e+00,1.202780982884338545e+00,7.742846170711056297e-01
1.862071891427089065e+00,3.892113428680356590e-01,-3.367173753983028570e-03
2.390635629330787881e-01,5.635713491444576118e-01,8.889380247518308131e-01
7.216926139994012113e-01,8.086416561350701082e-01,8.698593802897132132e-01
-1.476281390667355808e-01,4.545197967393150851e-01,8.856022946262226414e-01
-5.296423665866212271e-01,7.192125190617087993e-01,4.962081548874412995e-01
9.751508885478448185e-01,9.867424523661900704e-01,8.132692414031789108e-01
-3.121400489853025720e-02,1.293766410769643382e+00,1.708495956640008751e-01
3.373962203086856571e-01,1.335273669949373243e+00,-8.158157804581926964e-01
7.112592120695759856e-01,-3.009578796534426171e-02,7.931154192164403538e-01
-5.989882656023238772e-01,7.758461440529063058e-01,-1.478981002145199064e-01
-3.703315945360887707e-01,6.651592809775833670e-01,6.431242127815647303e-01
7.259369332931319141e-01,1.614485779942828048e+00,-9.583082407711177586e-01
5.031464579601055975e-01,-5.949392116637051142e-01,-6.550952649951765627e-01
8.238046079091720930e-01,-2.321120820523703276e-01,6.346659771011490259e-01
-3.254934405959207244e-01,5.216722768266562893e-01,7.835612916191694310e-01
1.927897392832976120e+00,4.331567745036652428e-01,-1.653648086089714864e-01
3.001259935169877102e-01,1.607198837837967353e+00,6.904178816742821689e-02
1.132994620740543690e+00,1.843894797608784109e-01,6.314064858812763470e-01
1.216791772647477066e+00,-2.225938628876855951e-01,-1.068590527921732952e-01
1.136818609899192534e-01,7.333526545828283894e-01,8.288610657878758836e-01
4.079591598017764387e-01,1.121361811048140478e+00,7.126560988142740527e-01
1.545140889818538366e+00,9.145256970426926535e-02,-5.465970786209546628e-02
8.124460320395978652e-01,1.009364600189041505e+00,-1.184818959101541447e+00
7.101327603942118039e-01,8.022243676765529186e-01,-1.133898354050999924e+00
-1.666892306019311931e-01,4.979082504485115024e-01,-9.105288781858230651e-01
1.514207771080242626e+00,1.362985127906358729e-01,-5.299279852270679658e-01
1.890046898931269537e+00,7.219831300931132123e-01,-9.010987182463215950e-01
5.250824148364185984e-01,-3.653851039913394438e-02,-9.962592942740244872e-01
1.790188297273495044e+00,3.311654109553847647e-01,-6.377404374701388552e-03
9.994503828114414956e-01,3.555533871346790442e-01,-1.025027839240076233e+00
2.169974260510762198e-01,1.465139917439006734e+00,2.821324233030239048e-01
4.997541749323508586e-01,6.710906241808305417e-01,-1.130381648727881050e+00
5.418152655669074003e-01,-4.800824345949878391e-01,-6.984470201583274918e-01
1.584988996789920557e-01,1.612562098209734396e-01,-1.032892355534775541e+00
2.255891645007485624e-01,2.692125422963010939e-01,-1.040243499000948812e+00
1.004202240047065597e+00,1.586353196328774029e+00,6.510471018551111655e-01
3.158546974100979177e-01,1.499191544462495029e+00,-6.569961931842908109e-01
1.666967062137119759e+00,1.765404403170415248e-01,-1.949116305514300984e-01
1.910846021605139625e-02,1.383735546548029882e+00,-2.020875951963584938e-01
-4.086918208974065214e-01,3.327506502372567510e-01,-8.727858667381064306e-01
6.887567183919733882e-01,-1.432434263242925720e-01,-8.603037214928836995e-01
1.219169442540658732e+00,-1.290942334501584965e-01,-4.932690039835280760e-01
1.030103728057343737e+00,5.584757552959287441e-01,-1.131385365577911584e+00
6.763975760711335994e-01,1.255729775473634291e+00,7.060957378424421726e-01
5.101456320016314328e-01,5.430263426558868955e-01,-1.115935085867826304e+00
-6.347046516050885989e-01,6.424827600144467077e-01,-4.170261231666464452e-01
1.262129651670367003e-01,1.491298568088000431e+00,-1.551261382170591729e-01
9.547775621500030896e-01,-5.529592097177751103e-02,-7.976094113385667761e-01
1.639798217808279945e+00,2.141781903775575036e-01,-4.530776796102210513e-01
-5.319585492197036469e-01,5.722399176911827645e-01,-6.237547565321638343e-01
-5.066837356718429941e-01,8.598843833309046669e-01,1.683870875364597841e-01
-2.729914409060184566e-01,5.819065202092228439e-01,-8.349082018979836484e-01
3.908254581452919041e-01,-5.210559289708320829e-01,-7.469963583499850124e-01
-4.974122111509515776e-01,7.337085863224324100e-01,4.555433465709447516e-01
5.632988487680307133e-01,1.792253897944437790e+00,-6.443918892243153396e-01
1.878167094380314817e+00,3.826809082757176017e-01,-3.049644132870342195e-01
4.385411715210749684e-01,-3.954553431034797395e-01,-8.119356288440015001e-01
3.349457828625830302e-01,1.669494668790014291e+00,-2.965912430601758132e-01
-5.090895859902191400e-01,8.143296591376333327e-01,-3.585204999809666337e-01
6.230775817477156586e-01,5.581693518769735851e-01,9.044152413452762884e-01
2.112057198695691529e-01,1.489015036587917562e+00,1.633630317133604459e-01
1.043550925835121657e+00,1.390410833662262702e+00,-1.198796415347558098e+00
1.819026037298421050e+00,3.967501732628606059e-01,-4.888097683776228553e-01
