1.775456847874145039e-01,1.026866277843459851e+00,1.381071667824294302e-01
4.813479132664507665e-01,8.461323068163036920e-01,-8.575607696554478354e-02
-7.796352258497297738e-01,3.093432639890194014e-01,7.592986209761284355e-01
-1.515973274234974078e+00,8.993806689442684910e-01,5.106424272824953148e-01
-1.171025374211926318e+00,-4.581129167773506650e-01,-2.199793899247453610e-01
-1.701569628569983061e+00,-1.369381276103483758e-01,-4.263222563605567617e-01
-6.391066574990389437e-01,3.804074981025896141e-01,8.032925387479931123e-01
-8.830716985941691188e-01,5.788202285281869308e-01,-1.354040379095912794e+00
-1.456959811923428383e+00,9.618408524243724500e-01,5.181424435671677653e-01
3.617037503870871307e-01,9.598993135222281259e-01,-9.336071770829387773e-02
-1.678367014957151238e+00,1.019978950054203498e-01,-1.091520834050106359e+00
-1.193935902331024312e+00,-1.328414780461681030e-02,-1.084740701757139769e+00
-1.195930763171598965e+00,-4.379949204389849693e-01,-1.669310600487397267e-01
-1.770212670974527391e+00,1.581071578447489911e-01,1.414728601848632417e-01
-6.484214700009640620e-01,9.788852146486556327e-01,-1.254089587432786868e+00
-7.801370473252485782e-01,3.641612764850859496e-01,7.831001084298734316e-01
-4.418883870673608050e-02,7.370873096082317666e-01,7.449380913514433988e-01
-8.918431700071868251e-01,-4.453351935948110518e-01,3.871857135878740142e-01
-9.355642885925898877e-01,-1.822492837855279879e-01,5.885262105480730810e-01
-1.206562202390951910e+00,-3.885720284326601992e-01,2.830812439968694721e-02
-1.452726383399129295e+00,7.086030294974889898e-01,-1.513083033936169164e+00
-5.435721224010288122e-01,1.490818739049624586e+00,-5.824043973538921559e-01
-7.392660780887376770e-01,6.901483466148392587e-01,7.229156363845683497e-01
-8.535129774693747118e-01,2.440132502110797796e-01,7.406545841047814660e-01
-1.561755703914007531e+00,8.780433525906484737e-01,4.793158773368975667e-01
-7.354626815705832543e-01,1.429877327449315061e+00,1.428311838512490994e-01
-1.443856764740208742e+00,-2.546116817105849028e-01,-2.766435872549684039e-01
-5.376857123384564119e-01,1.081564505129233744e+00,5.075751996684502165e-01
-5.910795306161911178e-01,-3.918019315764611488e-01,6.901196495301058498e-01
-8.145126868991796609e-01,1.656241341464406602e+00,-3.634405058035755642e-01
-1.871698280493057753e+00,1.092707022207642042e+00,4.018828094941523377e-01
-1.353488616885214046e+00,1.320869390941199706e+00,4.129857881837002420e-01
-1.921391475317267838e-01,1.277110365521531676e+00,-3.745220120704276234e-01
1.560628102859124289e-01,1.023683452531060967e+00,1.602072830107947321e-01
-9.210803518180780136e-01,3.079055945037607600e-01,-1.323294142452398736e+00
-9.916706930947929433e-01,7.410058484750854380e-01,-1.418284654001430667e+00
-1.059508592777050756e-01,1.252256233512511363e+00,-2.110701235602697179e-01
-1.592263556666150714e+00,-1.865277239181597491e-01,-3.231471994257748559e-01
-1.601960082718272727e+00,4.948311191232931394e-01,-1.438239620154637022e+00
-1.208949241766186788e-01,1.200216397905215837e+00,1.065086110777148931e-01
-2.159252493003694373e-01,1.306081070560134449e+00,-1.523024204873955345e-01
-1.312875606450031096e+00,8.932160230435695070e-01,5.505985310842680391e-01
-5.024435190089456826e-01,-5.176449314455532080e-02,8.867552668602612931e-01
-8.798567783877943027e-01,4.691501095006834765e-01,-1.350692521244539090e+00
-1.092099447177870664e+00,7.256549532854954521e-01,-1.465169027515472955e+00
-1.422656040865514004e+00,9.107357713199291105e-01,5.238722052445110577e-01
-1.260703898645194831e+00,1.327283015599035165e+00,3.864991495486871376e-01
-8.923613640779469725e-01,1.605250281152969416e+00,-9.927034405902875891e-01
-6.898420695073579356e-01,-4.891911611824112383e-01,-7.446074859361074827e-01
-1.311451925147561148e+00,-5.471632015432172785e-02,3.695990120917739263e-01
-1.432434429609548143e+00,5.844141458310655457e-01,-1.477375711843901707e+00
-1.076475557462887922e+00,-1.324990742609627181e-01,5.142234876863934767e-01
-5.420770032480751732e-01,-8.061537066258841477e-01,-2.343457068995765669e-01
-1.551383550826286539e+00,1.259364388710446370e-01,3.067389692815764568e-01
-1.102031139905127688e+00,-1.447159746057120056e-01,-1.024688718953667754e+00
-1.275606928493747461e+00,4.764440042776684758e-01,-1.422327119325527800e+00
-1.453640334643106602e+00,-1.782882429708893823e-01,6.665755988389754361e-02
-1.284553633919838012e+00,1.530207914003024916e+00,2.422891089090573602e-01
-7.927905283368954503e-01,4.794777169221927093e-01,7.743388690245093242e-01
-7.572115007079159577e-02,1.175610689286840316e+00,-5.415367105687857174e-01
-2.825487155117796245e-01,-7.282757042418676052e-01,-6.343379665631279085e-01
2.557821691854108015e-01,1.045979332357276220e-01,-9.743272389243732290e-01
-1.651177454211618434e+00,1.060039466844733269e+00,4.241648842988958723e-01
-1.939763168729772280e+00,9.190073881456505278e-01,3.888992961398722303e-01
-1.465174777415506169e+00,3.886764178476136422e-01,4.635767516815517131e-01
-1.475040615550153644e+00,3.055386471108025304e-01,-1.334646226607696384e+00
-1.201381641120505162e+00,8.917002601175425536e-01,5.705820170332587260e-01
-8.448260493221758649e-01,3.534675101688990462e-01,-1.307950736316579876e+00
-1.745174581887298348e+00,-7.154344798050660259e-02,-4.444416467134295057e-01
-7.941597112395986507e-03,1.031323614660813570e+00,3.482074820905086132e-01
-1.147552017617146758e+00,-3.411388760246227281e-01,1.914899729519166649e-01
-3.090051673667855714e-01,1.367167980362330226e+00,-3.411145605139597192e-01
-6.539777866941423046e-01,1.406312592590410304e+00,-9.562398925697191965e-01
4.072718570927470472e-01,9.327455964707234148e-01,-1.375224730064477097e-01
-1.084580191091169210e+00,-1.807512764190575827e-01,4.597591879857853003e-01
3.862820747853836639e-02,9.904592550268166429e-01,3.508532654692779751e-01
-6.857591085769612071e-01,1.008410005788880959e+00,-1.238309000508674318e+00
-1.605300925123750722e-01,5.851037740453242098e-01,8.309045611817039712e-01
-7.840172413613618607e-01,6.280361599293965424e-01,-1.330798242274000565e+00
-7.351419042604659393e-02,5.551568743975361375e-01,8.456396269678141397e-01
-8.829289610320991688e-01,-4.545737329148373251e-01,-7.370600440148553645e-01
3.541780459665160308e-01,2.934983982109098388e-01,-9.081707889620658225e-01
-1.902285789353864165e-01,1.463666924863099295e-01,-1.112545825545970812e+00
-8.848516500996912448e-01,-5.267428804291556244e-01,-5.760823004094668409e-01
-9.705923741119913684e-02,1.104237403031602005e+00,-7.193917602278619983e-01
-9.742513549215794377e-01,-5.860733864988474373e-01,-1.281067637176204199e-01
-1.162620018069218109e+00,-3.671865304068756553e-01,9.631014015395676642e-02
-4.873294278825754389e-01,-1.048263332597145353e-01,-1.087800263586198302e+00
-7.409869338331467326e-01,-6.826913726943681926e-01,1.047433692236095643e-01
-1.381176369600872311e+00,-2.985881465177385105e-02,-1.046535245642881584e+00
-7.774319365289864558e-01,5.415905842776703311e-02,-1.206642293941518673e+00
-5.204691235100308289e-01,7.792677901131465079e-01,7.042218794580304975e-01
-1.384633357893352290e+00,8.838422332292528161e-01,5.433687831254677691e-01
9.930035976008087101e-03,1.030135134295898647e+00,2.898133147897580808e-01
-5.939948763118407804e-01,1.527246276729605334e+00,-5.002263146845917774e-01
-9.979392213864960448e-01,-5.348356572232223494e-01,-1.310485696722522332e-02
-1.086524811840157145e+00,-2.088116234569595830e-01,-9.220534759451958218e-01
8.189033090298414308e-02,-9.578045023755209220e-02,-1.002600239152699579e+00
-1.409560741834404440e-01,1.098134641976936887e+00,-7.707318143931118914e-01
-1.027889878615867225e+00,1.765455796431169011e+00,-3.012373051200403773e-01
-2.073768842041416427e+00,2.860139387544241574e-01,-4.441857098880820642e-02
-1.043109661953105727e+00,1.601562624054526429e+00,7.356777917019881319e-02
-1.877838758940480191e-01,8.018217622785001053e-01,6.861248798928730741e-01
5.251204438702246069e-01,8.238962358559687171e-01,-2.031545820428706794e-01
-6.314585276837559880e-01,1.546060314997159901e+00,-5.454359267832682434e-01
-5.277674092272760520e-02,9.655850326377496406e-02,-1.067250474785420566e+00
-8.534628835368016642e-01,1.518141085306640159e+00,-1.022653937886724762e+00
-8.975558520939643792e-01,1.499682710507414862e+00,-1.082492108749091075e+00
-1.623900875808093058e+00,6.099354696843071189e-01,4.836818242583112437e-01
-1.748425555943273757e+00,4.208214885405829608e-02,4.706291217232688728e-02
-8.195068517998503888e-01,9.307835242398969644e-01,-1.339265107634450391e+00
-1.283073209026792671e+00,-1.173147885199436746e-01,3.352617734137651739e-01
-3.390889853822528499e-01,4.288227612941376554e-01,-1.172746236915291229e+00
-2.858672781559106202e-01,7.462717011742468765e-02,-1.128936586089390515e+00
-6.382596764439210091e-01,-3.263109176855800153e-01,6.994128760650362153e-01
6.419671900964216138e-02,3.019372782030435021e-01,-1.053008227282010045e+00
-4.547662454640329366e-01,7.242900184727719681e-01,7.419236517844812751e-01
-4.568651640105745870e-01,1.270031630405449308e+00,2.521701681829081054e-01
-8.716777148689037746e-01,1.192077181329993962e+00,4.606163246567065994e-01
-2.150105066431951872e+00,5.032677590693337422e-01,9.970262698003810875e-02
-5.353155709872807755e-01,6.702916244595310546e-01,-1.253556454452879221e+00
2.107350186504899359e-01,9.862114045221876957e-01,-4.516872852983224162e-01
-1.572175884380015987e-01,8.537885873122748048e-01,-9.838115735912837945e-01
-1.867323200336318267e+00,9.170048849558701809e-01,4.058098607875472719e-01
2.216106774722035877e-01,7.076103802227728945e-01,-7.665621514804982217e-01
-4.118419597522893216e-01,-3.059101263470118126e-02,9.171192702839844335e-01
-7.422038625807267920e-01,-3.203733946947485700e-01,-8.969204256742144832e-01
-1.636477733041720617e+00,2.927223424007831531e-01,-1.324875597367482394e+00
-6.652360878704649538e-01,-6.487922798093778143e-01,3.868904392483382693e-01
-4.834491682331144569e-01,1.441044623580309381e+00,-8.177134515175864260e-02
-1.470886574546627745e+00,3.608881672363714044e-01,-1.360843003647630889e+00
-2.456776277812315612e-02,1.019093227852788885e+00,3.632839051605763481e-01
-1.108454762498961133e+00,1.691817919914431867e+00,-2.967150846223854874e-02
-1.955301334716268213e+00,9.925049347949449485e-01,3.680153812755717624e-01
5.086057695669671253e-02,1.154772323410736545e+00,-9.473298464126322926e-02
-1.277945278613106472e+00,1.607072498700023111e+00,1.880504532511701465e-01
-4.267196077864560677e-01,2.963982375057819252e-01,-1.214289586847238533e+00
-1.084159470968407667e-02,1.092598616169993875e+00,2.340395877349819853e-01
-4.758823103804807886e-01,1.428693178749924408e+00,-1.505479466879898823e-02
-3.992740675635594177e-02,6.071706949503248296e-01,-1.010711479695761472e+00
-6.408292727240180175e-01,1.568000414574548751e+00,-5.672582396534296967e-01
-7.748723376529140783e-01,1.002455826083131107e+00,5.646593223462873512e-01
-6.679340343102404542e-01,5.480703524136875116e-01,-1.282348569090390189e+00
-1.326074911309560234e+00,7.636703057654141424e-02,4.634924954300947419e-01
-4.898673194515212326e-01,1.124990169607119839e+00,-1.079294149468447150e+00
-1.891592925931205427e+00,5.946740075427998928e-02,-8.270042590648452041e-01
-8.239783442120400814e-01,4.174824091951589988e-02,7.509375612893125496e-01
-9.609291968216431279e-01,-3.931148695185102682e-01,4.027091534050062371e-01
7.485823630221274429e-03,3.001010028784055206e-01,-1.078612558387882281e+00
-9.983514755868204693e-01,-4.387011059234164900e-01,-6.643446134512180912e-01
-2.527015809372140653e-01,1.049018275866837380e+00,-9.063869536748763167e-01
-8.299727916572684494e-01,4.996094254220700415e-01,7.425345444729599675e-01
-8.000353861953841683e-01,1.674908545442251206e+00,-3.904142931135320405e-01
-7.545485461694920737e-01,1.590992476648570797e+00,-7.431141030963201999e-01
-1.229102021139406364e+00,1.200877389732901701e+00,4.621044529499651610e-01
-6.952795027171735365e-01,-1.777913074085565315e-01,-1.041801503935699369e+00
3.616557714857370764e-01,8.265701678329416824e-01,-4.787397148675442415e-01
4.485248748301750576e-01,8.766458647584861597e-01,1.735919270984715435e-01
-4.574260385517851524e-01,1.189844840347841881e+00,3.726237060980681082e-01
-2.794943311716966902e-02,1.063815626116675572e+00,3.263758565656332267e-01
-1.530263139393938987e+00,7.105679673176437117e-01,5.172741830655035455e-01
-2.190954984874248224e-01,-1.606510350352436112e-01,-1.041089985540595508e+00
-9.998050147273757071e-01,-1.872495424454280744e-01,5.251233453305712562e-01
-5.001818857280292130e-02,1.070895596535590855e+00,-6.815909778365082383e-01
-6.161051106721012749e-01,1.284021531182331310e+00,-1.044312883639813450e+00
-5.409737479241204516e-01,-5.643431746830811502e-01,-7.003507596557232429e-01
-1.497405534299350305e-01,1.247815127722544437e+00,-6.228236566350685982e-02
1.831232886103533186e-01,9.391545431613531614e-01,4.064690226708972953e-01
-4.004230594110444463e-01,1.231650821455453348e+00,2.975939798992349727e-01
-9.447425150967055929e-01,3.976243895872656059e-02,6.446528082635796242e-01
-8.833131367510769216e-01,8.594979499068911011e-01,6.616766871675794359e-01
-1.177879245236712835e+00,-4.346057144343303813e-01,-1.453160705806806619e-01
-1.780886606945611073e+00,8.877339382119993072e-01,4.006608915489374700e-01
-2.924418946653560281e-01,1.303806825656922408e+00,1.755199655493025826e-02
-3.873243995362045111e-01,1.388694179198813883e+00,-5.258299879522049247e-01
-1.193474177400278002e-01,5.341789659187915484e-01,8.328547234837987423e-01
-5.972658975943512943e-02,1.178879287427314848e+00,1.018733954554029292e-01
-3.949343608531723504e-01,3.636207976621189664e-01,8.801256300441503422e-01
-2.680124485105481735e-01,1.236113653075580521e+00,1.351438081139786918e-01
1.293250419816005803e-01,7.586063505232614190e-01,-8.273454541531662931e-01
-2.129589016090203124e+00,1.323890274957369717e-01,-6.505039330896348337e-01
-9.425009463469443682e-01,1.124576701920024568e+00,-1.355529780477937596e+00
-6.880665396542535728e-01,2.175431736059967036e-02,-1.160756072434633746e+00
-1.496349698231947523e+00,6.274631739502023464e-01,-1.509581339659970878e+00
-3.999336370847678679e-01,1.412512872752919035e+00,-2.153871156999452585e-01
3.691798981662071655e-01,9.573101550039376795e-01,-1.469484801560617948e-01
1.263845724097733547e-01,1.088920260429835585e+00,-4.128211335410881394e-02
-8.465572028479050326e-01,-6.355317902356740767e-01,7.759957927088986795e-02
-7.402271322704035983e-01,-6.090578816207850021e-01,3.002646352067737667e-01
-1.897798084472123392e+00,7.843027932433963012e-02,-7.215820980698078868e-02
-8.488114137009268312e-01,-2.261140338046888909e-01,6.128772435359981507e-01
-5.219547007511320391e-01,1.139593420944956303e+00,4.350760688296287371e-01
-9.892541707679011198e-01,-1.192816435998929059e-01,5.808308909966396483e-01
-1.254736183494225887e+00,1.755365074137359205e+00,-3.926497373120949042e-02
-4.483189144647153346e-01,1.524366109241567235e-01,8.954083950897834265e-01
-9.343315908931602853e-02,-3.672195987841868070e-01,-9.142167782628435324e-01
1.837476384508427707e-01,1.043585039331188735e+00,-2.750878750348972543e-02
-1.153893048340229432e+00,3.656120960758112992e-01,6.524549605314311496e-01
-1.595789585852223968e+00,9.945485144165938651e-02,-1.104852396450832996e+00
-1.441365476990307481e+00,3.168135277825576135e-01,-1.339979282486993162e+00
-2.425894536719333250e-01,1.283440898223173088e+00,-5.475224629229055173e-01
-9.474159451961156053e-01,1.476688497284451840e+00,1.670687391322106807e-01
-1.355953354233360164e+00,1.500942801287343364e+00,2.555533641404271750e-01
-1.588983553700823892e+00,-1.795408267989526963e-01,-3.832702240090978818e-01
-1.797799377729249359e+00,4.842823130847103696e-01,3.211979308758901586e-01
-3.099090890735766712e-01,1.501594339441661985e-01,9.177432841857009471e-01
-7.807209055530055508e-01,1.477007631879351690e+00,1.412199219512939308e-01
-6.763949160573877739e-01,1.222512218426420549e+00,-1.159106686537294761e+00
-9.746456903533209370e-01,1.053224601867006616e+00,-1.388264778120334331e+00
-1.217957231698551190e+00,1.737782251609291395e-01,-1.243402437149294437e+00
-1.816288708133662055e+00,5.086862918964686620e-02,-8.680204402219475757e-01
-1.337298618558370400e+00,1.428756094462068527e+00,3.192102059844767470e-01
-7.912047032169587935e-01,-1.815221096228609721e-01,-1.015166945889800720e+00
-3.906935413265155144e-01,3.360913139232672431e-01,-1.207062550687760583e+00
-1.124985748062391044e+00,1.200011564284139798e+00,-1.437370434628601590e+00
-1.441175103699302351e+00,1.255186591819178465e+00,4.077223680835413977e-01
-1.288286477776668715e+00,7.707375542824109749e-01,-1.508360097624147800e+00
5.549664986876707840e-01,8.210339950665823672e-01,-1.887403856245935541e-01
1.167748589536188875e-01,6.063956569512473083e-01,-9.345478690453079551e-01
-1.296428460629067692e+00,-3.000131824795544966e-01,7.477847730297847162e-02
-1.386532468110947436e+00,-3.020402556498036351e-01,-1.347169384380611790e-01
-1.335030487839353963e+00,-3.269303054621357507e-01,-5.409062889063823709e-01
-3.223212636955340993e-01,3.701647945204051826e-01,-1.198895978629775705e+00
-1.165463931397365371e+00,1.326248152592722107e+00,3.778664065778386538e-01
-1.437522810734246592e+00,7.593787120707723437e-01,-1.530391258822614065e+00
-4.100129556076793080e-01,4.788165601862761078e-01,-1.210831323314370600e+00
-1.075857509895697284e+00,8.906363959626127924e-01,6.172643864649048906e-01
-5.832326828876003288e-01,-2.473987365626082180e-01,7.769682876263415139e-01
4.819780370905018541e-01,4.690851877977764151e-01,-7.396272605145308709e-01
5.059854047785020820e-02,1.067789095364383600e+00,2.575056184434557638e-01
-5.216827086566186988e-01,1.285568284801562156e+00,2.411336811197277441e-01
-5.770031797070130919e-01,-7.957941360233911077e-01,-1.992177396607894557e-01
-1.721606263502695411e+00,7.667046523645172362e-01,4.032293847636616024e-01
-1.452953367238521087e+00,1.470980976698155862e+00,2.855197913595688974e-01
1.266169601565426406e-01,8.162384124582066081e-01,-7.775287392973040390e-01
-1.753925568681455438e+00,1.146654583359228430e-01,1.124427260380770482e-01
-1.114922610450370444e+00,1.695170803695583484e+00,-8.163045165551389287e-03
-9.342791468606969074e-01,1.523620982916234601e+00,1.438554550171888269e-01
-1.086849987793014671e+00,-7.311157816281915744e-02,-1.095185288935949908e+00
-1.104003741337130196e+00,-4.901872946902384454e-03,-1.138615308123333225e+00
-4.003110717455650169e-01,5.893537303325757648e-01,8.037061086685634015e-01
-3.846937242026072235e-01,9.111480736473268616e-01,6.068502413368236370e-01
-9.988772957723833779e-01,6.529188488359750631e-01,-1.418563619134177056e+00
-9.837646834165504339e-01,9.828130723934062063e-01,6.053445762274259900e-01
-1.845059821074160888e-01,1.224135486790985938e+00,1.066068185216956371e-01
-1.148243336709356521e+00,-4.215895725245647485e-01,7.022368520201065223e-02
-1.492630852336064073e+00,-7.009779247748598729e-02,-9.557145664240754845e-01
-6.153199525828186855e-01,-9.447104931791572291e-02,8.209428094706229251e-01
-1.051653270360695558e+00,1.300193453600030580e+00,3.727749179553431769e-01
-1.034093876123543421e+00,1.629436432110759503e+00,-1.092497171858032079e+00
-1.186349082520214315e+00,-6.662896034556688163e-02,-1.072367557960054452e+00
-9.720355311831063716e-01,1.436482918252727226e+00,2.545365129696616768e-01
3.537114263774595591e-01,9.105517960574314174e-01,1.864553011665903426e-01
-1.013464348482475463e+00,1.509464754411709686e+00,1.879664384866031324e-01
-9.299163562305199360e-01,1.655354534275929046e+00,-9.322416887763204096e-01
5.255819143943432081e-01,8.534095717084039245e-01,-5.713808405784035621e-02
-6.471294453311854378e-01,1.562037975507815091e+00,-2.345015270327389934e-01
-1.233472789128478020e-01,-3.480008579804906854e-01,-9.649793856662451930e-01
1.615139652264273307e-01,-8.217246212565126884e-02,-1.005039280268711366e+00
-9.551643860062899449e-01,1.699739204145551241e+00,-1.811352030277035285e-01
-4.874487734739850198e-01,-5.494813138475952430e-01,-7.677127480200682808e-01
-1.405785190711281940e+00,6.202868795347739050e-01,-1.483716806626302009e+00
8.518688203480791199e-02,9.458318321720715627e-01,4.113554598630346226e-01
-9.714482319079005279e-01,1.689309922270245012e+00,-9.043122349546189875e-01
-3.223813480727485414e-01,-5.128907219971541309e-01,-8.374174013468228539e-01
-1.536602133409734394e+00,-1.657393165624870268e-01,-6.966794614095374316e-02
-4.432256015625408163e-01,1.406938386536415564e+00,-5.943588587348640484e-01
-1.447925061494616417e+00,6.783165174688385868e-01,5.451854342693361888e-01
-1.439562292542947874e+00,-1.112902599729029135e-01,-9.182129571066787177e-01
-7.821700835731211221e-01,1.627292711711002093e+00,-1.680751269264506853e-01
-1.072410059449463882e+00,1.482663863688818306e+00,-1.267024485721431226e+00
-1.662914052707684442e+00,-1.556481038527591024e-03,7.023604445089336179e-02
-1.095999124478138631e+00,7.478618112644886962e-01,6.236444958066486022e-01
-1.273761369256300569e+00,1.998399750918891660e-01,-1.273647085550568159e+00
5.108427265588781907e-01,8.225254729910359552e-01,-2.561233416883483271e-01
-2.412385609313976442e-01,1.281306035398358745e+00,-5.517607325503768312e-01
-2.157728088621452489e+00,1.943654370610673199e-01,-4.141981956175136426e-01
-8.836020597374388830e-01,3.779388108138321822e-01,7.510563649957159305e-01
2.949690055409578959e-01,7.944089085094422353e-01,5.210104770240955308e-01
-6.300082846417912608e-01,7.459563687241235197e-01,7.016083480983578147e-01
-1.606724927040638073e+00,6.770181178822255730e-02,2.082541193651855638e-01
-1.207873755971369478e+00,1.865398224361817681e+00,-2.913107892164321644e-01
-1.964769143481552405e+00,1.012547647081425278e-01,-8.481278378698902110e-01
-1.048250368292004131e+00,-2.815554965938994458e-01,4.137573501008240950e-01
-6.989026700255088764e-01,3.193374796043941255e-01,8.039320099684374998e-01
-1.717781266615044045e+00,5.318383302388564049e-01,3.983452704053545013e-01
-1.118103849803783190e+00,-4.053207670131056539e-01,1.605090484584887067e-01
-8.671072683093380418e-01,1.709373882683659307e+00,-4.066428969768848267e-01
2.264555511804638988e-01,9.662803696784836305e-01,-4.433650826137075507e-01
-1.672160768461099511e-01,1.271299715241694717e+00,-1.193928333012298365e-01
-6.613257639463288040e-02,-8.468126425604610708e-02,-1.045842989334748063e+00
-6.093994975605186992e-01,-7.554604082544280619e-01,2.274101808404989378e-01
3.495375442457107629e-02,6.199159261016911060e-01,7.911316563160406545e-01
-1.525919038945401374e+00,3.359565719942865236e-01,-1.336826153223383828e+00
-3.069841275635311617e-01,1.062239066354601968e+00,4.087298970428229206e-01
-7.181045302684019305e-01,1.454920344688152456e+00,-9.484843542447609632e-01
-1.109757467381072615e+00,-1.742469595580921349e-01,-9.879298306266858232e-01
-1.971073345497601492e-01,1.294698120928994056e+00,-3.602434686051962376e-01
-1.580193722765694586e+00,1.252952146994940286e+00,3.971389140273635654e-01
3.133252623680071736e-01,8.361813094455146089e-01,4.697641346546583829e-01
-1.942021914906610691e+00,7.704488182359391368e-01,3.481455979469753048e-01
-1.517350959755548123e+00,1.003534897851133256e-01,3.334426096133802919e-01
4.911502238133249043e-01,4.074772477895048373e-01,-7.823319739865973732e-01
-2.391261515499760182e-01,8.755125980076130521e-01,-1.025212413165784264e+00
-4.909946044914402230e-01,1.176851441260070352e+00,-1.029641823923339361e+00
-3.400007114953276233e-01,-1.878571400309383688e-01,-1.038411753021859285e+00
-9.893844251490199193e-01,1.625332985876893455e+00,-1.366266469668687804e-02
-1.698506202125355857e+00,4.004054255546910523e-01,3.605604146888473638e-01
-1.222717142879475860e+00,7.026810191962033769e-02,5.192042208143404780e-01
-8.253420890830385215e-01,1.686737539909765271e+00,-6.405160714449530390e-01
1.059885181869704429e-01,7.038539897817081004e-01,7.022334665577637525e-01
-5.130371719147510667e-01,-8.562254255959816929e-01,-1.868590767994624535e-01
-1.012837023553207594e+00,-2.967105500498979365e-01,4.292312201139605876e-01
8.657395101100397172e-02,6.910699427597636335e-01,6.940231384561470485e-01
-1.135608489535974375e+00,8.188904545623325593e-01,-1.464487314241082583e+00
-3.513038045842219459e-01,7.442787224391547163e-01,7.490470820905444915e-01
-1.260746669107219997e+00,5.775020137104204532e-02,-1.143590755097802392e+00
-5.929000625523223045e-02,1.169426869408783709e+00,5.370554161940448851e-02
3.213142204094205368e-01,2.579231306096695930e-01,-9.459965928909582766e-01
-3.773970807260975668e-01,1.393423336536245172e+00,-4.248503243080052894e-01
-1.033007077562659415e+00,1.795196318195848573e+00,-7.000714276286754689e-01
-1.755504279609222840e+00,1.197719230724527018e+00,3.730439769201598921e-01
-5.495396763196471746e-01,4.790990401547739475e-01,8.128351225035554961e-01
-1.962456725572222060e+00,1.323950577448442800e-01,-9.281880804593022338e-01
-8.140365401104199261e-01,1.640772235307199622e+00,-1.687639651692491860e-01
-2.197694001729988689e-01,9.199997070417449407e-01,-9.920946733471511791e-01
-1.793555917610017092e+00,1.004069861303909184e+00,4.148691880207985294e-01
-1.973703895463313485e+00,7.418019546540716158e-01,3.230449812970079271e-01
-1.283090954892804225e+00,6.088423616707398095e-02,-1.155022537620416845e+00
-5.139427483557563736e-01,-5.803375975112569085e-01,-7.034872274737552500e-01
-1.251235890472752299e+00,-3.754689490946004349e-01,-4.664199958456770045e-01
-9.528546857473609855e-01,-5.560428752264910957e-01,-3.622800137086570338e-01
-3.712988747781010290e-01,1.407396420172511320e+00,-3.622192010478801905e-01
-1.356194406014411769e+00,-2.851058957693841101e-01,-5.601642440850617133e-01
-1.385270052621117465e+00,1.643409976373032988e+00,1.442238938937843440e-01
-7.762858303197990584e-02,4.158589621763573718e-01,-1.063370561159089123e+00
-1.443023397655443851e+00,6.409433915745895716e-01,5.478305478805293172e-01
-1.003250816581194416e+00,-2.531762117028731884e-01,-9.392967165177961153e-01
1.915396605716156164e-01,8.447376402647324145e-01,5.088157100846992797e-01
-6.531192674302450651e-01,-7.493074854854873124e-01,6.647053225568153034e-02
-9.663754611101283976e-01,1.762866563225004235e+00,-4.789821910678918049e-01
9.182874369848460783e-02,-1.480318763488325251e-01,-9.951750932814780182e-01
-1.055609945066746214e+00,-9.366897452249780057e-03,-1.143292792249260614e+00
-5.753212528369128220e-01,1.465184167799586046e+00,-1.534790430023374487e-02
-5.783809694436844451e-01,1.431343776419510272e+00,6.521200101749735634e-02
-9.703311430751118127e-01,8.409793881087114231e-01,-1.419271304807232736e+00
-8.536165409263781756e-01,1.645957630864121946e+00,-8.293580631405975678e-01
-9.078866597600842026e-01,1.580818572028064750e+00,1.318789792489258664e-02
2.776597384743328401e-01,8.693696179049259509e-01,-5.395101130336188433e-01
-1.450437068655233475e+00,1.008482387219536758e+00,4.900616087230485474e-01
-5.978481010132481038e-02,-4.989276946689288894e-01,-8.641405563683436375e-01
-1.171464018875322033e+00,-4.388617212377566301e-01,-2.436954454752855714e-02
-1.603196610521563370e+00,5.165689101808886713e-02,-1.015531130491448719e+00
-1.024692689802343404e+00,9.392726579124826003e-01,-1.436505010858152964e+00
-7.668813473620973431e-01,9.806194795358472160e-02,-1.215298313597369173e+00
-1.214296873122129750e+00,6.298301183586209051e-01,-1.461293374806417633e+00
-1.608378486100818128e+00,-1.647931543561343692e-01,-2.391031848157990081e-01
-6.781239154193621221e-01,1.013317321483763189e+00,5.746624274090895712e-01
-2.093979933819491990e+00,1.230562218530239643e-01,-5.933796585484493180e-01
-3.954143195632743857e-01,2.924806017163077421e-01,-1.190088396535263771e+00
-1.789937431790974420e+00,1.458301860004199701e-01,1.223775203359472735e-01
-8.805924752045786175e-01,4.605567672038047289e-01,7.383960100512829694e-01
-1.379991752456357412e+00,4.871501032873453152e-01,5.807469648540066753e-01
-1.538026886766753254e+00,-1.890895954338469021e-01,-3.164686898447814922e-01
-2.679712346541641699e-01,-7.077416697090331832e-01,-6.574881710190421114e-01
-9.413965741046311786e-01,7.681148187049484655e-01,6.646644472003484516e-01
-2.466359527157325482e-01,-6.974363607677441790e-01,-6.818682818596050188e-01
-1.185318175498045745e+00,1.164623315832904682e+00,4.774556742022741940e-01
-9.472820283506488970e-01,4.407191102803061367e-01,-1.354026361416861501e+00
-1.136654550556633475e-01,5.783850477927005018e-01,-1.065911470461150534e+00
-1.764521040507099903e+00,-5.619653029400879102e-02,-6.541662958064221600e-01
3.768283412802505006e-01,4.519146703305582102e-01,-8.050205761928737047e-01
-2.088130928220425453e+00,4.455926310049599381e-01,9.830407083448322592e-02
-2.014363162576624511e+00,1.765660803469212281e-01,-1.349762220104423482e-01
-3.992113067575722707e-01,-3.828498579908785615e-01,-9.269574802374384026e-01
-3.980811880655868995e-01,1.847746478189931860e-02,-1.133949554457282405e+00
-1.029805859150056291e+00,-5.431380465472950281e-01,-2.120029002354020461e-02
-7.116900917134425519e-01,7.520421433103301467e-01,6.947520409311919165e-01
-7.249485130869771643e-01,1.511002305163827275e+00,8.444005096381074216e-03
-1.386288958796459969e+00,4.838614692145377649e-01,-1.445417066079005330e+00
-3.281730938381490215e-01,4.549197775662151555e-01,8.776923075216220838e-01
-1.172916374253293537e+00,-2.508600912716873466e-01,3.059748147181275413e-01
-1.504583143791944577e+00,-1.764912241504575374e-01,8.849576740503968530e-03
-7.038331430648853138e-01,4.274725139318364397e-01,7.988217014650449421e-01
-7.673183206293697767e-01,1.365445728208907861e+00,-1.110034443279642957e+00
-1.808163335325281951e+00,6.179433724344606249e-01,3.742396637684662353e-01
-9.175111927468965201e-01,1.121434892412913165e+00,-1.340085820717700882e+00
-7.562648827543673180e-01,1.606197822588343760e+00,-1.793761875585516974e-01
-1.015980318493282519e+00,6.711996677621635543e-01,6.652402553378894412e-01
-3.114955457835393848e-01,1.217739546572482956e+00,-7.919694220361178649e-01
-8.005661250259776818e-01,-5.835481708098606557e-01,3.256735413021801806e-01
-1.075787540892477523e+00,1.229296621276804391e+00,4.303323302490459912e-01
-1.064288253439162224e+00,2.275619376004753003e-01,-1.292993490577355020e+00
-1.274080011110027888e+00,4.435094010496090644e-01,5.849774189518195389e-01
-8.658304202519635506e-01,-2.586834634093952423e-01,5.822590253342860844e-01
-4.498416317568735834e-01,2.927169276517992413e-01,8.946091514515357446e-01
4.808991484508921554e-01,7.447629292135410362e-01,-4.874547760437930588e-01
-6.385244882629270702e-01,1.451706926748488113e+00,3.867062309215643645e-02
-1.701278017393308861e+00,-4.323235908596079202e-02,-8.138866507096890190e-01
-8.796760651491416505e-01,1.538433181889203416e+00,7.279708015210960281e-02
-1.045950102903832724e+00,6.289148623497996526e-01,-1.426440229843999097e+00
-1.152153212719169817e+00,1.118734920505610519e+00,5.197787073772702771e-01
-9.140845865053019992e-01,4.748780593108108961e-01,7.266866633402454534e-01
-1.105886846261076695e+00,5.353721643979725969e-03,5.589756371574587934e-01
-9.679786487689369112e-01,-3.170920347104913550e-01,4.575680977912134351e-01
-1.249652244667483814e+00,5.573402166181746775e-01,6.232988494536290114e-01
-9.280687243186799273e-01,1.360200000196792325e-01,-1.242598420782190072e+00
-4.252130695094921697e-01,4.273228164460629586e-01,8.326373690103487935e-01
-1.389830640631444014e+00,-1.864903677598708509e-01,-8.160811546555524210e-01
-1.773649063312324747e-01,8.500336158377553852e-01,6.180606684239702275e-01
-1.118774041634298833e+00,1.220919194636622240e+00,-1.434949510966003983e+00
-1.392126493995542447e+00,1.012808620022466882e-01,4.081572626699335737e-01
-1.327343085061066352e+00,9.008004416416557358e-01,-1.539227081728510971e+00
-1.923947851865711156e+00,5.093397340420784403e-01,2.680383344658200384e-01
-1.087678198828450293e+00,2.301798814785908365e-01,-1.303896710972194395e+00
-9.341149287447175764e-01,-1.979385724082021458e-01,-1.011504658643440635e+00
-1.048885525997357071e+00,1.330216714479724560e+00,-1.337449085338668908e+00
-2.172543680908447239e-01,1.247447252441033605e+00,-5.889438486176844512e-01
-1.058231287207705984e+00,1.645093471032088139e+00,4.037090451668388230e-02
-1.474534037887452742e+00,4.875873050930353836e-01,5.019878965441306740e-01
-1.146619037637705896e+00,-3.610838595519192951e-01,-6.890494263481536930e-01
-6.961865164595060218e-01,-6.797637301517125419e-01,-4.443026169808933501e-01
1.142478862191848993e-01,5.091680961155499174e-01,-9.601701677779114208e-01
-8.787595783440326214e-01,3.864021019028555104e-01,7.437752437887752421e-01
-1.417206145392557959e+00,4.628105899061533690e-01,5.340602985975784200e-01
-1.102924893473181456e+00,1.789548334080952818e+00,-2.487835966803008114e-01
-3.509691181221639700e-01,8.647650174939077727e-01,6.354098631905125139e-01
-1.325895929777146098e-01,1.339079009596275301e-02,-1.066075488818677197e+00
-3.146034810222985700e-01,6.791572520543327773e-02,9.454320554575941227e-01
-9.937534049362068966e-01,1.017021722313936838e+00,5.635639093495600216e-01
-1.672647297057176852e+00,-1.311880960621376879e-01,-6.280962564548799865e-01
-1.442654969801623555e+00,3.934779366048606342e-01,4.895078715035339756e-01
4.981578416236188273e-02,9.921798225366300628e-01,-6.632806654864857876e-01
-1.104180599493218784e+00,-4.785230445168752178e-01,-2.933155539429944947e-02
-6.721786798582080058e-01,-9.405450651630364867e-02,7.647679271900116316e-01
-1.390843131476485306e+00,-1.570127492233980293e-01,1.725322859697401567e-01
-1.295588524264691843e+00,2.753925955804613634e-01,-1.314977014371207176e+00
-1.893575235308083693e+00,3.335851117040598141e-02,-1.790770060044474810e-01
-2.537997630254464898e-01,-1.501955195879562943e-01,-1.038268679452664767e+00
-7.649719779036993073e-01,-1.900076114552324766e-02,-1.160109366703912848e+00
1.429301942783046953e-01,-1.764053434990202895e-01,-9.803702625376011781e-01
4.602347109173057227e-01,3.242328115536196043e-01,-8.526824214291413018e-01
-1.043017544865389334e+00,1.168627570641266461e-01,-1.218377724215337077e+00
-1.302948022825899943e-01,8.971017036500321673e-01,-9.392695150394663184e-01
-5.643644456401483156e-01,1.486953020524323099e+00,-1.811376770143217352e-01
-6.479656186924481753e-01,-6.172198922899507778e-01,-5.787984562523075249e-01
4.794973907499130439e-01,7.768826525196468324e-01,-3.861782309972559002e-01
3.194064615804980134e-01,1.685062462249112825e-01,-9.288575075499906353e-01
-9.950362962989043325e-01,1.734527451786217034e+00,-2.306962009532095570e-01
-4.608820535940767460e-01,-1.260955872765614494e-01,8.988584234996171984e-01
-7.426519042356057865e-01,-6.912455548063877186e-01,-3.255436763822396329e-01
3.032751231835181249e-01,-3.568192878536177726e-02,-9.480544507677591826e-01
-1.975033220159796210e+00,1.580916707170413049e-01,-7.752078064627440646e-02
-5.063137068270596730e-01,1.154152192369048979e+00,-1.043795780780123250e+00
-1.104095115857280041e+00,-4.124907307733723938e-01,-5.719928438823226324e-01
-1.180670291889328816e+00,-2.814295899799059697e-01,2.614653909702022716e-01
-1.563013446174433829e-01,3.615255347025032179e-02,-1.100910182725723718e+00
-5.065288992642339450e-01,3.650269305938637632e-01,-1.241750988190427618e+00
-1.543823692670982295e+00,-1.188567214311777309e-01,3.595985646065811420e-02
-1.014720412236620017e+00,1.395339629612144527e+00,3.256550628538069647e-01
-8.826547395489843240e-01,1.218736054824745230e+00,4.113161681974647488e-01
3.950229439752520749e-02,9.722581947679227454e-01,3.973843667252739964e-01
-1.550029538125816453e+00,2.145765107855398257e-01,3.789346646483074399e-01
-2.023775008038583678e+00,8.421236668791197699e-01,3.172983877116559714e-01
-5.790480394597595781e-01,5.129535603476308436e-01,8.192442855855065487e-01
-1.814951567748612771e+00,8.162641643936560535e-04,-1.429527223750910458e-01
-1.102252593243076895e+00,7.648007995981899176e-01,6.132864808920373001e-01
-3.913670147647076436e-01,9.245605597204805681e-01,-1.124873857829544521e+00
-6.569093089594847390e-01,1.145762708258015294e+00,4.832985714588074466e-01
-5.172279123226205533e-01,-1.619825023196652669e-02,8.626030775390514105e-01
-2.452164711107703010e-01,7.412553100065636391e-01,7.130228132468888758e-01
-3.264165865488211082e-01,8.194236057627756198e-01,6.538115689004495579e-01
-1.162100301540475389e+00,6.758587963937549015e-01,-1.463399708811206290e+00
-5.545822726757664300e-01,1.518197956685147787e+00,-4.080403679457945132e-01
-1.684731867225745860e+00,1.606563755093906934e-02,9.672997408118788609e-02
-2.162302459015193468e-01,1.190236380668773464e+00,-7.017908741601862621e-01
3.032728185445462410e-01,8.564004596645304890e-01,4.627213190441634150e-01
-7.178928181434686140e-01,3.227531980932439315e-01,7.845299639327490970e-01
-1.220533541443900694e+00,2.970226208589476016e-02,5.057365033921086273e-01
-1.166482780228383254e+00,9.828394355779809244e-01,5.713022602425774643e-01
-7.903219486048143061e-01,4.339911380441661137e-01,-1.311482005434253306e+00
-6.491992150021630437e-01,1.036485804503868069e+00,5.519735925222791773e-01
5.151189317858773098e-01,8.458100107646919774e-01,-9.382318953398494088e-02
-3.334281308848586756e-01,1.228680529010265587e+00,-8.019570373039922595e-01
-9.886226781526451513e-01,3.133512853209999838e-01,6.894017532230704015e-01
-1.679618933609096532e+00,2.089309904387932071e-01,2.744411689555792400e-01
4.094486136812224286e-01,9.047921554771175545e-01,1.149408801307851280e-01
3.975373843110442396e-01,6.325068415730963345e-01,-6.829223201639518237e-01
1.383541290350096820e-01,1.005606205667481934e+00,2.825341125749056825e-01
-3.655970790030623196e-01,4.070272534287643421e-03,9.211783692337758289e-01
4.237923755101468681e-01,3.559475723774948031e-01,-8.288355001014570123e-01
-8.374973621155120673e-01,1.700791692673091937e+00,-5.921370797393620267e-01
-1.928185992061857368e+00,2.127859959323551986e-01,6.148581376818144234e-02
-4.337206961882934531e-01,1.343214482851904645e-01,8.954255184676068735e-01
-5.727593499300203117e-01,1.423647694835776134e+00,-7.953247513388539414e-01
3.718049142379860061e-01,9.240376054680673468e-01,-2.423995846754556371e-01
-6.318561860923967988e-01,-2.194429025587638360e-01,-1.034576338238185622e+00
-3.965215283456876572e-01,1.017381356007919235e+00,-1.046979927900725693e+00
-1.294914375507705717e+00,1.664655406321864817e+00,1.071111802463091955e-01
-1.883494941340581708e+00,3.460534577440929072e-01,1.946669575014901288e-01
