-4.929790939065855637e-01,-2.857602660386055968e-02,-9.280115494701349776e-01
-5.371138434234740133e-01,3.430293762727199547e-01,-7.408301864783718438e-01
4.324639676107351616e-02,-1.091267358074197169e+00,-2.955064103303601808e-01
5.870712023555783032e-01,-1.385619808253897078e+00,-1.050343465132008713e+00
1.134764866116350968e+00,-5.569324385970673141e-01,1.780274164963401295e-01
1.570991910010025361e+00,-7.445322787390230568e-01,-2.711051872102496763e-01
-1.078850638184822575e-01,-1.038568115360788857e+00,-3.289121004786581537e-01
1.324381176016100614e+00,4.671742654983993548e-01,-9.879456140415110443e-01
5.214530707450483193e-01,-1.356101388400378083e+00,-1.097914855609157581e+00
-4.733703723757229365e-01,2.692578863264197819e-01,-8.742843930686599041e-01
1.890927373991024174e+00,-2.238123155882368043e-01,-6.269281077839752303e-01
1.554383131953023689e+00,8.186926360471541431e-02,-4.236889192357935485e-01
1.116006204147491632e+00,-6.143845340137269462e-01,1.643706668131353077e-01
1.200247395221538893e+00,-1.236674689103135272e+00,-4.568448835271943786e-01
9.802932875516100486e-01,5.252736870085396026e-01,-1.309396801447523240e+00
1.449754343002289045e-02,-1.111813619627533223e+00,-3.437052867918983790e-01
-6.150255377393843981e-01,-6.283313356398853022e-01,-5.719496795868160843e-01
5.552388214103555208e-01,-8.495714180130595761e-01,3.369847299853001577e-01
3.956649651801082967e-01,-1.041677480478934603e+00,1.149595669105199225e-01
9.927943017648650503e-01,-7.736451365210408326e-01,1.530182882741741301e-01
1.812904879410075054e+00,2.246447306387112930e-01,-1.250944886567676884e+00
3.582707519382400951e-01,5.555706962213421973e-02,-1.650988045786774050e+00
-6.756566557821890029e-02,-1.050320321451545968e+00,-6.615800745624815793e-01
1.275187257124588414e-01,-1.121500190829944676e+00,-2.501447151224822640e-01
6.460806129587648439e-01,-1.389717716215399301e+00,-1.044533019487504655e+00
8.074825629186249687e-02,-6.244408360661803936e-01,-1.486407964179327301e+00
1.318918853694417193e+00,-6.928986015605955728e-01,-8.016062152720247747e-02
-1.941373312589347866e-01,-7.692590386150236492e-01,-1.042627217872031720e+00
1.322481657642215758e-01,-8.948087259270320892e-01,4.012189706692585456e-01
3.848279943161089234e-01,-2.909200685316626345e-01,-1.818221171384402979e+00
8.676159471536176726e-01,-1.533532257449295999e+00,-1.324497740940569601e+00
4.106814931491653553e-01,-1.221284162326529588e+00,-1.444641945687614504e+00
2.658088666000759867e-02,1.248369722199633020e-01,-1.338620283012834200e+00
-4.893477029895916264e-01,-5.916378601249210750e-02,-9.246557506842366658e-01
1.407249479543161153e+00,4.283982705641684596e-01,-7.283035638962571667e-01
1.401005257173282947e+00,4.425489216368200251e-01,-1.177015935373968203e+00
-1.300921240861130368e-01,5.399689732611610837e-02,-1.266523679345273434e+00
1.440026220693667813e+00,-7.533130274176871310e-01,-1.826578895406970882e-01
1.937221618977790216e+00,7.937907532645767372e-02,-1.058554915638998395e+00
-2.966299492282143957e-01,-1.991336775959097749e-01,-1.157080602375625711e+00
-9.754728377978261200e-02,-6.292518815121768416e-02,-1.327475970242238956e+00
4.122166065317514061e-01,-1.287553855778502010e+00,-9.984580622313695697e-01
-1.445057405597292843e-01,-1.001961435312273663e+00,1.290555265816679398e-01
1.349464349685778553e+00,4.702985357343891226e-01,-8.811273000416055545e-01
1.508799560975285114e+00,4.156345534164032074e-01,-1.190272404011684992e+00
5.060091716148094054e-01,-1.337073500087263334e+00,-1.041163347802198658e+00
3.553300891243125204e-01,-1.142219973247960096e+00,-1.438579221535977171e+00
8.369174593481041313e-01,1.476908180569569407e-01,-1.906922646228870422e+00
1.098863539050521254e+00,1.545029252026432487e-01,1.955969064235701382e-01
7.755660024044193079e-01,-1.115037007540832237e+00,-1.212159442173528223e-01
1.809543531217176371e+00,2.140746914528044720e-01,-1.120612117565225496e+00
5.328680275342515538e-01,-1.075245638992224473e+00,2.607502336268568283e-02
7.652002579173783348e-01,-1.355110266176816070e-01,6.282949255306201630e-01
9.449252821234404021e-01,-1.224596462557099086e+00,-3.524477532662071422e-01
1.484539240410205574e+00,9.812225609525070114e-02,-2.681745400269250346e-01
1.687693472493339009e+00,2.745597094659812942e-01,-9.764702086820554738e-01
1.098429633212056444e+00,-9.669341285924422102e-01,-8.826597429047546017e-02
4.056845914529879638e-01,-1.052699498293843350e+00,-1.666601958879086576e+00
-1.754721211601502481e-03,-1.116926640111021607e+00,-4.587899176001389301e-01
6.739305636243271558e-02,3.310855154965251512e-01,-1.251757465170355799e+00
7.910298784332144839e-01,3.354682083578615637e-01,5.237716548811027772e-01
3.682372974607325267e-01,9.115132212827996572e-01,-2.433593113193788238e-01
6.974932137878401273e-01,-1.409877633492675031e+00,-1.247290976851243016e+00
9.732757388161680234e-01,-1.560824716668358869e+00,-1.172629068731422919e+00
7.148268544573673777e-01,-1.299945760445028187e+00,-5.584563357261091987e-01
1.830387612823680676e+00,8.611882774943514784e-02,-8.322523457027495297e-01
3.169023846076520212e-01,-1.232273774721036164e+00,-9.721549580399131418e-01
1.328507358224346291e+00,4.633501175174071784e-01,-7.548379499798436587e-01
1.597049687705374366e+00,-7.603606232966528822e-01,-3.457819849093970999e-01
-4.818645834116495053e-01,-3.086474087198635141e-01,-9.260038974267791323e-01
8.372210198935543524e-01,-8.639248317720628068e-01,1.503815963130548661e-01
6.985761183796332374e-02,2.192947710884363480e-02,-1.440704909231605768e+00
6.895793827495638739e-01,2.772787499936905653e-01,-1.663548483032023295e+00
-4.735875090164888279e-01,3.331759384465870499e-01,-8.482368827402536615e-01
5.848217938325045440e-01,-1.036680603993680672e+00,6.033672624242581578e-02
-5.074059912445817444e-01,-2.798045752796990970e-01,-8.774099656793213908e-01
9.908335874863301029e-01,4.884240045986709688e-01,-1.341736288975206248e+00
-5.387346593674566808e-01,-7.634126358166430926e-01,-4.306795108527793903e-01
1.222778907496903988e+00,5.103521702160503937e-01,-1.012170351426457060e+00
-6.048614806179519743e-01,-7.186402063553309905e-01,-3.826339153255090553e-01
1.229865975779892429e+00,2.512210201181671113e-02,1.275025449864168325e-01
2.036221489569379484e-01,9.164338840265878749e-01,-3.937569511552928558e-01
7.751032141680562759e-01,7.342128543339372371e-01,-3.943536823336198371e-01
1.153532631624901272e+00,-9.807092851166250569e-02,2.281137487513705264e-01
2.100033719307159430e-01,4.573841254230910369e-01,-1.221877075688567515e+00
9.660877727954074734e-01,-4.989123964774289099e-01,3.561178115951527667e-01
9.130077346680238737e-01,-7.990553723305995337e-01,1.539944349967014015e-01
1.050688512954511600e+00,5.351861317137466267e-01,-2.035126483783037676e-01
6.764722543029770829e-01,-5.277495052943736997e-01,5.384849753510996262e-01
1.676265269538077085e+00,-6.578130811457015559e-02,-4.354116428992627630e-01
1.297325934690007232e+00,4.378100723772589409e-01,-4.342660529895941424e-01
-2.444314057168623100e-01,-9.001746110989227168e-01,-7.099393003452545425e-01
4.729460363625550556e-01,-1.327137310441401707e+00,-1.004323090160360588e+00
-4.596952333037573890e-01,-2.521568845239399725e-01,-9.329340577016822511e-01
3.366798613554345398e-01,-4.112495697681417539e-02,-1.679432308145651254e+00
9.006318514199220804e-01,-6.045082583327112680e-01,3.248624953891861011e-01
1.428183363442814047e+00,3.078903671162136133e-02,-1.834813040644156790e-01
5.697133002606062924e-01,8.298499638498845199e-01,-8.867329641257487571e-02
2.755820506874708253e-01,4.694360743464108809e-01,-1.234293377571896499e+00
4.779757997032726968e-01,-4.778945898958536498e-01,-1.951228223851743770e+00
1.505828912043541079e+00,-1.289726629448832984e+00,-6.733340194707392312e-01
3.071955422176086969e-01,-7.716736302499958011e-01,-1.722975197435761219e+00
-4.891943850696952589e-01,-6.760716654617773269e-01,-6.727289425119314936e-01
-4.930862984426809814e-01,4.622365028977062917e-01,-7.341877075449459999e-01
3.870238281087800547e-01,-3.056704872490361227e-02,-1.713423745612232540e+00
6.580263298488521206e-01,7.880049215892043213e-01,-3.117404331194660871e-01
8.492603345904937706e-01,1.984081210852488009e-01,-1.821637567334639884e+00
9.234428264944554154e-01,2.173163221996069483e-01,-1.823861526440154535e+00
7.622322202947804382e-01,-1.423502058685709004e+00,-7.972875077468557503e-01
1.272132873669245656e+00,-1.146025487681117339e+00,-3.595570649356590320e-01
1.173037702726530185e+00,4.842587866411701136e-01,-1.311890412044141696e+00
7.918539326106169840e-01,-1.068418965081193273e+00,-6.235655943255564299e-02
8.471246076392552338e-01,6.769142796688913943e-01,-7.059539602005608927e-01
8.760677049860813304e-01,6.886602493381116519e-01,-3.464672681699699774e-01
1.444105770385675502e-01,-9.340888902504682623e-01,3.311436714338752973e-01
5.063833080012776211e-01,8.442645852357919534e-01,-4.846719724908650218e-01
-3.016973021295265012e-01,-8.858201066496211862e-01,-6.373072653696807421e-01
-1.512871938238934955e-01,-5.269852133182550968e-01,-1.258846568874433469e+00
5.507357675478102843e-02,-9.483770517792826649e-01,-1.220895291246903547e+00
1.417611619143257284e+00,-1.456755958767322445e+00,-8.685679142747965154e-01
9.781614805781143618e-01,6.068910059903002141e-01,-9.910301870396389656e-01
-1.508168063795218838e-01,4.495723847943993712e-01,-9.980894488667710895e-01
4.822065641164294258e-01,6.319653447532290746e-01,-1.043865013699122324e+00
9.092509094770552247e-01,-1.527908398036189608e+00,-1.153791249527071017e+00
1.061303952008016693e-01,7.091097982087970486e-01,-7.895194158156704223e-01
-2.365184817766622372e-01,-9.687054021276159110e-01,1.316290904765643477e-01
1.184683430881237065e+00,2.333546285612610183e-01,-6.536174270843389880e-03
1.949066678256008656e+00,-2.332971069030112185e-02,-8.483135607150279478e-01
4.401485170416636339e-01,-6.988922113476138120e-01,5.753030912405128205e-01
2.426920013991775218e-02,-2.915185536610018779e-01,-1.493802931145504109e+00
1.828191707083524298e+00,1.071408583113807600e-01,-8.898748134657907816e-01
-4.752012246814908969e-01,-3.304262749127937493e-01,-9.144025648917019078e-01
3.942704327712560630e-01,-7.363404607830444926e-01,-1.842322931714423406e+00
9.777629086597565689e-01,-1.556997962779270495e+00,-1.250376628996781925e+00
-2.917589626359968769e-01,6.676124767719747444e-02,-1.120481994104765455e+00
4.127884827636368326e-01,-1.009173759852406427e+00,-1.749960889591104074e+00
9.736007308977627783e-01,6.579063665439165431e-01,-6.030767523689849474e-01
-4.272448004147795242e-01,-2.243175405018617563e-01,-1.007872673705029865e+00
-1.836808007275373897e-02,-3.378621443071939123e-01,-1.467435383334044330e+00
4.768192423045991002e-01,7.353572078727954597e-01,-7.897349763073292506e-01
4.013263636377372157e-01,-2.037897596732179267e-02,-1.740572094033594697e+00
-2.934823077081092149e-02,-9.610616862858871734e-01,-9.998420323852280633e-01
1.127947380858584925e+00,5.491723296634127838e-01,-9.039243864280391838e-01
6.945641570885133786e-01,-1.201250486850629073e+00,-2.317537197388699621e-01
7.164612059247977838e-01,4.858113058866859735e-01,-1.386044533531859857e+00
1.902644094478713521e+00,-5.619409518674176596e-01,-5.742508424516757914e-01
1.535874378481450198e-01,-1.103950462137305299e+00,-4.790328159428372534e-02
5.836474654520823480e-01,-9.071064849103379624e-01,2.767893518219069482e-01
5.648888711769046722e-01,8.281647061120775977e-01,-4.985634196036437538e-01
1.268291427464196763e+00,-1.047598498705046427e-01,1.047870385228946433e-01
4.545557793881176423e-01,5.050749748273269946e-01,-1.234549737811667880e+00
3.992924742293224583e-02,-1.116593120578764475e+00,-4.913729956703073443e-01
3.852282796424864597e-01,-2.615254756416064419e-01,-1.838750166058928048e+00
5.866471676339786168e-01,4.265767474153134980e-02,-1.818473140574853764e+00
3.199885742289743651e-01,-1.176377105215298702e+00,-1.296180167903000280e+00
1.198580797057328340e+00,3.702753933222645566e-01,-1.633215096575805214e-01
-2.047547559785179161e-01,5.714857065759800792e-01,-8.213917646746339285e-01
-6.772951322394317186e-01,1.207973412779447531e-01,-7.256004402412458143e-01
-2.020155861582096368e-01,-6.177323945345282175e-01,-1.158194345904698830e+00
-4.624151836401236282e-01,-3.055479598974575883e-01,-9.653075670852834245e-01
6.446062993854766443e-01,-1.393477678158369981e+00,-8.699927423253167591e-01
8.362483654340268080e-01,6.709833251231135387e-01,-9.027734612799570568e-02
4.834949375739972521e-01,-1.033236301217441477e+00,9.530150900178431528e-02
1.608568566518070175e-01,4.591085119901808231e-01,-1.173554389375206286e+00
7.472557183882969634e-01,3.734370270610369302e-01,-1.555969111848949149e+00
9.806688784645938295e-01,2.171828687847428274e-01,3.045441735154718610e-01
-1.858799363270493277e-01,-8.858283091279323118e-02,-1.241348319661288224e+00
-6.355963228016068278e-01,-2.294728275031256703e-01,-7.900139220557518271e-01
-2.107341366947971251e-01,-5.250236436491486636e-01,-1.202416669301091590e+00
3.089091252373159513e-01,-1.098302008345129588e+00,-8.946823679656391859e-02
3.191298069012617894e-02,-1.099976870395339423e+00,-8.636129387931751333e-01
1.088498324240201764e+00,-6.197584636195559993e-01,1.687283279286328486e-01
8.553829766020016878e-01,-1.468160900231260779e+00,-1.110396927337274020e+00
-1.420828828720983039e-01,-2.426004071711722332e-01,-1.306407313896873035e+00
2.343611178074510581e-01,1.142997533766357127e-01,-1.512282818418779540e+00
-5.571062915708513419e-01,-7.371099605959867684e-01,-3.735497959615473040e-01
-3.339841800022896878e-01,-1.560653435671241762e-01,-1.125966253755640967e+00
-3.329665078502517250e-01,-9.426067930389362415e-01,-2.518731762264739271e-01
-2.131965981602905180e-01,-3.157144851624483217e-01,-1.213648655558730249e+00
1.983503201385795611e-01,6.958747333615655783e-01,-8.678274989971026532e-01
1.955018265295997759e+00,-8.516249953198006262e-01,-6.545762359908631201e-01
1.222985273979448229e+00,4.123752408309284689e-01,-1.524695201838000003e+00
1.211288419618380852e+00,4.600827655803712002e-01,-3.773164273177139205e-01
1.865360060210294435e+00,1.970058190205244142e-01,-1.180351146124065220e+00
4.996339478852795252e-02,-1.343777297280618344e-01,-1.476813266567047922e+00
-4.459262645795892266e-01,3.154920578533355613e-01,-8.808773546262912424e-01
-3.629765344842633135e-01,7.553542532964445388e-02,-1.032456798870939663e+00
7.593805940384660280e-01,-5.752707277099324834e-01,4.679595623926495751e-01
5.380268777117097612e-01,-6.808186238528223244e-01,5.060233610659282677e-01
1.446413751886693966e+00,-1.149798345707971015e+00,-4.459223115563666351e-01
3.276751754485808243e-01,-1.004036093752544101e+00,1.782340870696490498e-01
-1.777830340738861814e-01,-7.052096035426743681e-01,-1.109717832708902563e+00
4.236487268512414417e-01,-1.071871866988064026e+00,4.276570839322217654e-02
4.927174786228977199e-01,-8.237771705533256661e-01,-1.932830005812119056e+00
-2.453003883327316836e-01,-9.811805623394572740e-01,-5.563620210944290878e-02
7.209507801506276348e-01,6.595159972026155559e-01,1.569742929270996623e-01
-4.021319331113807904e-01,1.027708411188459903e-01,-9.753551788604404305e-01
3.734277412749787972e-01,-1.247816639641049052e+00,-4.408448743130794489e-01
1.837702157151979154e+00,-1.610833327238127832e-01,-6.115859949756826675e-01
1.805306134131668960e+00,1.112073331014750421e-01,-8.378260071583533142e-01
1.671900151360298237e-01,2.263286419612361156e-01,-1.388046783914978155e+00
2.125469973465736462e-01,-7.790855303892461059e-01,-1.566514399894348486e+00
4.591245237522610378e-01,-1.107225989728531701e+00,-1.649242733158288177e+00
1.471987500009984018e+00,-7.050093939552826150e-01,-2.005349378051028975e-01
1.024639195038160588e+00,-1.403964270599355801e+00,-7.407961386247067237e-01
-3.620249451171207444e-01,-9.106312007412776799e-01,-2.308657857386467796e-02
1.029944782037122974e-01,-6.534615991045227279e-01,-1.540584246092562726e+00
8.783604970692309166e-01,4.259864219006510577e-01,-1.530553142818049661e+00
1.286073597123992052e+00,4.196852676226612844e-01,-1.468459858761133496e+00
1.617861715300072500e+00,1.829794933566666060e-01,-6.393045328111878201e-01
1.873222162674904823e+00,-4.822266743962471125e-01,-5.598642131239264241e-01
4.261194741054797896e-01,-1.142172941929197494e+00,-1.563799825034570157e+00
1.255477187215293888e+00,2.890164286778640901e-01,-1.725271660871481871e-01
9.315228824527272966e-01,6.738276321633271948e-01,-6.331036703430891199e-01
1.389020368997985644e+00,3.574199037722955441e-01,-1.647582435266801149e+00
4.973303897694016373e-01,-1.270597469832971171e+00,-1.398914272679658399e+00
1.669947815999459628e+00,3.231451135813578346e-01,-1.278952750462386101e+00
-5.234134088034496646e-01,4.701122396462775743e-01,-7.230079214682778588e-01
3.134630004375609236e-01,7.758561747682748422e-01,-7.446609452769229476e-01
1.008328498588320077e+00,-8.694825230683301820e-01,6.000220722332735152e-02
1.202975885437492787e+00,-7.646450266133372198e-01,4.031996072384834602e-03
1.416292552919436343e+00,-4.172935000402171468e-01,-4.184472293795467313e-02
8.661202455655740984e-01,7.097139497390804186e-01,-6.514647875936590005e-01
2.893608341883625035e-01,-1.075146187036587708e+00,-1.421391692322127698e+00
1.798282335251455644e+00,2.459553567509398797e-01,-1.300350671940575964e+00
9.098808313021724548e-01,6.597134942689603099e-01,-7.748441094196293344e-01
1.948184320603729147e-01,-1.188746649291847479e+00,-9.384269159274370997e-01
3.505559559589698643e-02,-9.617819972834243947e-01,2.807003956836830461e-01
-4.129436804160407926e-02,8.613213133495600804e-01,-5.057791973608164460e-01
-4.808361683200506609e-01,-2.026751733032950975e-01,-9.678647949839354059e-01
-1.001710383969017099e-01,-5.600624007788851388e-01,-1.288130422693899879e+00
7.674072490840463390e-01,-1.851404632319780807e-01,6.186419053412711699e-01
8.419270468804658236e-01,-1.428516535969527546e+00,-9.822715721320387505e-01
5.218754285695984541e-01,-1.190862231352270317e+00,-1.632750212197082718e+00
1.547912692859965134e-01,6.537331250908369196e-01,-9.140572220143716731e-01
1.217247517205582996e+00,-1.202463584562093013e+00,-4.176556525509421691e-01
3.852339825607927759e-01,-7.571725937618692948e-01,-1.842554628291396934e+00
2.040750834964815130e-01,-7.543932190696071016e-01,-1.613764867351277665e+00
1.496443209813889785e+00,1.598210121466884515e-01,-3.480430717700978560e-01
1.517179295792580485e+00,1.802227931006933903e-01,-4.254172521218156366e-01
-3.435437532707912855e-01,-8.945245413391267331e-01,-4.851121697719121828e-01
-3.230069114116387308e-01,-7.432884343869072818e-01,-8.304433318713815293e-01
1.430288870930518597e+00,4.411470552538215295e-01,-1.093638257395507907e+00
1.081081390769343537e-01,-1.124249857632533045e+00,-1.012191400601460067e+00
-2.553983329920840317e-01,-2.403309665180171917e-01,-1.192026794685054236e+00
9.326140215524165722e-01,-7.679627003760328696e-01,2.039516402415363083e-01
1.715883328839864941e+00,-2.052590103590224979e-01,-3.998300073865372894e-01
-8.580213228815960699e-03,-1.021223323815080297e+00,1.360875544063348264e-01
2.140532983356347174e-01,-9.981996316917093326e-01,-1.375942381810919324e+00
9.970087696498742824e-01,1.341559509840629383e-01,-1.976344857432695168e+00
1.555576929511803597e+00,7.890397256684505978e-02,-3.684973850684637453e-01
1.890267559065667291e-01,-8.609326956686809140e-01,-1.515318073484622552e+00
-6.230473836460191928e-01,4.962375668046340588e-02,-7.735188209030751105e-01
2.406646508957552555e-01,-8.381967240056874546e-01,-1.606372307445850911e+00
8.151031746986875381e-01,7.548775545846328483e-02,-1.950365617877175106e+00
-5.895418370877850700e-01,3.487097242165426159e-01,-7.339284413563267329e-01
2.067369042115943245e-01,-2.813023716311449096e-01,-1.670885678398012608e+00
7.688742175175586890e-01,6.791366050110457797e-01,1.229238483858934722e-01
5.077804493980501155e-01,8.817487485779194056e-01,-8.729942135198914821e-02
3.685769541099847557e-01,-5.224019248648694713e-01,-1.850813222877040642e+00
9.771818922669276430e-01,3.026645138283134973e-01,2.871038592499134956e-01
1.783722057812605399e+00,2.346648126858451033e-01,-1.151378054233871184e+00
-5.668604430721697618e-01,-2.955498950701007099e-01,-8.138719012129578267e-01
8.202624383139481834e-01,2.644338438121138918e-02,-1.985379202762038942e+00
8.855689513727225126e-01,4.599303814598038609e-01,2.692326260862277776e-01
1.239614458082277437e+00,-9.145980136948395067e-01,-1.426033969871730867e-01
3.127728515170219437e-01,1.312093988503855169e-01,-1.553751668495969795e+00
5.746536944722123730e-01,-1.361774700400118165e+00,-8.180282611831282136e-01
1.664507848032348525e+00,-1.992199123707227848e-01,-3.428778223050550356e-01
2.503887585824746131e-01,-4.204137599242782075e-01,-1.746046562253633194e+00
1.170641874183847575e+00,2.496470075061055505e-01,-1.876427587136068942e+00
1.205724876013625435e+00,-1.108268330917713040e+00,-2.969638047183871254e-01
2.445053526533536581e-01,-1.201661297301096720e+00,-8.035366113918404052e-01
1.670980249716224719e+00,1.701056034643336767e-01,-6.807863311746257251e-01
-4.500215452586522336e-01,4.941627366639460561e-01,-7.459164897296861607e-01
1.693101003091182777e-01,2.305314414788021959e-01,-1.386567867086231809e+00
1.816767647571328137e+00,-1.054136580612579088e+00,-6.732606901901311280e-01
1.077694205091963425e-01,-1.153095945623716423e+00,-3.826636908323747810e-01
-7.497201805738559210e-01,-2.422396214664040981e-01,-6.072756885879581068e-01
-1.516985724398302315e-01,-9.664712887941763197e-01,-6.989537952790016995e-01
1.061588322360873082e+00,-1.181622515099918447e+00,-3.260625252335666580e-01
5.801285865966044897e-01,-6.029964583216453899e-01,-2.079273338451557152e+00
1.959057415639319233e+00,-5.934010535729982161e-01,-6.323451397537873664e-01
6.124698250172694314e-01,-9.747294519846579908e-01,1.551795280506401142e-01
-4.696861427536161426e-02,-1.074918715553327964e+00,-2.812325531068545770e-01
9.052185802332745057e-01,-1.414451002618447140e+00,-7.564463808435328840e-01
8.511061154475862978e-01,-8.191693846784978694e-01,2.116227710062262013e-01
4.360764438385044128e-01,-2.926535295564482997e-01,-1.887692712807082174e+00
-1.622729470162460885e-01,4.537737493784517184e-01,-9.743250694758803787e-01
-1.446046343463846529e-01,-5.631568092198899894e-02,-1.278411856476994179e+00
7.039006998434551576e-01,7.690678444599828856e-01,-1.356113855648042876e-01
5.232577231116033456e-01,-5.366924645448732933e-01,6.572412952041881695e-01
-6.707639939964541442e-01,-6.099366172351649018e-01,-4.352698075009354128e-01
1.861692144537990590e+00,5.453488110127571037e-02,-8.715091516060211596e-01
-3.023520588155628741e-01,-5.459999302567559720e-01,-1.000059261290091372e+00
7.199296056543060818e-01,2.290106151783254385e-01,-1.720856007068771509e+00
1.476089149451232041e+00,6.580949184509574112e-02,-2.340062461149113870e-01
1.695349630714816647e-02,1.100653498645582790e-01,-1.353686847119834447e+00
6.086303866893646441e-01,-1.350462237339518090e+00,-1.424935577168479295e+00
-7.437929545814430110e-01,-1.924042195539760469e-01,-6.540664351001883592e-01
1.039561322362540619e+00,-1.525788961331702609e+00,-1.038039575061915132e+00
9.101515659334650232e-01,-1.222802396898858612e+00,-3.162074588876461756e-01
-5.809664946860609858e-03,9.021977768433241396e-01,-4.531169678923130939e-01
5.628154022909960252e-01,6.113109923195837458e-01,-1.088256316934399059e+00
6.733684767158282236e-01,4.449920175613809037e-01,-1.426455152074487254e+00
9.326709468957180560e-01,5.931886295425247146e-01,-8.626651893967740570e-02
3.131573850393275515e-01,-6.710105731677871166e-01,-1.752841346786963683e+00
9.489450975657616194e-01,-1.368633655839589514e+00,-6.337166196507667548e-01
5.850151814308536258e-01,-1.178582197802144904e+00,-1.955737228501105984e-01
5.520462695845053114e-01,-8.470237936356284081e-02,-1.903839371769598721e+00
-6.929764745418968142e-01,-4.990284556348434930e-01,-5.201250356126104757e-01
7.282147155220142221e-01,-1.521209398585123274e-01,6.912365597531774375e-01
5.806341485521322454e-01,-9.637319414629140768e-01,1.794440237255499060e-01
-6.700111746163605053e-01,-5.045619460050894123e-01,-5.130722171633551598e-01
1.515939969446970847e+00,3.844063626556537550e-01,-1.288048550729167019e+00
-3.890080706026703417e-01,-8.264138565122359781e-01,-6.357275908358309691e-01
1.620928308060632483e+00,8.261651850465831504e-02,-5.161230430492063093e-01
-3.026835518209383125e-01,-1.182514541304649919e-01,-1.126214035603667618e+00
2.606948305159523249e-01,9.260235529595977066e-01,-3.730888741418724175e-01
1.646672703264960014e-01,4.240423826006399499e-02,-1.495206179785852907e+00
7.146303422562519936e-01,-1.739448939662584237e-01,-2.058878358410304088e+00
7.695833655513169003e-01,-1.441114969562539372e+00,-1.409403252465215362e+00
-2.074127698893154237e-01,-9.924751096303763287e-01,-4.052206585961689589e-01
1.997282256864521877e+00,-5.311137548784713447e-01,-6.775542262864898690e-01
2.710867669564748783e-01,-4.405317092447065264e-01,-1.765138541492026425e+00
5.163215445873243770e-01,5.964993263332293294e-01,-1.120959636816620586e+00
8.249990019664881213e-01,-1.491067256435899768e+00,-1.221969984361651385e+00
1.086198941675063034e+00,-1.525515324588335941e+00,-1.021327626370186925e+00
1.643752744606129745e+00,7.718212734488148763e-02,-5.255722452439977044e-01
9.665856204466086732e-01,2.372759875579167343e-01,3.244002141885494184e-01
1.321508257908879491e+00,-4.201114907089791850e-01,3.518604153558581304e-02
1.083346784610519142e+00,-3.054041635399467602e-01,2.853954812888677139e-01
1.185137220521579743e-01,-2.595102626075569165e-03,-1.495251835197453527e+00
1.432543636560178246e+00,-4.172281748890859232e-01,-8.984430136795695798e-02
5.099991429480860150e-01,-1.044553386480196799e+00,-1.813664549382322244e+00
5.883931853001354018e-01,7.585592174519061315e-01,-6.229792908089791803e-01
5.794374273700977351e-01,-1.359459871127048025e+00,-7.806179559382631084e-01
1.388053345647291437e+00,9.838302875816930249e-02,-1.285200610562193535e-01
-6.782975148139772648e-01,-3.000614558786510733e-01,-6.775235445164113912e-01
6.515821932185038579e-01,-4.402483516712515921e-01,6.116100483828463830e-01
5.398411464211344546e-01,-3.014685421953257616e-01,-1.971976735570196704e+00
5.718360211613057187e-01,8.321620653968483383e-01,-3.506112789478828262e-02
1.484894569020438926e+00,2.146614391581198045e-01,-4.129492573343370720e-01
4.659851093369452024e-02,-4.018878565919544177e-01,-1.521285468676243147e+00
9.359391390084974630e-03,-4.649444959488894247e-01,-1.473519994661025123e+00
1.358682453008823954e+00,4.534888637361681463e-01,-1.269428902084549504e+00
6.982611089862515996e-01,4.466473226290982451e-02,-1.906858412103123124e+00
2.477762155220574469e-01,-6.386098569827440841e-01,-1.689438919546041307e+00
-1.165564353636237560e-01,5.637696266642153731e-01,-8.902516668883898587e-01
5.209611801459893554e-01,-1.331830404653912225e+00,-1.147079778317846133e+00
7.009155551656717220e-01,6.465606222029980366e-01,2.998644952813924736e-01
1.011801789311572053e+00,-7.090080862533385542e-01,1.977020621086716112e-01
1.802191289083808545e+00,-2.331981518384623198e-01,-5.494874547287587063e-01
1.383421919786046006e+00,4.290560483107663248e-01,-1.377617356133539417e+00
1.282820092978179671e+00,4.497158040122505307e-01,-4.762367502346253056e-01
1.623936894294017330e+00,3.383939202353966058e-01,-1.120223066811858903e+00
1.395521368218486158e+00,-8.291985559719358134e-01,-1.901534561435144211e-01
-1.109036027572873756e-01,-9.078306329720603474e-01,-9.901741649282835844e-01
1.896319841797612815e+00,-8.728827783076859026e-01,-6.277267949458825713e-01
9.365533117706583699e-01,6.591797342919424318e-01,-5.886915577567866098e-01
1.229881426703988367e+00,-1.234010652271377184e+00,-4.524688902988729944e-01
9.091972871757904306e-02,-1.144172647226385120e+00,-4.640979068393736306e-01
5.536606661402850849e-01,-1.339790902996717215e+00,-6.143123799696021958e-01
1.395988413592355259e+00,-7.240096604289630866e-01,-1.687020210082748051e-01
7.885438420229187173e-01,3.619091893528951775e-01,5.022129991788711889e-01
9.828507332018451836e-02,-1.136041177013094927e+00,-7.859753178792354689e-01
7.844829120785157262e-01,3.939266362600152838e-01,4.915277105116285239e-01
2.876250488541960415e-01,-1.159272411094550037e+00,-1.250059948131386101e+00
1.409719739925526127e+00,4.310891225252717618e-01,-8.670734606242240794e-01
5.732239160127365896e-01,7.322365865751387926e-01,-7.866767350288428329e-01
1.734068720261959351e+00,-6.110778789430739710e-01,-4.052352332336416341e-01
8.170773949165731354e-02,8.457778371554091068e-01,-5.217933418795129841e-01
1.387478548879939710e+00,-1.414460753194087816e+00,-8.016927781955377474e-01
1.545392249516720717e+00,-1.178429767282674234e+00,-5.745599974752325645e-01
9.622814700858254300e-01,4.760654414421858771e-01,1.121156508645643618e-01
9.784029971829185657e-01,6.232872532662663279e-01,-3.144713278975042048e-01
9.316645919262956932e-01,-6.181734600154895620e-01,3.252862722700822218e-01
-8.790924792187619630e-02,-1.013151553585367681e+00,-7.214890601619027288e-01
1.321692538388819504e-01,-5.166492451699514765e-01,-1.588821720604448151e+00
1.782685795273768692e+00,2.219970402030493617e-01,-1.008909392886239154e+00
-4.061618615556170098e-01,-9.014676056535904092e-01,-3.276920328565915419e-01
7.628276142672614224e-01,-9.714914949974069458e-01,8.113260556117397881e-02
1.171074261814663675e+00,-9.546149791141215202e-01,-1.108747886566208013e-01
-6.928723827879568198e-02,-1.077717088890267627e+00,-3.872403763825422729e-01
8.784823322557590020e-01,3.256471047699884824e-01,-1.675595017357709882e+00
9.644145870341036542e-01,-1.455997279388571819e+00,-8.610112725259598809e-01
1.195755399835711108e+00,4.163864237614678943e-01,-1.513956532895347928e+00
2.434528093645517699e-01,-3.945544005592571679e-01,-1.723090650386649436e+00
1.799829074905418547e-01,-1.180515219272361360e+00,-7.065830234086792894e-01
3.841736877001804551e-01,3.737433145205577012e-01,-1.385590544244509337e+00
5.610924841331746959e-01,-7.395534057472066269e-01,4.751145419747925813e-01
2.164893571536964101e-01,-1.055598649978775061e+00,-1.300968400493183186e+00
1.518029082885807846e+00,3.169022023060611981e-01,-6.719276644214907668e-01
4.833843018522502866e-01,-1.274465376231252556e+00,-5.515946570839758145e-01
3.676981976590373846e-01,-9.900732684488450230e-01,2.003945657938889513e-01
-2.814306227599175370e-01,-9.862269032655243128e-01,-1.911008296808030527e-01
-2.669452558747417714e-01,6.565433042935324703e-01,-7.219688984663606979e-01
6.503151073125321147e-02,-4.832396621852870777e-01,-1.509606661310942011e+00
1.779567620003991379e+00,-4.480051344712231987e-01,-4.371016985348269990e-01
2.020244493075632475e-01,-6.653702529619632822e-01,-1.631678460349341497e+00
1.476824915741358435e+00,4.182001817168203295e-01,-1.080913515237900580e+00
2.495362593215233182e-01,-1.169417664562868664e+00,-1.191381019520091566e+00
1.192652173788821546e-01,-1.156833390535886297e+00,-4.864623558331759301e-01
4.908121315135419160e-01,-1.133086732723484369e+00,-1.033733509636365622e-01
5.353515511805054805e-01,-9.565121631599581287e-01,2.130300106588975673e-01
4.112802202950861519e-01,-1.292406477231907713e+00,-6.490719400773142800e-01
1.410029880011015591e+00,3.673703703616364447e-01,-5.483781371013285444e-01
-2.987189165087134057e-01,-9.272374419928584022e-01,-3.281671331744795417e-01
1.585764739111227284e+00,-2.440982506117141404e-01,-2.411691400842236599e-01
-4.688900215536105365e-01,-6.184874473200766554e-01,-7.304997420257794971e-01
1.377270711972729877e+00,3.587862071418009835e-01,-1.666066318786676215e+00
7.708304005075927723e-01,-1.201193183449373203e+00,-2.789655338039401244e-01
1.682885050426469187e+00,3.178840667490818728e-01,-1.417514986660058263e+00
1.144644930737966471e+00,-1.443685693888797195e+00,-7.990034104511993807e-01
1.541457848624569582e+00,3.104138671190759813e-01,-6.809729854716712882e-01
1.364912407179725173e+00,1.961519257449521603e-01,-1.828403559434405579e-01
1.236543911261856810e+00,3.240833591511459444e-01,-1.739061971823823605e+00
1.828786264013197160e-01,2.756004249695077069e-01,-1.356753027880917895e+00
3.268701461907716488e-01,-7.570645589640051520e-01,-1.774211080080111858e+00
6.720352137786533842e-01,-1.338872529792616728e+00,-6.478988174565250002e-01
1.373566217070006479e+00,-1.822498415664433047e-01,-2.593381161027474846e-03
9.735883683193446991e-01,-7.518855370533437943e-02,4.366137657596685928e-01
3.569980327273526433e-01,7.973101338297865492e-01,-6.565671601742475438e-01
1.062545920005334710e-01,-1.144683683386632955e+00,-3.913257221632504002e-01
6.163239076721139797e-01,-1.326488194731627157e+00,-6.070100602751592467e-01
4.961196414643588293e-01,-5.667952753941893906e-01,-1.978238675128971780e+00
-3.530720125034960133e-01,-7.424270423532206564e-01,-7.738771170966707302e-01
7.395858561704033995e-01,7.392929035394568693e-01,-2.464447715295713937e-01
-3.530861229207378771e-01,-9.322478048945670448e-01,6.061260230646665914e-02
1.316233938559474848e-01,-1.099442097557173259e+00,-1.055170910189906497e+00
1.669576236130128732e+00,-5.704763148780799265e-01,-3.107027038607816372e-01
6.809801051988887410e-01,-1.305869931487919411e+00,-5.537743431318473686e-01
9.607939641265886288e-02,5.108765970349052887e-01,-1.075461531620605982e+00
9.749884374560181532e-01,-6.611973707008749201e-01,2.475379251308250095e-01
6.788870193265239550e-02,-1.013869711279348440e+00,1.140164155316486100e-01
9.816575392619651952e-01,-1.009654543894918488e+00,-7.623114257595961507e-02
1.691978534471024309e+00,1.856763746252285685e-01,-7.656945716320809892e-01
1.519934463614196485e+00,-1.062993052750751621e+00,-4.226742625717226365e-01
8.577700665135253866e-01,6.464555268457935489e-01,-1.063044183106200691e-01
1.279570411753721437e+00,4.122012127247464131e-01,-3.524012204984841024e-01
5.321908735641875943e-01,8.540633093173430890e-01,4.740790269756623224e-03
8.226960162018139011e-02,9.397517280289932051e-01,-3.925667068806810156e-01
1.486809458861117816e+00,2.764351479950441504e-01,-5.467796848309798285e-01
4.234536408949188258e-01,6.131609088232795601e-01,-1.071781758559069209e+00
1.326237780128748101e-01,-2.675619398486719924e-01,-1.572631206810189086e+00
1.001783889701197694e+00,5.721000456405338913e-02,3.591427921020821645e-01
-3.356899039052700373e-01,5.763199237787612894e-01,-7.333250735450278501e-01
2.758433847435421971e-01,9.145655554042231294e-01,-2.840270832324912065e-01
4.190559525819941289e-01,-5.105431401187410234e-01,-1.901483962532885874e+00
-1.629924325063868973e-01,-9.824801382311845188e-01,2.107725667130690428e-01
9.398347884271972541e-01,-1.960244098343196240e-01,4.621860603133102208e-01
3.544939497914877391e-01,9.260139693342769318e-01,-9.427836529865361859e-02
1.486162425716189395e+00,-1.197278761400749847e+00,-5.381481955790106131e-01
6.995182863772333448e-01,4.469793700361685551e-01,-1.410253202312108378e+00
1.284815728561478965e+00,-2.440265680938824844e-01,7.778186801431535846e-02
8.037482319548598930e-01,-9.409888370033956395e-01,1.003887005888881578e-01
7.722845556415683932e-01,7.504183311241998666e-01,-2.796233919240352361e-01
1.031593667728553765e+00,6.262401907568525550e-01,-6.894921542002405701e-01
1.168635876898612702e+00,-1.002367125990753616e+00,-1.684100873366966566e-01
1.891854164821585582e-01,-9.415657711577750666e-01,-1.469810938084441743e+00
8.590266864653933743e-02,-9.181323459316540481e-01,-1.258265344699660560e+00
-5.312590375929452380e-01,-3.145966619107427586e-01,-8.506195029295597898e-01
8.764601849060261740e-01,-1.282494734039372863e+00,-4.233803603750725952e-01
1.100237260802918726e+00,-1.556172956902633464e+00,-1.128414603977512254e+00
-1.982536867611504050e-01,-1.017265647452838095e+00,-4.420919188788443033e-01
1.447888016089630581e+00,-1.039981156522141736e+00,-3.695197252349122774e-01
2.508927073759064097e-01,-1.198188566506973585e+00,-8.230421365274133150e-01
7.240200850637792396e-01,5.901803696254849241e-01,-1.183555496205299873e+00
-1.073016758677046850e-01,-8.282207446515469362e-01,-1.131554807108923422e+00
-1.284018152750110442e-01,-9.938608916783725489e-01,8.731934380415753982e-02
-4.460418652380671034e-01,-7.312316599957644492e-01,-6.199508032112215350e-01
-3.704020510238056341e-01,-7.395650264717625877e-01,-7.220237485711250569e-01
1.573656408559127584e+00,3.715648722674178561e-01,-1.155138946079512952e+00
2.538804820873132306e-01,-8.707444610068885982e-02,-1.645279981150286508e+00
1.201355069090603411e+00,-1.143160478329475094e+00,-3.128360206201487026e-01
2.656460619380641153e-01,3.653656880917974803e-01,-1.323581760189621592e+00
-7.374397342528189458e-01,-1.940111008102233803e-01,-6.767935431038626382e-01
-2.192414900867953667e-02,-1.072077674559828608e+00,-2.918831631498196577e-01
6.024266852983629628e-01,-1.165432485027682041e+00,-1.587544415394869790e-01
2.657528421168087185e-01,-1.213762238498792945e+00,-1.053184865328066877e+00
1.268071833484100575e+00,4.979293694576104046e-01,-8.228015004124932252e-01
-1.251422426479839034e-01,-8.727403418604628982e-01,-1.011484555163212562e+00
-5.574951266983543263e-01,3.706797847469411877e-01,-7.357584929689011677e-01
4.037160383839836775e-01,3.671924394176027673e-01,-1.402194110421879136e+00
2.411791335618177767e-01,-1.169858343813476420e+00,-3.522821114695373623e-01
1.038307009146321569e+00,-1.283701764479906693e+00,-4.627290900196275869e-01
-6.201368442856352026e-01,1.404070438666354115e-01,-7.715079871107813902e-01
-5.615957196379221111e-02,7.585068820655423982e-01,-6.678302061720544636e-01
-5.450571857444772572e-01,-1.643081281156525686e-01,-8.866378820972607988e-01
-2.829966004039903837e-01,-9.436903954807707162e-01,1.077438669967075574e-01
8.667820444964602355e-02,8.971631193789927350e-01,-4.252671679661363946e-01
5.281723826158967183e-01,-1.302615138305713571e-01,-1.910179679212119952e+00
1.352358171305072965e+00,-1.276830386671205186e+00,-5.547892802863881867e-01
-2.513884859908052660e-01,-9.713338569238306741e-01,-3.545589371596306189e-02
5.268121512371288784e-01,2.038355694558294795e-01,-1.633489366347150584e+00
-3.813066263595411565e-01,3.920279534551713296e-01,-8.670416885165121990e-01
1.157840696506457379e+00,4.062886802338511183e-01,-1.099093119633398480e-01
6.558726033782615872e-01,5.236134243944885469e-01,-1.258618776815608964e+00
4.588945438199130700e-01,-9.593146139804714645e-01,-1.824413586795136322e+00
1.202541849630618831e+00,-1.355879084307339832e+00,-6.486034402005202981e-01
