2.030731551143671182e-02,-8.432368583244505278e-02,3.215621772400642508e-02
-2.252070718238410180e-02,1.058197711819436893e-01,-2.580519988743867205e-02
2.819052773579154569e-02,-1.970751671420367390e-01,9.350561194353547434e-03
1.250627797846787792e-01,-4.627734660897998564e-01,4.715612912425512504e-02
-3.968676841191687288e-02,1.278320416741162979e-01,-2.231849672498384743e-02
4.609887088379072823e-02,-1.619984474155630738e-01,2.536835251101681940e-02
-1.081038123943406509e-01,4.409821493131185211e-01,-4.813743752723839697e-02
1.628754028507427981e-02,-8.288813035558379935e-03,-1.488613051061230506e-02
-9.819684952273789735e-02,4.491512332768253235e-01,-3.097021124964165206e-02
7.677928199624049765e-02,-2.465241478826827592e-01,3.114829542827854056e-02
-8.906958578763121692e-02,3.344225904483177358e-01,-3.486574375418396987e-02
-9.450044243183743087e-02,3.975578891190280073e-01,-4.089932986608827564e-02
8.497172789937601500e-02,-3.417038508424265486e-01,3.854475259181931734e-02
-1.004369040121908252e-01,4.209321201067201534e-01,-5.073013047093690581e-02
8.739198972430477219e-02,-3.776829201533543623e-01,4.519569554402026040e-02
-7.355994787992342632e-02,3.294643918075316757e-01,-1.441078670784764169e-02
4.892156353301820720e-02,-2.582588745793774621e-01,2.224885047780274239e-02
4.048058439402407033e-02,-2.240011026915796621e-01,1.936822264103519112e-02
1.180931094333900616e-01,-4.649408824384240746e-01,5.597465497638454829e-02
-1.049571774941851776e-01,4.475267882537672937e-01,-5.177612329235321137e-02
-4.996605843426353555e-02,1.839107375291763602e-01,-2.526249871680720169e-03
3.001987760721267634e-02,-9.610716949484277016e-02,1.867679212880775722e-02
2.267855032131424822e-02,-5.827891539558834044e-02,1.564492209229283518e-02
-2.579163939290021051e-02,4.574421580522392700e-02,5.401222849309109814e-03
9.138584172110407466e-02,-3.538857821160362183e-01,4.059282848309756636e-02
5.789698782070040739e-02,-1.983069633420177780e-01,3.593071527283959316e-02
-6.817155372593654283e-02,3.295216892452001445e-01,-3.736083697161160511e-02
9.752777347087684956e-02,-3.753470962523359766e-01,3.174621564493405879e-02
9.153729293784480803e-02,-3.176768744940666744e-01,3.769081190906684725e-02
-6.988364233547325610e-02,3.032379127495778426e-01,-3.131076989508581321e-02
1.996629722626509437e-02,-8.305265440877281080e-02,1.012469114218180616e-02
-3.981112718495145170e-02,1.148881746988980324e-01,-4.833791762355964423e-03
9.853307652902398850e-02,-3.580628596299285094e-01,3.613160413202864962e-02
1.021254670140316345e-01,-3.651947840993591821e-01,4.957325480366450710e-02
-3.273608485998902307e-02,1.428611668537631274e-01,-9.943076405002844106e-03
1.126319863113153102e-01,-4.680963245634547909e-01,5.666981830273535442e-02
-7.541247306626790159e-02,2.048204311842551639e-01,-5.230493143294230769e-03
-9.891606520911537526e-02,4.266856874862706150e-01,-5.676593876776822589e-02
2.959295023861719526e-02,-8.736061447321530338e-02,3.355266792001178593e-03
-1.496870357011923780e-01,4.609055067531778183e-01,-4.220672306548341884e-02
-7.127588655508544646e-02,2.288662564931540355e-01,-1.649202090173467264e-02
-6.609934119428444166e-02,2.256774919432529003e-01,-2.945647461497041125e-02
9.868767941211932515e-02,-3.521733269785815024e-01,4.493765670443543997e-02
-1.760108175661960830e-02,8.302379620525827952e-02,4.994220651483849242e-03
9.206407719170343895e-02,-3.648263028726744239e-01,3.847540994295527844e-02
-2.413763628123042834e-02,8.788140391126467166e-02,-5.486698212401274442e-03
-1.217983997313545480e-01,4.183771463339432950e-01,-3.787219838675309064e-02
1.268331178042857443e-01,-4.441546205204173758e-01,2.341754606724203228e-02
8.858563290011452207e-02,-3.233470628926425894e-01,2.712689983243011735e-02
4.041972700280459241e-02,-1.392588947875390837e-01,2.610724618748570119e-02
-1.242466268343212082e-01,4.434805605123957606e-01,-5.405511389885063467e-02
-2.511818364823005870e-03,7.596930843809098985e-03,5.077485340650387743e-03
-9.431262756608334297e-02,3.558667265904586485e-01,-4.019714473983009018e-02
-1.098864345144465043e-01,3.675186621382544594e-01,-4.633993031463274487e-02
5.789158801218135218e-03,3.659203892858301811e-03,-6.811562317216297673e-03
5.883265245494771756e-02,-2.170273562211533502e-01,3.051276737104888573e-02
7.203710659140315220e-02,-2.801510199023783398e-01,4.649918805597887117e-02
-3.638431443061424658e-02,1.583179264486326565e-01,-3.380778680653975972e-03
-9.447170770410748264e-02,3.873903662122649694e-01,-3.341993912844166970e-02
3.978697192400269117e-02,-1.785792586104859025e-01,2.097854050507998863e-02
7.399776234795701901e-02,-2.510533007217974344e-01,1.227713407010754508e-02
2.051847494435379143e-02,-1.040561772107447824e-01,1.158827555630756283e-02
9.374301547018160097e-02,-3.906349144070754287e-01,4.644148823842061263e-02
6.153959717160652210e-02,-2.138955886475335799e-01,6.743043534900458776e-03
-1.018290499190393009e-02,1.270659670303343064e-02,-4.182497692753557941e-03
5.037073140085756781e-03,-1.014806027261650617e-02,3.851611276406313646e-03
3.958651182126720377e-04,6.931704003291896954e-02,4.946160291816649630e-03
-6.358500531432217939e-02,2.241119913991455881e-01,-3.809739439883231410e-02
4.435084235964733418e-02,-1.816200048273949597e-01,2.849305038104785540e-02
1.693107428249593024e-02,-4.035682155270250288e-02,1.032279387714558731e-02
-5.358149757688682180e-02,2.358851036081253127e-01,-3.237848043331090220e-02
-2.641291673255284980e-02,6.835233662035265778e-02,-6.774232035602806984e-03
9.565563975442345837e-03,-1.343928148221507080e-01,2.441808557642272115e-02
3.595428424355989055e-02,-1.638588514425291243e-01,2.764995582931437188e-03
3.706052618368309293e-02,-1.644953229372506931e-01,1.006221948033305703e-02
-3.458826196554957988e-02,2.239113086563542798e-01,-1.650415138520928970e-02
-8.351278494662724150e-02,3.737152518189039152e-01,-5.566888970951185123e-02
2.036776740391279400e-02,-7.949460779684354439e-02,4.191088092027081199e-03
1.190740040077008094e-01,-4.192130469814255855e-01,3.783965450746416131e-02
-6.534629791500733142e-02,2.798519426929809706e-01,-2.254249174561990046e-02
4.213635328436232674e-02,-1.971627430575963458e-01,1.826706868499171355e-02
-9.388362756733312220e-02,3.574383584438100558e-01,-4.228973583316283924e-02
9.805053869461589910e-02,-3.661024893023841487e-01,4.424435460969074890e-02
1.057419669221614095e-01,-3.663596343807277167e-01,3.468172744945305364e-02
-8.490601063920098779e-02,3.628295060257295535e-01,-2.951260692270669950e-02
-1.499163323848608058e-02,2.772560866667799981e-02,-1.803706836881616843e-02
-1.062132004366765498e-01,4.625317500638478352e-01,-6.579980118928600852e-02
-8.441942209872588254e-02,3.573200541801317409e-01,-3.216057676777627633e-02
7.212646029434156836e-02,-2.933037128598631194e-01,2.904198834098924153e-02
-5.516576992112563749e-02,2.022883607156958363e-01,-2.878628254538516396e-02
1.000043574643338581e-02,-9.302846155079609602e-02,-5.850721938500661650e-04
-2.233413215887194991e-02,1.282373630924712737e-01,-6.045118422839998625e-03
-3.224186922118204689e-03,3.573001447406585346e-02,-4.479338453033149432e-03
-5.863431504935944644e-02,1.796696773373506195e-01,-2.360975399936694752e-02
8.908691059323796402e-02,-3.775716217992075019e-01,3.056322429330412399e-02
-9.162534611000698603e-02,3.076195090215845251e-01,-6.249758726839048373e-03
1.018577725096142805e-01,-3.402317770471777192e-01,3.000740991577381320e-02
-7.942748240458527564e-02,2.766810441647725161e-01,-4.891796337536474804e-02
2.826399129241395983e-02,-1.783826163959058575e-01,1.130023880214101918e-02
-4.960305689404837654e-02,1.139839965907519098e-01,-1.200651772569225582e-02
6.069257777462008785e-02,-2.383890964268686463e-01,1.461147082465406692e-02
1.323863103651260094e-02,1.232301467635657510e-02,-1.163008166111818842e-03
5.465342702497163335e-02,-1.533823401542922238e-01,2.376773070532161442e-02
9.292843603899718363e-02,-3.149383766326900869e-01,4.274499385263504092e-02
1.248229289397622954e-01,-4.449333439164749882e-01,5.249867230848981325e-02
1.089522965480725081e-01,-4.831093334327571931e-01,6.338638737196801431e-02
1.387276379339064392e-01,-4.772574552868171227e-01,2.668197219519582650e-02
2.108259486771851127e-02,-4.265587693143721437e-02,-8.519987337284689460e-03
-8.737145963879178190e-02,3.919773900858212201e-01,-3.681861264291836494e-02
-1.043734388425062998e-01,4.057053482876359918e-01,-1.750621423394667017e-02
-5.164296254354140692e-02,1.938811663793634232e-01,-1.628057947990091403e-02
-2.544831749247887694e-03,-9.199343913090443983e-03,5.809603024982673038e-03
3.323089845398679437e-02,-1.612706540343096795e-01,4.900942102625415256e-03
-5.512746697277322999e-02,1.694760302540354591e-01,-2.403547124103009788e-02
5.493891022027271726e-02,-2.414451800067821674e-01,3.448549464753740412e-02
7.832529063297033467e-02,-3.246683022192266010e-01,3.867018061483122604e-02
5.929822336808896616e-02,-2.178627047253182403e-01,2.260544818158618033e-02
-2.034612044855611812e-02,6.972199977849219410e-02,-5.978188342369713040e-03
-2.966409948980304120e-02,9.621148887813676942e-02,-1.765130873826313215e-02
5.483496476151768217e-02,-1.916329222229250229e-01,1.304993990356204114e-02
-8.356603201687023974e-02,3.711791858628387675e-01,-3.591141091691896214e-02
4.748642927387649454e-02,-1.982906823943646757e-01,4.048393292665514176e-02
-1.392278401085466633e-01,4.477509281456637513e-01,-6.306899200653827420e-02
3.480956566156148679e-02,-1.508412714677883348e-01,2.743078553787126062e-02
7.451063396758364488e-02,-3.275751258152009848e-01,4.513063095608502162e-02
1.977532334377470405e-02,-1.463265857511245049e-01,8.325276062280277667e-03
-7.991414010858391426e-02,2.626518801823702898e-01,-3.723104754776141584e-02
-6.383579417549652135e-02,2.490346106084205258e-01,-1.517909882525769229e-02
8.537588173920383772e-02,-2.721773563716426980e-01,7.234706286112669617e-03
-3.302633427370152853e-03,6.093725659771481729e-02,-3.858591258389634099e-03
2.082115561683521576e-02,-1.157922595745846800e-01,1.912536654833415367e-02
-1.019448879157670990e-01,3.840769814100812862e-01,-4.391937556979368107e-02
-2.821760438472637259e-02,9.420009654609748373e-02,-6.903612659346583351e-03
2.054227321732415845e-02,-1.206203771205786174e-01,1.589071499418194880e-02
-4.935717060783420540e-02,1.857772069517626412e-01,-2.596408366676864962e-02
-5.185339917902832829e-02,2.169050763175279228e-01,-2.895217138508253060e-02
8.116486593151626960e-02,-3.692550668578409301e-01,5.159353389507492088e-02
-5.181287367285065254e-02,2.579959335514824259e-01,-5.628558112033923456e-03
-2.825784887337581819e-02,9.905851687716843434e-02,2.814849906532513896e-03
-7.674253527524854679e-02,3.886167772506631812e-01,-3.104786229209856308e-02
-3.181156625021044904e-02,1.599233661927680628e-01,-7.393207642038374452e-03
-3.909974176346638075e-02,9.975571381793987835e-02,-1.414031443435311182e-02
-4.480269901364426766e-02,1.820693317968891667e-01,-2.359141773388246169e-02
8.114469812928427894e-02,-2.992507770596928851e-01,3.319874097438184346e-02
9.167525047637120963e-03,-5.516006689866222862e-02,1.338006131025342924e-02
2.669963081502878689e-03,-4.518907660412957439e-02,-1.086391183989563738e-03
1.020252845195314534e-01,-4.062279319156881230e-01,3.180934763250636843e-02
-9.731211246559230699e-02,3.122409361384103077e-01,-3.777652273225078766e-02
7.561364869228327790e-02,-3.334672635929054607e-01,2.432719487477574480e-02
-2.015124338520898895e-02,1.190599788505453949e-01,-1.641342784493305187e-02
8.543566750279360522e-02,-3.772304016229245938e-01,3.394436385483038526e-02
-1.299963585245685581e-02,8.578060392191918029e-03,1.072582116872427063e-02
8.206968167666491010e-02,-3.778203036083234712e-01,3.479402415678554267e-02
-9.874003168341073666e-02,4.058793988947388964e-01,-4.752655560237008942e-02
1.003070000353709773e-01,-4.330081415322538096e-01,3.849734960202811501e-02
4.917911849573088773e-02,-2.456378158327796601e-01,1.696304496114946561e-02
8.936829793472229888e-02,-2.605367843065988231e-01,3.285446468757520500e-02
1.223150726646267950e-01,-4.744376862431032849e-01,4.068730179259423541e-02
3.262289868822513400e-02,-1.521668662348355516e-01,1.020126172054084020e-02
5.330485729947508078e-02,-2.008763918654623559e-01,3.247525850129854424e-02
-4.593173875244970991e-03,3.052001621549715535e-02,-2.181368174751850339e-02
-7.641725435785833020e-02,2.932756876728219164e-01,-3.139192567940404105e-02
6.209370813414326340e-02,-2.375796898944293190e-01,1.456324919525252976e-02
4.513881740654183961e-02,-2.351373721466445965e-01,1.225780528392480043e-02
4.691146420572693543e-02,-2.011763532734801851e-01,3.916565239929561265e-02
-1.205076895979697443e-01,4.664947783699252004e-01,-6.025926401232998414e-02
3.340980698424101530e-02,-2.278050006811211670e-01,4.315803960606156425e-02
1.200132937628173649e-02,-7.302816791582736333e-02,-2.522853387729117290e-03
-2.725882086491416244e-03,-3.650198759884205196e-02,-7.783091075168223003e-04
-3.085301007461904374e-02,1.369670926850451720e-01,-2.045608222859714859e-02
9.321050308406114704e-02,-3.417896864540831414e-01,3.792882052199059162e-02
-9.183234224481230668e-03,2.404111651081826048e-02,-3.721370111745824719e-03
5.683852524069910039e-02,-2.645486189233778873e-01,2.255098696352919596e-02
6.984738320872981021e-02,-2.476744454565632803e-01,1.535256103377266763e-02
-7.316646778672600271e-02,2.738754839155709275e-01,-3.120797351546402906e-02
1.338774708093790934e-02,1.548116763530495502e-02,-2.721888827482724267e-03
-1.094354078612826964e-01,4.062422998612868486e-01,-4.768606979224795234e-02
-9.023759580222502630e-02,3.326228772810744805e-01,-2.905971810865531219e-02
9.618315465323838687e-02,-3.459974812438237346e-01,3.042204056633845619e-02
3.847668096109120583e-02,-1.350937675623711809e-01,1.901345693002719217e-02
-1.257400094870642082e-01,3.931817043403991185e-01,-4.737831260375073572e-02
4.257577641681276927e-03,-2.389029274802449351e-02,1.776741159954255004e-03
8.019713629441221903e-02,-3.611020368540027725e-01,4.978973456779602069e-02
6.026116660587979568e-02,-1.888681369378908959e-01,3.377732472307303641e-02
2.669067684923375275e-02,-4.971663362872856540e-02,2.517136249550907395e-02
-2.054038675831361058e-02,5.346833105601759423e-02,4.547891566116611141e-03
6.639722196567932055e-02,-2.071209211747238321e-01,1.359359788905827558e-02
-2.360988267846704861e-02,5.165808198745465429e-02,-1.599497151003739445e-02
1.816032484949543432e-02,-5.053170970586979421e-02,-3.308746979924293615e-03
5.670543889078778071e-02,-2.440162857944661590e-01,3.278968529762186362e-02
-9.912681393302652522e-02,3.674601005791935937e-01,-2.816637514133414621e-02
7.034461729581753531e-02,-2.827987134459096774e-01,2.268537958537820282e-02
-4.467757383061656332e-03,-1.583088724225273011e-02,1.038863312374720994e-02
3.682908228616568053e-02,-1.570214703911502474e-01,4.042695952548113099e-03
9.959534008268241048e-03,-2.729130446757403392e-02,1.053558252658628406e-03
-7.146532813885593527e-02,2.552654374474339072e-01,-4.816917727630231662e-03
-9.454284690475966979e-02,3.452966525119563479e-01,-3.034578935230061378e-02
-1.229094166670550159e-01,4.301303838667658863e-01,-3.616090194313024975e-02
1.168095454063275140e-01,-4.612059009739686299e-01,5.244748338883027661e-02
9.297192468241806396e-02,-3.537982502348537839e-01,3.054572503054588800e-02
1.223478502204761176e-01,-4.956894963931893217e-01,4.907993887320463711e-02
8.072309281614398853e-04,3.396962210899889117e-02,3.535116895380751353e-03
1.260587899787729560e-01,-4.584223800163219620e-01,4.092429858735534970e-02
4.832955172350883455e-02,-2.620060901562886180e-01,2.034674654161155311e-02
4.017485578406414931e-02,-1.973316449558970564e-01,1.856817772398021080e-02
-5.088784042840952676e-02,2.317429542489574945e-01,-2.213076604223465638e-02
-2.153409407219591259e-02,5.357682228670333086e-02,-2.190970756468408297e-03
3.509209576627060016e-03,5.439872283853613294e-02,2.302243736235536770e-03
-4.205964686862748159e-02,1.227438153177227848e-01,-3.289069701819908112e-03
-3.807902061170820307e-03,-5.260979456647599251e-02,1.277712060206531025e-02
1.047189440124283166e-01,-3.549744715873237033e-01,3.635146819328547579e-02
1.903245495426336698e-02,-2.903415367093200791e-02,6.139390653565925983e-03
4.513087302061515385e-03,-5.089915040110772754e-02,7.801696018946697835e-03
6.236264277770299513e-02,-2.326032328331572030e-01,3.541258851895284776e-02
3.919558384427675873e-02,-1.506929043687045555e-01,1.522485234090760302e-02
2.858323152070618711e-02,-1.394260671108189242e-01,1.801650693242196760e-02
5.909677114868084127e-03,-4.127053516496906327e-02,7.374714682957155334e-03
5.089787503197982371e-02,-2.075832318748926653e-01,2.850659334412714713e-02
-5.944961633897537234e-02,1.946524139592346048e-01,-2.519012640676805345e-02
7.276659009470945461e-02,-2.050998562952272009e-01,3.264843430567767463e-02
1.095930964012991303e-02,-1.892723992995901106e-02,2.182511276724511534e-02
3.581501826147998058e-02,-1.452678725227894985e-01,1.909602310519052659e-02
-2.937652053164675411e-02,1.224076410810051724e-01,-7.100687885142550025e-03
-9.209824139936001464e-02,3.435910737225099654e-01,-3.765336208931999856e-02
7.823968235660096193e-02,-2.973960999357475599e-01,4.107823298651512578e-02
1.100223153520486913e-01,-4.255472258549592435e-01,5.941207055666236636e-02
7.687776532566881205e-02,-2.803309825283937240e-01,2.635333892597685468e-02
-7.613868102341002364e-02,2.752180595593481383e-01,-3.908422015638938346e-02
-7.148944924106699107e-03,6.000627789176175841e-02,-1.576836937431634264e-02
-1.081254366061732038e-02,2.641655292329346191e-02,-7.004947691094354570e-03
-3.672000596460166938e-02,1.678191500215176768e-01,-2.921680708426887055e-02
5.868117958313515126e-02,-2.350332080976769156e-01,2.889057943351355448e-02
3.497541021034635683e-02,-1.946218517834023831e-01,-5.227681116750442294e-03
-1.045910111022982786e-01,4.119679066379665078e-01,-3.107990530107686972e-02
-1.094418142941863542e-01,4.187508367509391038e-01,-5.390089067189918898e-02
3.046574308413479981e-02,-1.086623758912349802e-01,5.272643775589182756e-03
-3.768111829841205157e-02,1.443382103272200234e-01,-2.273124625370575441e-02
7.773272124424676632e-02,-3.173680174352401240e-01,3.420184402994529832e-02
9.996517957487276174e-02,-4.011112396118472478e-01,3.816099187554318484e-02
7.094727192592154008e-02,-2.836390333209587999e-01,3.944972486031483871e-02
-9.754558857295424212e-02,3.473595404804502018e-01,-3.964498334137312591e-02
-1.358889456691154095e-02,8.328840115734136018e-02,-2.886198810637947976e-02
1.650842843272262717e-02,-2.554604919945217129e-02,-5.620475966432018390e-03
5.225496556850094815e-02,-2.169858986176206317e-01,2.835548993140129398e-02
9.826094928481836355e-02,-3.506130360234617771e-01,2.612634896303970763e-02
-1.235003119392019504e-02,9.784332630811992670e-02,-1.825128431453103359e-03
-3.731889936205647074e-02,2.154901539226610763e-01,-5.154199156225853368e-03
-6.709290923816663144e-02,2.333227424099852121e-01,-1.166809863940955656e-02
-6.561848027806922723e-02,2.680198303327077092e-01,-3.407930572242781619e-02
-4.826860498275724332e-02,2.211045440140603224e-01,-6.174077385725962493e-03
9.868018791875576845e-02,-3.113368908047564609e-01,5.027985105248119341e-02
1.945612363507140397e-02,-9.429201769152677215e-03,-4.275623787653761755e-03
-8.543515956317128401e-02,3.346451240626699408e-01,-1.407116275597074771e-02
-2.634960435206976093e-02,1.209543630035268824e-01,-1.280802482659266703e-02
8.669056281133614983e-02,-3.090312553644051219e-01,3.073661577922146351e-02
9.159236641465849649e-02,-3.641396106422439827e-01,4.254439946424083685e-02
6.001297476734365581e-03,-6.566686620703264532e-02,1.080186991082610244e-02
-5.627593673121521894e-02,2.339676890649638741e-01,-1.852654679127973061e-02
-9.975821065592115067e-02,3.904869716330008345e-01,-5.765553377324780793e-02
-1.072296075930072312e-02,9.837588598149894781e-02,-1.684486710280413968e-02
-5.544945597107341778e-02,2.522924060422616632e-01,-2.106138444042819635e-02
-3.888436460422461244e-02,1.111748476879806102e-01,-1.943106262438094043e-03
-8.025256822210065366e-02,3.102600744815479095e-01,-3.265141266049534363e-02
-6.171583017366726043e-02,2.246880765670459246e-01,-2.387975917913774324e-02
-3.466057830412760249e-02,1.515457136888916090e-01,-4.616635062932617460e-03
-6.545064855376563073e-02,2.223468609562676279e-01,-2.979336631844751310e-02
9.254346546498572190e-02,-3.883895040351310612e-01,3.537710394245568296e-02
-5.812681010594900749e-02,1.759885572472819626e-01,-2.024456833473887302e-02
1.081007416480689598e-01,-3.987254389380391895e-01,4.672946112005833819e-02
4.039577362815064548e-02,-1.416510523052523229e-01,1.452278881696614753e-02
-4.312108742810979306e-02,1.982303764615133412e-01,-3.894278934462844233e-02
-4.130994111100587396e-02,2.061044918502332457e-01,-2.628677136564980948e-02
5.900014437507106885e-02,-2.182320024858222518e-01,-4.051374350975676421e-03
-7.494424803550897574e-02,3.400097166227042944e-01,-5.071957244043862750e-02
3.078732028798925047e-02,-1.334607023342682108e-01,4.110307927485091876e-03
2.139815144062046787e-02,-5.749011574350031128e-02,-1.923548562631551342e-02
1.036844523333276119e-01,-3.739994089362617125e-01,3.029508103284167531e-02
-1.976551607046737186e-02,9.278397717029869540e-02,9.450424028176262342e-03
1.792806756121679418e-02,-5.142612856309040220e-02,1.272183157534506094e-02
-9.056150876606226807e-02,3.266174171671543669e-01,-1.444270039257565356e-02
1.003066348170009586e-01,-3.536396224084054074e-01,3.659140358803337351e-02
-1.069300169637587145e-01,4.062576651704745134e-01,-2.774455724553849187e-02
5.305945477780421582e-02,-1.371556655748877585e-01,1.487864980184183672e-02
3.391148494504384742e-02,-1.587202232289125770e-01,9.453453713449183962e-03
8.520185738635914149e-03,3.864975285428443041e-02,-1.988934240795248859e-02
-1.080306906204181877e-01,4.260182892768316076e-01,-2.464396009000815319e-02
-1.049631853728292125e-01,4.177349097907654962e-01,-3.089603296960503204e-02
2.312569398614706603e-02,-1.754359688909234438e-01,9.027701879300986795e-04
-9.170533385829607309e-02,3.366207407713689426e-01,-4.382691295131763143e-02
5.271609366708503858e-02,-1.354955286512376234e-01,1.569961288846474096e-02
-4.005730038427575239e-03,3.307793505472114010e-02,7.953277523569468946e-03
1.186956712417404358e-01,-4.642848086225599968e-01,5.009085011540916066e-02
8.694282382739655646e-02,-2.976978776821455619e-01,3.331463791707712369e-02
1.042515075888266474e-01,-3.986541194597532090e-01,2.398908095041215813e-02
-1.048343734591723579e-02,4.224988809842654403e-02,2.255069038504547811e-03
6.324558865365527416e-02,-2.932610564209271464e-01,3.970913561915012657e-02
3.579224011831406982e-02,-1.150615562630534494e-01,2.195948761292398216e-02
2.471765005466464854e-02,-9.370999325353468468e-02,1.277487361812693935e-02
-6.510519840623260439e-03,1.947254872586131128e-02,-3.157809503331043214e-03
4.584112441518125441e-02,-7.588818895505158868e-02,1.291829161421337129e-02
9.935781878127432354e-02,-4.081858225963384545e-01,4.333457069813860529e-02
5.458587859061720532e-02,-2.220345123689192457e-01,3.329297076742251255e-02
4.408620622234161318e-02,-1.664317137946924319e-01,1.850643011005627392e-02
-8.646350615108359949e-02,2.729627801371884988e-01,-3.427295015848876719e-02
-1.064176792800362592e-01,4.119498997398707285e-01,-5.224869255774051979e-02
9.358006177000847969e-02,-3.490355926102496897e-01,6.299678029867419871e-02
-4.461849751571353440e-02,9.068892574018892760e-02,-1.976114386822726277e-02
-7.570988551937905819e-02,2.648096194410470838e-01,-2.547732734384864847e-02
1.095619243833197975e-01,-3.937611728258605948e-01,5.855897424965846726e-02
4.015195378908764656e-02,-1.350355077892548272e-01,3.796336820889557265e-03
9.956939643476414581e-02,-3.942221684127478198e-01,4.895852333936791256e-02
-4.259265410196148849e-02,1.305107784091605605e-01,-2.509304180189398520e-02
-9.709720895285085460e-03,7.019081724956301171e-02,-2.049782641577232306e-02
-7.143372550377539987e-02,2.768294816026715677e-01,-4.078453396680053328e-02
7.476032132195997715e-02,-3.361365394197038947e-01,2.718374030574959369e-02
1.057071879923041358e-01,-4.521762503236329556e-01,4.564395226918809001e-02
-6.484295332919133570e-02,1.159683831937634163e-01,-1.666292651866310010e-02
6.788910713136303565e-02,-2.579579683402760115e-01,1.512699971614206614e-02
1.012832990038931430e-01,-3.941229215301459976e-01,3.403976711267076710e-02
-1.065543763421485657e-01,4.655061047068119739e-01,-5.410562115907260883e-02
-1.223472883802262934e-01,4.649725462415879584e-01,-2.987721902000072330e-02
5.372365201181603100e-02,-1.183470092072169966e-01,3.479553272607231740e-03
3.521856337120904401e-02,-9.204475688702656866e-02,8.260013641904942472e-03
3.229145483408045469e-02,-1.459549438042953007e-01,2.626423669500760338e-02
1.192164157298905569e-01,-4.366738376335681515e-01,4.216993546875916210e-02
5.347947726969180804e-02,-1.311364728502039390e-01,3.106169028926518763e-02
1.016837516101125050e-01,-3.788585483543597254e-01,3.193886318262410817e-02
8.195212716186084725e-03,-1.844341302345771719e-02,-2.217200568578562778e-02
-1.026920826607832377e-01,3.178764711570253310e-01,-3.906003064954907678e-02
1.320934677455430362e-01,-4.684998096911784371e-01,5.627322490024923296e-02
-1.387445248656133945e-01,4.691360939688289933e-01,-5.564086953229985255e-02
8.673840701573470868e-02,-2.806704810110666193e-01,2.426887364733282607e-02
8.091057570835355484e-02,-2.924475828236051123e-01,1.707765261836999629e-02
1.055805917607173343e-03,6.174398040678270166e-02,1.535562974529846962e-02
-8.698474742692136052e-02,3.950872649657553026e-01,-3.672169186699914684e-02
2.559932963612068790e-02,-1.264795734378160730e-01,2.331248624785607973e-03
9.368474954698795265e-02,-3.442199791326437386e-01,3.718709072775496643e-02
-6.633826414365120994e-02,2.244804981542843358e-01,-7.588310758280348255e-03
-5.552878813382317730e-02,2.755263944206620130e-01,-4.320878807244381975e-02
6.056094840847096178e-02,-2.237393483370453406e-01,2.474890336259957455e-02
5.610296409639997650e-02,-2.473592331205892725e-01,2.614326264153148810e-02
-3.617976585356356446e-03,8.419780501259242420e-03,-2.361677129498196848e-03
5.232807811141241411e-02,-1.777468610246519809e-01,7.065498693911149812e-03
-5.804039992457733776e-02,1.949257054583030113e-01,-1.643163189760823290e-02
6.468064750113311501e-02,-2.543372837286601573e-01,2.439040563857966873e-02
-4.918582432251294295e-02,1.274157357491007558e-01,-8.815350561191514708e-03
-4.920224723933673550e-02,2.158485048852635257e-01,-2.118752103939692752e-02
-9.914529428217937201e-02,3.771183805298912728e-01,-5.030514829359027107e-02
8.246970791559789238e-02,-3.697807956249146155e-01,5.166556985156903203e-02
-3.793272893874228419e-02,1.476409842655871663e-01,-2.027658589896476696e-02
-5.704773895460552025e-02,2.451801713213832556e-01,-1.813457473466528400e-02
9.344497154771137792e-02,-3.669381845533833397e-01,4.776557000931486163e-02
8.795412087174662996e-02,-4.117970150485443792e-01,5.965351165097231012e-02
1.272981381924539468e-01,-4.569201438929524905e-01,5.247121171677594786e-02
3.146710224733077071e-02,-1.555834842075319024e-01,2.403714149070602935e-02
-1.150869615091256321e-01,4.440125770642875946e-01,-3.743457522548548910e-02
-1.237101356715343548e-01,4.359323913004957696e-01,-4.439295048000434230e-02
1.658118981050479140e-02,-8.320751237354592766e-02,2.717087359826012363e-02
1.300531908520082269e-01,-4.722606778101144931e-01,4.886943988009592732e-02
7.786871671689822583e-02,-2.926129737958330090e-01,2.284666624730215603e-02
-2.822044752897033548e-02,7.922110720227129588e-02,-2.299979467648025425e-02
7.597551003131643166e-02,-2.641760525809366822e-01,2.002978741427192261e-02
1.050604005840752309e-02,-4.571436809757904729e-02,3.119201575409320283e-03
8.487636840325119003e-02,-3.347903515196155033e-01,4.696716645410513313e-02
8.449226365261267024e-02,-3.745282946292459170e-01,3.921956541700256926e-02
4.061665762724632478e-02,-1.184053859416658028e-01,2.886730860998817233e-02
-1.269115522858826547e-02,4.916271695001666470e-02,-3.574824322663246873e-02
3.093059320677416998e-02,-9.790925772269556959e-02,1.117173517699502315e-02
2.719893773846515650e-02,-9.664558327032538032e-02,-1.096323709999528009e-02
1.137217808180275916e-02,-8.585106916311696645e-02,-4.631819506112667961e-03
-5.337224837823848628e-02,1.769900420470544578e-01,-3.176554972436457236e-02
-9.712698623018470312e-02,4.056182702367575610e-01,-5.878444172821748609e-02
-9.467124391551944018e-02,3.790684036766794884e-01,-3.420805424608998335e-02
-6.494912172661092276e-02,3.106237499264042912e-01,-2.726587956079221456e-02
-7.940355470319444831e-02,2.318069026422394929e-01,-2.110086647329880230e-02
-1.402607745062328104e-01,4.655738631741025979e-01,-4.626528325474092013e-02
1.127994805050000909e-01,-4.394779658657355648e-01,5.459378842650594588e-02
4.989423561124813750e-02,-1.762614066544626046e-01,1.727652255851862620e-02
-6.111850276765204426e-02,1.819564405782259364e-01,-3.609311081461299975e-03
8.281506947738874469e-03,-4.056518995309866399e-02,4.905166344692568625e-03
-4.768230512738919069e-02,1.662026880562433029e-01,-1.105375879096265855e-02
3.443883936271557172e-02,-1.074708882189714526e-01,1.724994357555006269e-02
-1.962618466864380837e-02,4.261690197470043018e-02,-6.525056213913632899e-03
1.038552850597354166e-01,-4.000157284674854541e-01,4.517559772073007768e-02
-7.443439475621993484e-02,3.614570670639099537e-01,-4.486758045895320596e-02
-1.179104214228878234e-01,4.400847402233603600e-01,-2.767670335623570108e-02
1.003981306811509017e-01,-3.581123989187154355e-01,4.994662759165130472e-02
7.524715836626572063e-02,-2.957502926938553878e-01,3.782790053311725631e-02
-1.839647498107924856e-02,7.192288333448132454e-02,-1.323563834163927859e-02
7.964110425411552452e-02,-2.735358144540316894e-01,2.699781979640527435e-02
1.657797599902532601e-02,-6.102820829977412265e-02,4.993595932269725805e-03
4.869692172943693165e-02,-1.817790103228051346e-01,1.514602453758233033e-02
-1.209943220159302585e-01,4.076931974907900824e-01,-3.948825882699941170e-02
1.301606455019036213e-01,-4.471452874929093824e-01,2.286502572190177163e-02
1.027094838718917713e-01,-3.826035499576350141e-01,4.137376973901163435e-02
7.691231478890590834e-02,-2.645298317625787154e-01,1.573800398028983583e-02
5.403167117432938760e-02,-1.931864566823228713e-01,2.689582362583608013e-02
1.149519794145357904e-01,-4.180342893153133899e-01,5.627965970390641504e-02
-6.278713869909520288e-03,-3.197581905543736471e-03,6.523046298636875004e-03
8.007719590204309679e-02,-3.574909865494380057e-01,3.495868111321361049e-02
-7.336411822311054987e-02,3.079317348913650498e-01,-2.738263328196789345e-02
7.781418861383421204e-02,-2.403216481411126482e-01,1.437480874699545268e-02
1.159604580788311107e-01,-3.827929545633478869e-01,2.781495040840903030e-02
-4.980545572161665380e-02,2.363904706962463853e-01,-1.174304444588307982e-02
-1.042741127844100391e-01,3.882725497878043441e-01,-4.878485737402445815e-02
-2.842180221175872462e-02,1.315058717816546263e-01,-1.474689802051478565e-02
5.897580605855596084e-03,4.313989098152681834e-02,3.854599186342829516e-04
-1.148007994644243898e-02,5.690518993160673805e-02,-4.116632334098307457e-03
-9.189402580624486672e-02,3.777346661364396896e-01,-4.507974900255631856e-02
-1.852086458695323401e-02,-2.439220296299646467e-03,-5.326767311091558377e-03
-1.034812232250370417e-01,4.011557175756397808e-01,-4.291271255891082603e-02
9.332039650133451547e-02,-3.212854029379137999e-01,3.437304597853595850e-02
-8.231287854446837915e-02,2.611586034314704041e-01,-2.241866598358310467e-02
9.177401468396119422e-02,-3.711520561546013397e-01,3.669172354520881113e-02
-1.345037973274788579e-01,4.451518821826414563e-01,-2.715252402525760583e-02
-5.936903212010206932e-02,2.640483919745518215e-01,-3.389844615515449910e-02
-1.320276271688290357e-02,5.717288953324370371e-02,-1.901070845402423604e-02
1.225559321283597319e-01,-4.866267500857604511e-01,4.227638733506906832e-02
2.359580029748635163e-02,-1.274580040441648243e-01,6.408061927436865639e-03
-6.200417835086814711e-02,3.476453894850732307e-01,-4.430511061638051085e-02
4.698419683606816499e-02,-1.649322896696759078e-01,1.715083252523949900e-02
6.353209244393785704e-02,-1.926188336225533870e-01,3.606613996695043605e-03
4.496574266582184509e-02,-2.124041659985483610e-01,1.803114906108073054e-02
2.282003746614672327e-02,-5.977292695994653599e-02,5.554931130503815151e-03
9.966069908824806700e-02,-3.695159982871734083e-01,4.808764824120246445e-02
2.406056709738300936e-02,-5.731293697962879657e-02,1.578250070790821954e-02
-8.044240918071904334e-02,3.131328901553660504e-01,-2.927848497207195810e-02
-4.976469065916729745e-02,1.810067010963221645e-01,-2.660477977335217598e-02
3.786922332755495585e-02,-1.757423617956447581e-01,1.514634926494037512e-02
9.962800471869964758e-02,-4.194254636900437982e-01,5.320562319407051710e-02
4.208826373766839934e-02,-1.849111011543062288e-01,2.130186612651497821e-02
4.757393967212192321e-02,-1.606102830284303618e-01,2.929996845483370457e-02
1.151539706490145309e-01,-4.674427616187027956e-01,5.008429596600130762e-02
4.198702128563692321e-02,-1.136674952098319369e-01,1.545280806733188676e-02
-1.141432236481726425e-01,4.310864438816999211e-01,-4.979402413740581512e-02
1.218013903962126762e-02,-6.118031256357047559e-02,-6.773953926642283831e-03
-3.480940849202485751e-03,5.498821967932427529e-02,6.031358798798882627e-03
1.920125275704476220e-02,-1.055027255860933183e-01,7.183073548365910728e-03
8.528817317566964040e-02,-4.009965204399366656e-01,2.900415064134899065e-02
6.849964369919674112e-02,-2.818379784841066882e-01,4.201397189935227039e-02
6.065013577317617671e-02,-2.217455748292138928e-01,2.461341712694896725e-03
7.511788403785268908e-02,-2.977994471604151761e-01,3.629574897142407580e-02
-1.043270765317009519e-01,4.175307293399415087e-01,-5.132064530876630226e-02
9.176391112261939043e-02,-3.874007872309140899e-01,4.241577050228982626e-02
-7.665603280391308783e-02,3.323641955431850259e-01,-2.556326950862266786e-02
-9.973174297929147947e-02,4.247329938416555817e-01,-3.919133238058827851e-02
1.037685567622198823e-01,-3.795827332825231215e-01,3.443610428536938994e-02
3.222047865496671746e-03,-6.012619699249818761e-02,-4.549170866025058907e-03
1.060266719469700886e-01,-3.937227229110284443e-01,3.969264900465292040e-02
7.654962816962167585e-03,1.934514795669528900e-02,1.346466282822712107e-02
-6.369892250717243409e-02,2.182078081177758200e-01,-2.700752738235471032e-02
-1.011751414044511077e-01,4.108885860981217331e-01,-3.432726027818693015e-02
-1.777074089835069303e-03,4.737477230199416134e-02,-3.762456153847273423e-03
2.515000334576867821e-02,-7.120399691754966676e-02,-1.061612165514135356e-03
-9.198606474176757031e-02,3.683840210325486364e-01,-3.513338266224272366e-02
6.596898128961822816e-02,-2.498095085300676976e-01,3.547470139325364230e-02
-3.866032087287478436e-02,1.520097213614832465e-01,-1.722141794737311674e-02
8.514922380515901890e-02,-4.015708323819561221e-01,5.628931393229984897e-02
8.164347136185506199e-03,1.626980907793546677e-02,-7.259814859929132960e-03
-6.942143188115063035e-02,2.653775981525201555e-01,-3.349294561199469417e-02
4.954402332960179678e-02,-1.526730003910890254e-01,1.261877532005608107e-02
1.202971009464860186e-01,-4.081834722996657838e-01,4.434243306144735469e-02
-4.253001842968097412e-02,1.891178299070358781e-01,-1.743622693124462220e-02
-3.653593537802202890e-02,1.785031306797001116e-01,-9.975420579115407138e-03
-4.803653828728959851e-02,2.072869295132763190e-01,-1.475353965432305015e-02
4.383088495006726149e-02,-1.701664207182657373e-01,1.176827944349735644e-03
4.353776210998207274e-02,-1.861478022210769356e-01,2.205443967564430299e-02
-1.274877283493358882e-01,4.781401837047285497e-01,-3.594980052956515959e-02
2.832978041224374841e-02,-1.326940450233071722e-01,3.734948779977513653e-04
3.576445422819152925e-02,-1.179197518121287008e-01,-2.719741546635615591e-03
8.762702534829648268e-03,-2.739743111088193891e-02,-3.406548713541093093e-03
7.818527363336007230e-02,-3.053383886015609283e-01,2.189637734188020629e-02
8.068702727077385617e-02,-3.230721909532165426e-01,2.718075581482427144e-02
-9.797457673871726169e-02,3.754623282402268503e-01,-4.085935231719946964e-02
6.303948513288641642e-02,-2.412455099060267505e-01,3.583736634964379553e-02
-1.574693520803577274e-02,8.866316378722466363e-02,-1.412794802239172864e-02
-9.621880377867890466e-02,4.032972756566039485e-01,-5.621308337131643296e-02
1.140108511855142392e-02,-5.349750940065437638e-02,-8.764770380600776442e-03
8.862581170932513908e-02,-4.035242020006210573e-01,3.781575915106760721e-02
-4.340184402161156169e-02,1.755152060624373123e-01,-7.424914824796648855e-03
4.724893671679322726e-02,-1.970818794365810089e-01,2.117433355154729746e-02
-8.680329294012568975e-02,3.187349478401236835e-01,-1.821331419645462468e-02
-5.856624782121258761e-03,1.268008187133296862e-02,5.898419747199196844e-03
4.684517585364918191e-02,-2.430233574054383172e-01,1.541820654546941123e-02
-3.383300775262018667e-02,1.237740589968451821e-01,-2.473368258215214235e-02
-4.247761872635260477e-02,1.676653904068414469e-01,-1.510899300705876441e-02
-1.435478765706784711e-02,3.163686543535335072e-02,-2.532126711689039727e-03
1.347206008788365272e-02,-4.964375993515789814e-02,7.105830554547913278e-03
8.663307818204919741e-02,-4.280438905734014754e-01,4.408742637665035574e-02
1.103236487476271649e-01,-4.635530745138281006e-01,4.423231778750528337e-02
-4.767708771094457398e-02,1.585359553094191631e-01,-2.868573570442392237e-03
1.730388319477977948e-03,-2.122433641358216494e-02,-2.674258681493522308e-03
-8.462552959920494056e-02,3.429577374529598210e-01,-4.317825984008292345e-02
1.136259645796789675e-01,-4.666923638084816695e-01,4.214467554734917243e-02
-3.762005601345375788e-02,1.365950063206095300e-01,-1.934834783522332638e-02
9.044224325354489891e-02,-3.733061981606253799e-01,2.879397748454532585e-02
-1.059585579873822785e-02,4.281126712331142364e-02,-6.919797207944486600e-04
5.067399249523395210e-02,-2.009815856115990118e-01,1.280844748151448685e-02
8.908108768378476816e-02,-2.617138341489896325e-01,9.886857252591965337e-03
1.077899649686075156e-01,-4.593065170850598733e-01,6.224373266473922500e-02
