-5.706043659876060964e-03,-6.146979074165423440e-02,-6.888976183652009699e-02
1.555306272341374849e-02,8.085175387505871836e-02,7.477974793667573061e-02
-4.732531694614597328e-02,-1.628832950655271228e-01,-1.046427585515440767e-01
-1.329495109640033423e-01,-3.537823589820589532e-01,-2.986405034916455037e-01
3.356167109900541623e-02,9.400828441515050871e-02,9.192520033146293901e-02
-4.177690474761636824e-02,-1.213710075550807621e-01,-1.119639447577196328e-01
1.169107571102935977e-01,3.411651894962660636e-01,2.800126631182452974e-01
-2.312853018681308714e-02,-3.199327179693275958e-03,-3.228106046940561798e-03
1.239247877799648789e-01,3.555045216696735566e-01,2.657024419180958885e-01
-7.338802886491666011e-02,-1.832243808984444777e-01,-1.693589484052503702e-01
9.462806001471685269e-02,2.560674205376695101e-01,2.155515868628928855e-01
1.051820297845440094e-01,3.092226692145784162e-01,2.489446634461165708e-01
-9.051675867843003709e-02,-2.636466275221051037e-01,-2.185511069971613207e-01
1.063161636481889799e-01,3.259779104948369310e-01,2.688498517374375840e-01
-9.377873857744518926e-02,-2.936695643102653630e-01,-2.393493975924900208e-01
9.787396857852120879e-02,2.615558947787427480e-01,1.901965361301954649e-01
-6.297954900874286333e-02,-2.067802353369413426e-01,-1.512001577570602218e-01
-5.325441099264961731e-02,-1.801479216833341834e-01,-1.300038222176535807e-01
-1.223154836489267483e-01,-3.571033345294251649e-01,-3.012727992794687060e-01
1.133413087764514604e-01,3.476985356204120303e-01,2.832604425395916503e-01
6.460259460273098941e-02,1.432546829907040131e-01,1.078459497812694484e-01
-2.399998166593185489e-02,-7.027817992955540105e-02,-7.050944582046529685e-02
-1.449406183009932687e-02,-4.002424264533856885e-02,-4.840965176458882774e-02
2.941983443956022390e-02,3.112191696435519586e-02,3.086769794605430731e-02
-9.555229732701768508e-02,-2.715277186878440885e-01,-2.288596797929152715e-01
-4.864703170940253701e-02,-1.471335993425731681e-01,-1.412582721790979490e-01
7.783623532825965918e-02,2.599228355094420073e-01,2.025077198782633259e-01
-1.098348153919069814e-01,-2.896762383927805051e-01,-2.354334761869186776e-01
-9.131033247087221028e-02,-2.395933814580636645e-01,-2.120747618992464556e-01
7.865942767901011601e-02,2.367510371052318763e-01,1.886238595009222252e-01
-2.099557949838027140e-02,-6.423594240277032130e-02,-5.321498985389691572e-02
4.384739636620129527e-02,8.537106755563665661e-02,7.481156817296956418e-02
-1.043170112049908033e-01,-2.730606253707231756e-01,-2.319032718164996953e-01
-9.840535593670286796e-02,-2.756521663364654984e-01,-2.461434907833740804e-01
4.036735623286689251e-02,1.124363924248473340e-01,8.548896551268730937e-02
-1.186829352136622301e-01,-3.620689348737967106e-01,-2.997199509627888059e-01
8.359378175998960492e-02,1.509365702393599684e-01,1.337760800682947504e-01
1.019933379574415044e-01,3.307210197717429523e-01,2.743873206977845980e-01
-3.311073374207480075e-02,-6.525215417107864402e-02,-5.625578341205237504e-02
1.528167430390820758e-01,3.427507450887287699e-01,3.095003587597089934e-01
7.700889176877601106e-02,1.722231899067174499e-01,1.487978681491320954e-01
6.367564044109615129e-02,1.693053067124620781e-01,1.531282570470688109e-01
-9.708408259532048945e-02,-2.662286512691862672e-01,-2.355455145890338331e-01
3.019537257770932639e-02,6.777145479129981220e-02,4.150855870317954333e-02
-9.946382387269062098e-02,-2.813877273796925316e-01,-2.323408646103756470e-01
2.798861427872139165e-02,6.761506077853911278e-02,5.459589290967958169e-02
1.295060852802741302e-01,3.170346450867660426e-01,2.720768234385002593e-01
-1.478125153529738223e-01,-3.404576385798666616e-01,-2.759500041729497366e-01
-9.786816873562227681e-02,-2.476887471995197487e-01,-2.054475898890012475e-01
-3.337538869172974876e-02,-1.032721075272434591e-01,-9.964606188143877719e-02
1.240467985097884196e-01,3.356971087282833999e-01,2.948796875704674525e-01
6.674973220677332154e-03,6.616478480371839818e-03,1.212597274455360719e-03
9.816653338486364122e-02,2.721528680663857225e-01,2.311881428280888329e-01
1.063792670802790052e-01,2.750645021302373094e-01,2.496304385588073993e-01
-8.136496072451268949e-03,4.507760232243909412e-03,2.603659599129116899e-03
-5.647064925867054108e-02,-1.644047202384720519e-01,-1.458606768511711005e-01
-6.516914162774728458e-02,-2.126283773262649668e-01,-1.907308818817008977e-01
5.026566050531453000e-02,1.258611594112125087e-01,8.962223921381255731e-02
1.087056726738184348e-01,3.014226777502079235e-01,2.396675568123035616e-01
-4.358266852668250813e-02,-1.395581725520371186e-01,-1.119719669404114909e-01
-8.579577992339669501e-02,-1.916473752552473320e-01,-1.567307384079455745e-01
-2.404631622900718635e-02,-8.253216120041585724e-02,-6.319177955658528134e-02
-9.948147286146526158e-02,-3.024021174354618036e-01,-2.493924559021943321e-01
-7.473490006760068194e-02,-1.645409128498242779e-01,-1.300957194125322569e-01
6.153117567901288977e-03,6.423558227711184329e-03,1.426602553931400480e-02
-2.454329299438853806e-03,-6.325929098804822931e-03,-9.856420814199309821e-03
1.555437121925610545e-02,6.297058924103178523e-02,2.494473243713551600e-02
5.552137778203622420e-02,1.674730283730053448e-01,1.568145733866984359e-01
-4.183915116670248319e-02,-1.391017643908044055e-01,-1.210985626031339524e-01
-1.123197889845386696e-02,-2.729463610265813606e-02,-3.392255718064694087e-02
5.492701696781505938e-02,1.831196772327190470e-01,1.516948634567775456e-01
2.514615705463790762e-02,4.899522904843135046e-02,4.881303747289440081e-02
-1.284370898881915558e-02,-1.119997552485918479e-01,-7.771914536890330016e-02
-5.139698229196811713e-02,-1.310975312517448643e-01,-9.122426466177753490e-02
-4.704309315514423190e-02,-1.299622344696862442e-01,-9.710925356604778458e-02
5.129857837531821840e-02,1.829989455163201495e-01,1.244381405338845226e-01
8.296567782943513325e-02,2.899429540686193074e-01,2.424588205476613523e-01
-2.487716389379279747e-02,-6.190192930325248005e-02,-4.796959143379798951e-02
-1.278341560067055571e-01,-3.189166706469184209e-01,-2.707408768262732912e-01
7.771050587778034757e-02,2.192239863553795964e-01,1.702860343569298496e-01
-5.040428132478082246e-02,-1.556589073952626689e-01,-1.192141698334889532e-01
9.665931575924366359e-02,2.733783394252544685e-01,2.329935569475928281e-01
-9.961758804325786254e-02,-2.790623065626965382e-01,-2.404226880618508533e-01
-1.117015459294452007e-01,-2.777364897949632372e-01,-2.387232170618736882e-01
1.006721991238446051e-01,2.840998474164512788e-01,2.210829257867538977e-01
2.167425720744144222e-03,1.549066559441325888e-02,3.277401140573911464e-02
1.068284619232046234e-01,3.581968127939330615e-01,2.997151991942809124e-01
9.747388899453555966e-02,2.789246364685116775e-01,2.203144361588699751e-01
-8.003745288391660162e-02,-2.273285576813896536e-01,-1.843596060343054288e-01
5.261081643077791109e-02,1.530442559383970724e-01,1.363893354832634297e-01
-2.367497675412235866e-02,-7.911236519758013674e-02,-4.399289524042470506e-02
3.352282423184389792e-02,1.043412744920252794e-01,7.049324011454688454e-02
5.313788944201709719e-03,2.983779205134584264e-02,1.971201666901835348e-02
5.464782767391029861e-02,1.322714936717447887e-01,1.256760248897697829e-01
-1.053634075054592500e-01,-2.953654168593313756e-01,-2.304099407332202143e-01
1.120575382206464160e-01,2.359339091466877425e-01,1.866609881772134660e-01
-1.077826334152254262e-01,-2.567888753070594055e-01,-2.224308657443221093e-01
6.782581043876884097e-02,2.060503655885763119e-01,1.954405244087602800e-01
-4.266814106478774432e-02,-1.458108413288220218e-01,-9.831345137908874265e-02
4.518623364049792479e-02,7.927962506724159364e-02,8.526380555966311947e-02
-7.288012520044435949e-02,-1.854434182243946683e-01,-1.450023150154048368e-01
-7.604209549375440767e-03,1.630436092289035827e-02,-2.194183778622525120e-03
-4.718165808835339536e-02,-1.103964869505253549e-01,-1.125368881241958913e-01
-8.815402343114617234e-02,-2.357060312790176249e-01,-2.152220824444964764e-01
-1.258066190878210922e-01,-3.370225648602452329e-01,-2.947728618456336713e-01
-1.140542214375965674e-01,-3.758676446996930265e-01,-3.082178017525599723e-01
-1.593953427944805046e-01,-3.645605485928285483e-01,-2.990329327999181608e-01
-2.791512002376566118e-02,-3.084556604167651775e-02,-2.461477111413166302e-02
1.022856808252880223e-01,3.078858673926794243e-01,2.395403696515871761e-01
1.300251460476695708e-01,3.164066852279251996e-01,2.424404727766510947e-01
5.767458889208538358e-02,1.491241412931993970e-01,1.223012338645536046e-01
4.243202001051491964e-03,-8.286331975561589056e-03,-6.179605451826213069e-03
-4.756898856286326249e-02,-1.295481745884349278e-01,-8.994997212960684219e-02
5.016384947201184968e-02,1.245403599153648427e-01,1.196334120619321345e-01
-5.532520086286907279e-02,-1.871674683874952339e-01,-1.562394606771385086e-01
-8.291029667153738958e-02,-2.511521749555980509e-01,-2.075769934466444866e-01
-6.258497032452269015e-02,-1.663083011011846357e-01,-1.411244633883497746e-01
2.185299333973383246e-02,5.287014393395678830e-02,4.514482438521942587e-02
2.451064600180839423e-02,7.069395930849849130e-02,6.964029322687151358e-02
-6.174469680611736205e-02,-1.463428590424001030e-01,-1.211268392850979175e-01
9.667251064832915741e-02,2.910266754672621303e-01,2.280456073032536002e-01
-3.834611588834933166e-02,-1.506569521121321753e-01,-1.380042125856148771e-01
1.284981803876913131e-01,3.317659069773746805e-01,3.118694975047213158e-01
-3.068668408729756381e-02,-1.157250093368506205e-01,-1.018984429150047583e-01
-7.622733987208661632e-02,-2.542288924208900291e-01,-2.108343766847882161e-01
-3.336844088586318757e-02,-1.211825238301157820e-01,-7.793065124490668183e-02
7.402070298651984570e-02,1.953031025494105510e-01,1.820331412630350476e-01
7.648823646994018510e-02,1.935596266716670677e-01,1.516834583746504428e-01
-1.008425969046261861e-01,-2.066746136814701928e-01,-1.689327386517934515e-01
1.027879110403285938e-02,5.244386904624147999e-02,2.971754378495926330e-02
-2.094483724036512798e-02,-9.161087945133977728e-02,-7.332058444491085236e-02
1.056710066974532874e-01,2.935708821662935675e-01,2.499731482766294755e-01
3.085659138148218877e-02,7.133028113045079832e-02,6.064167722304852209e-02
-2.392373718833377960e-02,-9.659448853554722381e-02,-7.294473779630497590e-02
4.777082335334911084e-02,1.411744581134553034e-01,1.241416745753786827e-01
5.284205382690917302e-02,1.674547239540668253e-01,1.405042637768148250e-01
-8.349901568569589871e-02,-2.876249280093295391e-01,-2.364291601490808581e-01
7.676749374075730881e-02,2.081839695157958747e-01,1.415780456679961996e-01
3.869066399503175158e-02,7.731554096822811084e-02,5.607458259554778252e-02
9.862256730672296079e-02,3.102726402009328144e-01,2.277737122554900906e-01
4.458864493125798412e-02,1.285067035157664295e-01,9.022193866051156363e-02
3.403243099333997518e-02,7.055040451889008080e-02,7.446055869051333709e-02
4.572765006145257383e-02,1.401528709860055399e-01,1.182338072837243459e-01
-8.422273295695419104e-02,-2.281969536956280076e-01,-1.951161899610173167e-01
-6.418134235811532445e-03,-4.322327386939481264e-02,-3.736654500181257194e-02
-1.059326395300566950e-02,-3.947304293842710671e-02,-1.949418459433914855e-02
-1.183067686725296913e-01,-3.154054646883190927e-01,-2.509283309584710020e-01
9.419280838143434531e-02,2.323259280008168615e-01,2.134092151961222705e-01
-9.288598818562479598e-02,-2.625899673425867165e-01,-1.998208057660033621e-01
2.300898754824860434e-02,9.527250686257747458e-02,7.241883536489478190e-02
-1.004159977391205494e-01,-2.959966538657316515e-01,-2.303407417850721062e-01
1.798185783042015318e-02,4.110521088819726540e-03,4.168128774036714175e-03
-9.763585692990292553e-02,-2.977741219964252783e-01,-2.291114364169527795e-01
1.047893060552421429e-01,3.137725904411086675e-01,2.594463655859486906e-01
-1.171114610024246300e-01,-3.389146894552164113e-01,-2.654455307385016338e-01
-6.469426033841292611e-02,-1.962939098807799376e-01,-1.425749654758912688e-01
-8.317045556996444100e-02,-1.902407980874940285e-01,-1.839473798829368845e-01
-1.377811670613023343e-01,-3.664521552437319252e-01,-2.973831191851231681e-01
-4.175579899622616081e-02,-1.207575513299917747e-01,-8.942673809445740585e-02
-4.846495856235796817e-02,-1.519237134312509674e-01,-1.371776516934825607e-01
-7.072048746954886882e-03,2.165403640899469725e-02,3.015782122672476182e-02
8.125622915011655734e-02,2.251238167446541205e-01,1.885533640645123965e-01
-7.371913427613956127e-02,-1.841473567869768291e-01,-1.454890583420306027e-01
-6.346197020566969604e-02,-1.893855463688607910e-01,-1.326010692696410198e-01
-3.941076085662849338e-02,-1.536998035243016814e-01,-1.379482556739897448e-01
1.211625250554327349e-01,3.567600911604746350e-01,3.062883286632309132e-01
-3.214231764786402989e-02,-1.824179226850023428e-01,-1.434033570743744601e-01
-2.286841626933401248e-02,-6.073562859703265926e-02,-3.566130902549743964e-02
-5.182293422076250829e-03,-3.389168489758513647e-02,-1.284246185793915668e-02
3.053497147565015224e-02,1.061535851992556900e-01,8.904704304875611653e-02
-9.654663239157121324e-02,-2.604135260657923778e-01,-2.231827195227741034e-01
7.815467582293652085e-03,1.704851033245433425e-02,1.801173038137457091e-02
-6.923526797235547703e-02,-2.090694462208821380e-01,-1.588130380810192921e-01
-8.019067888685542378e-02,-1.898223653536423028e-01,-1.548996889436276003e-01
7.574925375623202395e-02,2.091609266968038061e-01,1.784623422686822669e-01
-8.259389888238460875e-03,1.892311239860659799e-02,7.278645832743853294e-05
1.119762618348841970e-01,3.096365193629726509e-01,2.662131075000873093e-01
9.924880332921627579e-02,2.549656633251202176e-01,2.115832105020646059e-01
-1.046688241721098062e-01,-2.642241586409781462e-01,-2.216325518853989041e-01
-3.639219733056944101e-02,-1.015652842784605520e-01,-9.193689987864479829e-02
1.209129674108373881e-01,2.912559945257268135e-01,2.705496388534686658e-01
-5.845764619944695227e-03,-1.928734019177276784e-02,-1.363287968280220419e-02
-8.268816137641904485e-02,-2.810460236891532682e-01,-2.312597671342097039e-01
-5.011251400930164662e-02,-1.380839294601842737e-01,-1.373501124172885890e-01
-8.882556981935768592e-03,-2.908119084492911260e-02,-5.378771142581959680e-02
2.662609912000359763e-02,4.005743914081406204e-02,3.143096636958329221e-02
-7.192475919000518303e-02,-1.553021375919137748e-01,-1.349093327069603165e-01
1.370041643096413068e-02,3.366011925161176838e-02,4.648782711534186346e-02
-2.360957039344560929e-02,-3.820741192697497263e-02,-2.961386078669989153e-02
-5.818818405179672359e-02,-1.890230293031064934e-01,-1.572229233428500128e-01
1.120771367642472705e-01,2.825743992543401917e-01,2.307310550133276350e-01
-8.151266406690388377e-02,-2.197618930852421881e-01,-1.746381971402480304e-01
7.641317034349807621e-03,-1.422960897148572816e-02,-1.084573868345574225e-02
-4.986372211713504393e-02,-1.244049126323483745e-01,-8.980809421186758401e-02
-1.082349920703961146e-02,-2.008747853247163165e-02,-1.801284745169756327e-02
9.016065105890652687e-02,1.977357996396395534e-01,1.518635898401106132e-01
1.034892360108913001e-01,2.642906160642699565e-01,2.202939930149808989e-01
1.335642521984140851e-01,3.273724206953000926e-01,2.764314948824131424e-01
-1.233057503630790724e-01,-3.548988091236079390e-01,-2.965613237006936576e-01
-1.037904491746802632e-01,-2.725071682118588856e-01,-2.229740072279970675e-01
-1.355724000191974310e-01,-3.840027604005553097e-01,-3.118459844950574600e-01
8.001831688948676802e-03,3.130334524661711887e-02,1.109752970063172632e-02
-1.373059314434989520e-01,-3.505439248939204444e-01,-2.932281247697891002e-01
-6.460262829789054084e-02,-2.106999466744063076e-01,-1.510925538602615747e-01
-4.889184890476868522e-02,-1.565715272717231321e-01,-1.182942023969611178e-01
5.969408527470555781e-02,1.822829239815363656e-01,1.413990514857699221e-01
2.250152883007724633e-02,3.859214614656043124e-02,3.665134244224347443e-02
8.913826681238704031e-03,5.047432401754978898e-02,1.870086183591103055e-02
4.786526844585328039e-02,9.172487016908061064e-02,7.836670429487274658e-02
2.382361412396514014e-03,-4.642484306128764199e-02,-2.801077853522700167e-02
-1.077978617612508488e-01,-2.676983546998424890e-01,-2.345454622120939636e-01
-1.363653260333688201e-02,-1.701648007453275546e-02,-2.770185775361665506e-02
-6.500351271048127218e-03,-4.229600188926761067e-02,-2.899571669848353267e-02
-5.811827368410270311e-02,-1.760282948134228864e-01,-1.577457455950125320e-01
-4.235140544693374864e-02,-1.158580352550903358e-01,-9.622741538808669837e-02
-3.117861810586468330e-02,-1.097089299138154783e-01,-8.702337793016916290e-02
-6.043671062134612151e-03,-3.318303392577041239e-02,-2.559156252818209701e-02
-5.086157254868667321e-02,-1.595941032682257343e-01,-1.357823270619911427e-01
5.672587409514923129e-02,1.450567606607123528e-01,1.334131665397371436e-01
-6.225791175769899294e-02,-1.476025914374014814e-01,-1.508783462710291678e-01
4.827767470236271966e-03,-8.650596123162724790e-03,-2.926674348855191204e-02
-3.633575550130879739e-02,-1.117490303471516677e-01,-9.456212512111825119e-02
3.650000827413722032e-02,9.603084914637297076e-02,7.309484065390065011e-02
9.631024502725325787e-02,2.625318328589255068e-01,2.230606669177584711e-01
-7.629705144394251237e-02,-2.263981009482706475e-01,-1.979292025081856865e-01
-1.074150160966249046e-01,-3.246480942298351491e-01,-2.824726087003924246e-01
-8.287420963629915649e-02,-2.142218577615610797e-01,-1.800861184925001968e-01
7.236925202829065651e-02,2.077845232097499106e-01,1.861664271456947017e-01
4.204500469831615357e-03,4.798427491917511833e-02,3.975341254479080461e-02
6.992233726562573602e-03,1.793601729385315563e-02,2.220861571698266868e-02
3.371240439798245392e-02,1.298046821787399441e-01,1.112630488633473413e-01
-6.071926579945854247e-02,-1.808397669487746273e-01,-1.520819015420500353e-01
-6.190001236861871620e-02,-1.603665828079486044e-01,-9.787349359304217677e-02
1.215815725113885415e-01,3.195974267671535252e-01,2.543584129649836822e-01
1.097562519567688299e-01,3.197542592525165484e-01,2.755827622641073282e-01
-3.610695090374990701e-02,-8.360460567988746428e-02,-6.685829951416304151e-02
3.483555337776902960e-02,1.095239477370249653e-01,9.778079712240209109e-02
-8.440874200202740096e-02,-2.456348903256589111e-01,-2.011796846259485128e-01
-1.114664616871299252e-01,-3.106013138687305219e-01,-2.518761138204345107e-01
-7.008817598582774144e-02,-2.174014346513743201e-01,-1.867221497493991578e-01
9.924061656403353193e-02,2.633025329240604173e-01,2.292784182969166418e-01
3.331089853371204616e-03,6.389149497851502602e-02,6.214025177088362828e-02
-1.971502343692408191e-02,-1.695219949048814775e-02,-1.675289146459869524e-02
-5.355452421513535316e-02,-1.674623798090761617e-01,-1.403772051277647759e-01
-1.099629112022733890e-01,-2.682220442645966707e-01,-2.218837407844999332e-01
2.439570415760521430e-02,8.203099893665448394e-02,4.904014375415841065e-02
5.976504098362583894e-02,1.762770009312952801e-01,1.149340301000670722e-01
7.841618086954420253e-02,1.787641495992064178e-01,1.448150079153526226e-01
6.755210810185821591e-02,2.065650694891700556e-01,1.734053005015379900e-01
6.744008043085453208e-02,1.765829183921865386e-01,1.246013857298151201e-01
-8.602228472771646095e-02,-2.288163148707557937e-01,-2.223505409588749648e-01
-1.789142311598012833e-02,-1.094033037798560187e-03,-1.282308942015550866e-02
1.070699607182942215e-01,2.613226237363153182e-01,1.993264483332816972e-01
3.011540457121508405e-02,9.501213798096948271e-02,7.452557361641323763e-02
-9.146848507865391886e-02,-2.350612171708738873e-01,-2.008483269578544284e-01
-9.611489227211107711e-02,-2.802748099457196829e-01,-2.345310255452488502e-01
-7.980872147420690205e-03,-5.436776983278941711e-02,-3.801689842165390659e-02
6.630997937581563362e-02,1.826535067061823836e-01,1.431494905352384273e-01
9.551070833968312856e-02,2.978622397991808612e-01,2.605987852568169005e-01
1.265484351701737405e-02,8.061747590313592116e-02,5.845702603082555959e-02
6.718744000880508271e-02,1.989437367968763248e-01,1.519108940233956651e-01
4.462803165138530537e-02,8.292935110872751148e-02,7.075788116298729891e-02
8.596180321508431477e-02,2.385013306361745966e-01,1.987349665887958028e-01
6.451990370209463588e-02,1.711898322075790235e-01,1.462704403455825364e-01
4.701565568652864985e-02,1.203110305583550282e-01,8.662307078087634615e-02
6.240556122265073641e-02,1.665394455024792886e-01,1.515906252708665025e-01
-1.061793539653711205e-01,-3.027809542705980905e-01,-2.402329657868832458e-01
5.605696480627693490e-02,1.297657856314745062e-01,1.215689041584517988e-01
-1.104244285330610725e-01,-3.036337560510100064e-01,-2.616569821488968772e-01
-4.206244608838947963e-02,-1.073979386420294418e-01,-9.275874053548015252e-02
3.648320995114667786e-02,1.526755664411504065e-01,1.342773174386892032e-01
4.569859955914391120e-02,1.626254083503872738e-01,1.278326315987838857e-01
-8.149995232653843569e-02,-1.713125135473717864e-01,-1.230138937365874152e-01
7.473058232721922767e-02,2.642102975243721397e-01,2.200090486482723928e-01
-4.155103794468801431e-02,-1.058368310495042819e-01,-7.647606964566040777e-02
-3.841637133312546248e-02,-4.580424509509962994e-02,-2.364638969103820959e-02
-1.147987126026184246e-01,-2.861673236079572691e-01,-2.376411874212080166e-01
3.657474305652213403e-02,7.635958430071741743e-02,4.382185088690065955e-02
-1.215417114313023690e-02,-3.636664368017351878e-02,-4.071425616858668356e-02
1.088499753259429964e-01,2.519583995340384797e-01,1.993929874327219909e-01
-1.044043404376387291e-01,-2.682930839863560957e-01,-2.314733011059479373e-01
1.245356849900242091e-01,3.140929244417247634e-01,2.511684245164914620e-01
-4.957966669332974224e-02,-9.806968781102103072e-02,-9.885620639980756408e-02
-4.432378064196981077e-02,-1.262091018574270085e-01,-9.240200721883841395e-02
-1.312832913341592696e-02,3.468515861064256495e-02,2.421919999624616918e-02
1.309991698201320443e-01,3.318299151063847097e-01,2.578714071589295331e-01
1.229870715478799809e-01,3.246296439670184331e-01,2.568347026487898810e-01
-4.610007830478098784e-02,-1.470816093868838603e-01,-8.692050884289259649e-02
9.039668574092386832e-02,2.554100703597101396e-01,2.241390747733950084e-01
-4.846633579036419698e-02,-9.658787772370999725e-02,-9.852055030666544144e-02
1.425786947868318451e-02,2.926551463497020777e-02,1.066269642591428229e-02
-1.268119487722629279e-01,-3.572715267387170379e-01,-2.973784205097368960e-01
-8.778771984621389080e-02,-2.243857157094936716e-01,-1.980841056743884721e-01
-1.240595299657946821e-01,-3.090474877428507350e-01,-2.438602943205767926e-01
1.619419029976778765e-02,3.380653343524266108e-02,2.224651291574672451e-02
-6.639734011158091032e-02,-2.291505784071009300e-01,-1.861726961471087960e-01
-2.891943928657221205e-02,-8.426838087936108779e-02,-8.405338359582092966e-02
-2.420550438795114612e-02,-7.134063824539645104e-02,-6.229228963383708073e-02
5.600008823306737958e-03,1.416873600754619232e-02,1.412181307279169670e-02
-3.523629234136289867e-02,-4.662964962493845039e-02,-6.790719878367156015e-02
-1.086120944479724848e-01,-3.162938253308594794e-01,-2.579285868925941250e-01
-5.249783902031557314e-02,-1.701662763388712141e-01,-1.472235715573214365e-01
-4.610506546084548046e-02,-1.273395201765601670e-01,-1.079099922675848394e-01
8.239392404846429541e-02,2.023102223524459176e-01,1.882579813987380890e-01
1.076853350007375559e-01,3.152104849351250460e-01,2.698213984208326921e-01
-8.016543549010081426e-02,-2.624581098700526915e-01,-2.433945576913912889e-01
3.214217864642462258e-02,5.919859975222960952e-02,7.789865543567910111e-02
7.995873065071644470e-02,2.009810188235770512e-01,1.723903912282190587e-01
-1.020787445203207161e-01,-2.965711650603934935e-01,-2.685261699291553450e-01
-4.839081303019610036e-02,-1.034164963732717019e-01,-8.261075851482206633e-02
-1.022606765616174834e-01,-3.027640301489784025e-01,-2.561226578401690213e-01
3.401974619030318642e-02,9.472466499418343011e-02,9.667860633135447190e-02
4.362419230819120954e-03,5.521938255694597980e-02,4.871323723877580419e-02
6.825627532234389283e-02,2.108849124613015602e-01,1.851198309472847081e-01
-9.074024983936421207e-02,-2.648420874256516844e-01,-2.023381088706241726e-01
-1.190555128055845041e-01,-3.525906002226431579e-01,-2.814718366621579704e-01
5.252163975895430409e-02,7.394162909250702465e-02,9.851416376019414556e-02
-8.084976693631949762e-02,-1.998649655979004292e-01,-1.577890399572846325e-01
-1.140649283026287236e-01,-3.045116587967671151e-01,-2.470055292211328635e-01
1.159441889527966646e-01,3.627104513878557368e-01,2.932153822364693130e-01
1.438509477969382444e-01,3.598233336553183226e-01,2.861731107631270143e-01
-5.484176255585420517e-02,-8.292733732492689469e-02,-8.378418984940902425e-02
-3.424207267073155203e-02,-6.627018559624628380e-02,-6.493500798444208633e-02
-2.895045135912527323e-02,-1.126000430471541663e-01,-9.756277710925299884e-02
-1.279308659341607257e-01,-3.337265378266658922e-01,-2.809540695596202675e-01
-3.723112563412046133e-02,-8.975248045758149606e-02,-1.076103765442059101e-01
-1.131315687207461451e-01,-2.910595671710257126e-01,-2.395392504394142641e-01
-2.466027985961427235e-02,-1.687450505030881412e-02,2.457744514896300931e-03
9.791462928741266614e-02,2.349143996580133897e-01,2.198743981358895760e-01
-1.322057860765594728e-01,-3.544305213105030661e-01,-3.114611812631412069e-01
1.372707003698792616e-01,3.523503762489169078e-01,3.153420228641191647e-01
-9.109596106955590578e-02,-2.107939312555577038e-01,-1.848131294398808189e-01
-9.437985823781212813e-02,-2.249646627957785638e-01,-1.812376865664877823e-01
2.120491196769536818e-02,5.825159969142724298e-02,1.436426292280666359e-02
1.026445567234828132e-01,3.108426063262654804e-01,2.405197391981689359e-01
-3.807475283971519658e-02,-1.020505590770798138e-01,-6.923755832805839061e-02
-9.782841459841461196e-02,-2.625159966850402204e-01,-2.239688791555077274e-01
7.925394333755333975e-02,1.718693670599934498e-01,1.379477253643490164e-01
5.553122619064023574e-02,2.158988490832749185e-01,1.765480376074222979e-01
-6.294915892914453026e-02,-1.706720973399269980e-01,-1.457664956832477321e-01
-6.312321106735828413e-02,-1.933955995664982108e-01,-1.537244458920326573e-01
2.252623982131757036e-03,5.623588781721118070e-03,7.270550978763046061e-03
-6.186401814883114164e-02,-1.359908790290420277e-01,-1.098244950552208637e-01
6.208037987915866057e-02,1.473803242373469824e-01,1.267272017381994298e-01
-7.141666429363731361e-02,-1.963770194198458940e-01,-1.606289458590842989e-01
4.956554166372625914e-02,9.200389103818595871e-02,8.837571244239850188e-02
5.641023136516583325e-02,1.689346547429105561e-01,1.331890290775535612e-01
9.797946065013417305e-02,2.874209508014138326e-01,2.497356454087961697e-01
-8.442359739102658911e-02,-2.875417198328599766e-01,-2.374886022610036285e-01
3.734555909500941739e-02,1.127910192902259051e-01,9.762882401587451298e-02
6.909987389782153155e-02,1.924232886471738124e-01,1.479699602734770858e-01
-9.413298274034676005e-02,-2.811172377387045063e-01,-2.403522911806052209e-01
-8.987344713511627448e-02,-3.214629061841562385e-01,-2.635443300114675425e-01
-1.296258073841827507e-01,-3.467162176812081387e-01,-3.011960763328169755e-01
-3.169112733674255000e-02,-1.219288249798966411e-01,-9.951491014009715419e-02
1.298219896220985936e-01,3.428066257404865369e-01,2.782505940370426645e-01
1.292511913589204087e-01,3.308216272247450629e-01,2.848914916206337078e-01
-6.549989322280957982e-03,-6.286756936656712202e-02,-6.278095813888387444e-02
-1.367833338618337224e-01,-3.599019263390291212e-01,-3.067460275305128881e-01
-8.822799321061788880e-02,-2.253885367766663428e-01,-1.833676316558990604e-01
1.669962627482447087e-02,5.519170529451745966e-02,6.539393082858456496e-02
-8.391941773062949750e-02,-2.012345163607708320e-01,-1.685961388004605377e-01
-1.298269920968243493e-02,-3.597661227890858182e-02,-2.733208072763298677e-02
-8.320737235277229915e-02,-2.560684346311684623e-01,-2.213593957354642872e-01
-9.552859566365537458e-02,-2.930717736518573813e-01,-2.322321754314347619e-01
-2.783952743131009808e-02,-8.407846759440333606e-02,-9.305182320925407813e-02
-8.247015342199962712e-03,3.258328953707834846e-02,5.221389693963180562e-02
-3.029936921434790015e-02,-7.279274239538074953e-02,-6.671504246097303970e-02
-4.336999129622525623e-02,-7.698854939860320934e-02,-4.890961729493692456e-02
-2.622298179010723249e-02,-7.281875692067353578e-02,-3.912761338588517657e-02
4.478363155535076967e-02,1.306650457715476110e-01,1.269023017454431468e-01
9.560577981078999255e-02,3.122859601328331070e-01,2.659933404504731813e-01
1.068022604799352682e-01,2.937664717855458796e-01,2.368970816131962809e-01
7.952071393384860243e-02,2.460890566098054844e-01,1.859181618131216240e-01
7.973557365286750021e-02,1.706961292834737742e-01,1.580812478439602986e-01
1.443657474526905404e-01,3.501381222443885055e-01,3.084386643794636007e-01
-1.152070216843098932e-01,-3.367720982123356688e-01,-2.866303944782070401e-01
-5.265627928308008049e-02,-1.339287589784632637e-01,-1.146577525739387177e-01
7.102801320549954889e-02,1.367001682560423648e-01,1.145632144878486053e-01
-9.288397412536781098e-03,-3.199097817523470499e-02,-2.506953607516432259e-02
5.382393949012788392e-02,1.269164454408232279e-01,1.049491340470265349e-01
-3.002400948258985777e-02,-7.884806505943078858e-02,-7.690986617826328642e-02
1.617033393558744980e-02,2.884609262609570332e-02,3.391735629116696127e-02
-1.088911384107412311e-01,-3.068121397478220103e-01,-2.585505149184834650e-01
8.236973411098025277e-02,2.845922945184685138e-01,2.245601100654542881e-01
1.380099173583225203e-01,3.397909787536583792e-01,2.717329561069737887e-01
-9.571433658316415294e-02,-2.699735014608167782e-01,-2.424294016673654573e-01
-7.630349251895204854e-02,-2.267221833493555105e-01,-1.932256430605261144e-01
1.573718795010541419e-02,5.440672298962000164e-02,4.978717676409626092e-02
-8.307879516107560813e-02,-2.068922683861568190e-01,-1.794071699409446607e-01
-1.846601174184815328e-02,-4.682878272330612268e-02,-3.860413210840223097e-02
-5.434685550905344470e-02,-1.397208979378036231e-01,-1.147557877184692404e-01
1.259132052944342828e-01,3.075417324430720356e-01,2.682846237933561584e-01
-1.509889725518032688e-01,-3.418460395356759385e-01,-2.788317173267344518e-01
-1.077464624445765712e-01,-2.923714204943784201e-01,-2.481051302343635634e-01
-8.768325232068104047e-02,-2.018950957435679538e-01,-1.664008365513013066e-01
-5.158112954816057583e-02,-1.457009114824200646e-01,-1.306692210568419499e-01
-1.116574160258917980e-01,-3.164237003487366806e-01,-2.802546841983205583e-01
8.343365610684374753e-03,-4.347291491640839674e-03,-1.919952574979819125e-03
-9.256642225200771568e-02,-2.803996257557932470e-01,-2.196401135955682871e-01
8.465377510895620572e-02,2.401747290627463394e-01,1.900102462520215918e-01
-8.497653449028109984e-02,-1.801144048449529467e-01,-1.560575771783391241e-01
-1.264360874979683358e-01,-2.893628015441053192e-01,-2.470506632821793391e-01
6.720949594924353898e-02,1.886592361562377529e-01,1.356079400908454802e-01
1.045134232999877372e-01,2.955252363336789423e-01,2.564184175614996897e-01
3.200218034441139336e-02,1.032541697552183668e-01,8.144630769168785533e-02
3.932166317248132238e-03,4.107288028760282955e-02,1.391175054345075712e-02
1.491260686045637988e-02,4.540602169671197758e-02,3.320913863391038862e-02
9.691691198450447242e-02,2.918695178014713010e-01,2.420319617322147510e-01
8.292119590989976280e-03,-1.076663377696718792e-02,1.388045462115853820e-02
1.104573678401082615e-01,3.083725126186100396e-01,2.572573372210407161e-01
-9.552761242274343534e-02,-2.426463006604663575e-01,-2.123952939087567215e-01
8.596519071801649037e-02,1.955025912594133553e-01,1.728309737885709574e-01
-1.016636515907429900e-01,-2.874670076007196928e-01,-2.335590345545255631e-01
1.505100437882330999e-01,3.375319948821990379e-01,2.835623536665425881e-01
6.274892320093272691e-02,2.056362928415358116e-01,1.678440574893008408e-01
5.481091825002847723e-03,4.238871973711472868e-02,4.447036483228955506e-02
-1.389690995698439069e-01,-3.769767911286884821e-01,-3.036263026156479916e-01
-3.397894451895575735e-02,-1.030596901043310393e-01,-7.118637123244903053e-02
7.191299195069453254e-02,2.774944518096220669e-01,2.109268323222554808e-01
-4.876891622277897825e-02,-1.250293867081071486e-01,-1.081368172925912668e-01
-7.455304379760344102e-02,-1.452312544053614429e-01,-1.204204131586373988e-01
-5.518901577080677356e-02,-1.681506292019936122e-01,-1.270515978676144409e-01
-2.206578008798256232e-02,-4.302353243304381236e-02,-4.226690399439854418e-02
-9.856538843197967803e-02,-2.807901303632849843e-01,-2.454149888252888101e-01
-1.515959570747555177e-02,-3.856442730333421720e-02,-4.894632333102696270e-02
8.901007044609994534e-02,2.415664242245325610e-01,1.977455127699844217e-01
4.674303202860188855e-02,1.366318376408426627e-01,1.228600605755344605e-01
-4.595039464966164250e-02,-1.388127964947720450e-01,-1.056808235293444226e-01
-1.037325840668752719e-01,-3.245438193323522125e-01,-2.694163276256378303e-01
-4.603107168940341609e-02,-1.442090941592278353e-01,-1.161989000633032176e-01
-3.971902364391714790e-02,-1.188475579416778810e-01,-1.149568964174264851e-01
-1.249800576856770346e-01,-3.615635595510595657e-01,-2.965187795638176693e-01
-3.751401360717600275e-02,-8.156524374137059941e-02,-8.283603381002077604e-02
1.180590322231762634e-01,3.295333376711279683e-01,2.807373981446305566e-01
-2.392742003810937462e-02,-5.079647279387544678e-02,-2.800838814037525173e-02
1.641308674240545343e-02,4.874044473700640118e-02,2.066828904583588311e-02
-2.655981200757998734e-02,-8.512321766126344780e-02,-5.999769962465927725e-02
-1.080597221197368424e-01,-3.181455399618310920e-01,-2.366855181476167080e-01
-6.628019433387484505e-02,-2.163682846530728954e-01,-1.862302939186716577e-01
-7.858464690855589130e-02,-1.726575805140923570e-01,-1.298822939816939026e-01
-7.767426521571230147e-02,-2.288690476467422352e-01,-1.929514347633679294e-01
1.079233357279665850e-01,3.212241411605618602e-01,2.702174350716680107e-01
-1.004462133959848763e-01,-3.010187108229143704e-01,-2.441257398716361604e-01
9.251234394885136936e-02,2.609608635230303286e-01,2.008394396493810019e-01
1.147593870575908531e-01,3.316375522263209086e-01,2.621589483207645843e-01
-1.128858070701968946e-01,-2.904164599875532216e-01,-2.428000914075325312e-01
-1.608938860047072136e-02,-5.318754585885260983e-02,-2.363160283967286404e-02
-1.131633915573589666e-01,-3.012227992648773278e-01,-2.535618585274584391e-01
7.872691688430997342e-03,2.276404578898874598e-02,-5.826602369226815958e-03
6.247761841711559072e-02,1.640412242496179507e-01,1.469307004375169090e-01
1.167581959681213977e-01,3.194941554234442815e-01,2.540378092856658276e-01
6.911171095145975107e-03,4.096918869225920495e-02,2.313967180596691181e-02
-3.039729678539366403e-02,-5.340543660080541988e-02,-4.390355971142448355e-02
1.024301811921145000e-01,2.851708021786156233e-01,2.314913588059669125e-01
-6.356399661558528869e-02,-1.899034662934599160e-01,-1.670671820177351830e-01
4.079574780721811206e-02,1.169161672894655779e-01,9.779810745458765442e-02
-8.856724216963021701e-02,-3.140587007338723757e-01,-2.553448388069459729e-01
-7.828556930128370561e-03,1.668831208205898836e-02,6.654479666856184458e-03
7.007592900956817472e-02,2.027269637828567894e-01,1.742341084295148390e-01
-5.156681031056463416e-02,-1.137834818312284668e-01,-1.015729891429626303e-01
-1.220591631295660506e-01,-3.074403362889457370e-01,-2.713547332242428056e-01
4.983837211632458769e-02,1.484462576262911560e-01,1.155777804230422728e-01
4.923323406188894608e-02,1.427160033112004067e-01,1.024986942102972254e-01
5.870211900229856117e-02,1.628630275246545078e-01,1.245902989006106576e-01
-5.897952221212304086e-02,-1.337420963103738702e-01,-9.753773512707174242e-02
-4.669318883977569695e-02,-1.445852868920411149e-01,-1.181007207472012238e-01
1.453231809073857461e-01,3.684264635455047343e-01,2.988421964202733205e-01
-4.242297592876888984e-02,-1.068080764403235156e-01,-7.213010094088612156e-02
-4.704513781625389857e-02,-9.104777799192875776e-02,-6.847348522119393877e-02
-1.322008675033138278e-02,-2.143980954530762609e-02,-1.430288901941871235e-02
-9.137706843697059045e-02,-2.367947301751028299e-01,-1.881552737309923062e-01
-9.243665594018181386e-02,-2.507078208213388559e-01,-2.005639141056615726e-01
1.036445418438002447e-01,2.880383540583091873e-01,2.419342469016168840e-01
-5.980459937278643362e-02,-1.834005181048490307e-01,-1.620041648083476726e-01
1.627417135580346355e-02,7.031668510713913467e-02,5.567258426510388047e-02
9.641757629479522085e-02,3.110266292922045928e-01,2.627408387504998610e-01
-2.346123764407909498e-02,-4.459162114622357287e-02,-2.302058004347257159e-02
-1.044685579772936801e-01,-3.175173536008385478e-01,-2.457344060118796247e-01
5.517195647100443801e-02,1.376345847401116151e-01,1.037169864889557480e-01
-5.177141158235754048e-02,-1.529711620324118448e-01,-1.242643398312584246e-01
1.022150585174125131e-01,2.458264057269558822e-01,1.964178289096037977e-01
1.042587056017801016e-02,9.913998872324632922e-03,4.784321795027240455e-03
-6.375571175829371218e-02,-1.951879954898753933e-01,-1.390302106496542622e-01
2.715552040539869968e-02,9.239496674795327769e-02,8.833002309166806953e-02
4.766345222062151610e-02,1.296890286359282385e-01,1.051345046904639952e-01
1.351097817485629772e-02,2.189771566711158982e-02,2.347991410246434707e-02
-1.283689866684667794e-02,-3.757910845156943458e-02,-3.345918068308571108e-02
-1.029843978274426058e-01,-3.391907410945460555e-01,-2.588714326009714517e-01
-1.252046208408317540e-01,-3.610877397087161045e-01,-2.880081690737632538e-01
5.831120956290306023e-02,1.214626348177026138e-01,9.623727819950492202e-02
-6.844321193589304742e-03,-1.871159923068305142e-02,-7.978075022079226739e-03
8.719328955904713518e-02,2.641199907968554417e-01,2.219995783305862835e-01
-1.294874914596551296e-01,-3.628815020320184659e-01,-2.898944652442918546e-01
3.583936526897450042e-02,1.032051365489215222e-01,9.226084010657514822e-02
-1.067887978595928461e-01,-2.912928159261619077e-01,-2.282784662003058129e-01
1.426355675045431690e-02,3.375866366445328531e-02,2.454504359666245111e-02
-6.075908284585686270e-02,-1.564655307843741960e-01,-1.222799211863525304e-01
-9.959935237808485720e-02,-1.953327706967373512e-01,-1.686783886928792109e-01
-1.098650750445365476e-01,-3.552672750591452377e-01,-2.969347807150410912e-01
