-7.816365987572224117e-02,1.122038516400193503e-01,7.360698635034525206e-02
-1.260926301030081687e-01,2.045891201070897114e-01,1.132400235336559202e-01
-2.508182038070648490e-02,4.109400384205227907e-02,1.782200785555710168e-02
7.679732025922347827e-02,-1.436767331673866888e-01,-8.224388982306235496e-02
6.753887349442694310e-02,-1.020284849648936398e-01,-6.174854428210324597e-02
2.101383722679308341e-01,-3.228010852693409261e-01,-1.884021424932111333e-01
7.327038626908936869e-02,-1.027484828881037593e-01,-6.331831915624361318e-02
2.238633118356656293e-01,-3.568695236224282974e-01,-2.254023716807756206e-01
-1.708753627245488682e-01,2.339630607458322853e-01,1.398100180917561386e-01
1.625920241647928477e-01,-2.653463282945917046e-01,-1.742845554272357267e-01
-8.534943397560920686e-02,1.311248436227626935e-01,8.428734257979168809e-02
-2.165339963215965474e-02,1.961065400878942572e-02,3.132802012339946929e-02
8.238568285234811051e-02,-1.212342364063379724e-01,-8.718856907502334219e-02
-1.226534109214861973e-01,2.267438247882963831e-01,1.344542767514395609e-01
-9.195600920676978707e-02,1.342313756622876830e-01,8.055309282980865904e-02
-1.195228254678133428e-01,2.123800273353882717e-01,1.122042092449043599e-01
-2.476778708757313707e-01,3.616696643218746399e-01,2.200820646660933966e-01
-1.568193683931437821e-01,2.525895431541107516e-01,1.446601093782737546e-01
1.948086591227967887e-02,-4.775745023786213267e-02,-9.968906136555226796e-03
1.249611361246617397e-01,-1.918430648519187098e-01,-1.088778220171174038e-01
1.136751905187282641e-01,-1.870594922876309962e-01,-9.609639037994228972e-02
5.762333914071240265e-02,-3.588788345796949109e-02,-3.802138556363427596e-02
8.472741501263904296e-02,-1.444820074464340520e-01,-8.400319418947001238e-02
-1.730852056009375139e-01,3.132555822707994708e-01,1.992681385233375235e-01
-2.072939926800455857e-01,3.345113240410081956e-01,2.011915629045625542e-01
-1.866816518897044530e-01,2.990430891114338463e-01,1.659429658170499533e-01
8.601434693996359848e-02,-1.700942549755159183e-01,-1.104200943475587143e-01
9.108687649295946209e-02,-1.449324158489919967e-01,-7.128734685967072493e-02
1.755247560520686034e-01,-2.607948499683256927e-01,-1.802704616006765848e-01
-1.632995355420769623e-01,2.635959992465203849e-01,1.518593149912616791e-01
-2.479875858218814032e-03,3.617945216508827028e-02,1.467679677098913775e-02
-1.985766583462069898e-02,2.903008762987475955e-02,9.610984213639832754e-03
-2.251259730126238534e-01,2.986633440213128377e-01,2.017390004591538832e-01
1.095866476611837264e-03,1.041773597826522188e-03,-1.219990139003808080e-02
5.392460144658682564e-02,-7.853874324136707330e-02,-4.799339643530281529e-02
-1.934663592740328286e-01,2.961570835809018143e-01,1.785169519762881962e-01
1.495941945806631423e-01,-2.570787124295362269e-01,-1.593261214962359840e-01
-6.021234329584385786e-02,9.476853587767655740e-02,4.342652028525662011e-02
1.985375824199496486e-01,-3.538209717759827622e-01,-2.188279191863830853e-01
3.871178366793607412e-02,-9.087893934636274984e-02,-6.203650595375607979e-02
2.518292796025098368e-02,-2.662120845979864397e-02,-1.827671106305145052e-02
7.896439799977947316e-02,-1.217298502087169748e-01,-8.311915891884548435e-02
7.112082320272343494e-02,-1.076681164201602342e-01,-6.562608179582024581e-02
2.083866701702061230e-01,-3.588259976363268877e-01,-2.099239633332138644e-01
1.944773331709243325e-01,-3.413468241347555332e-01,-2.006105064603695420e-01
1.523384523657055900e-01,-2.066020083137316832e-01,-1.223702335095994548e-01
-1.964372454388740863e-01,2.853770625726308463e-01,1.687942814089634369e-01
-1.236440409019042702e-01,2.085407619040103577e-01,1.107385833073745857e-01
-1.880057522405724491e-01,2.825215203762267979e-01,1.643098801919828933e-01
2.289845411241689388e-01,-3.664841818562934450e-01,-2.033926494341237456e-01
-2.171174486326664377e-01,3.423629979989635808e-01,2.263625482688223778e-01
-1.130708338047822503e-01,1.757754830887053032e-01,8.989032285232675945e-02
-7.210523673053444160e-02,1.268739367183495670e-01,7.783039519953569019e-02
1.260813529074057693e-01,-2.096344792398339985e-01,-1.126435824467042907e-01
1.238408285083960475e-01,-1.807410359855537163e-01,-1.127188587647815626e-01
6.899942775072528782e-03,-9.967753346068787546e-03,6.675120073880532433e-03
2.197159976586439967e-01,-3.477539927977442713e-01,-2.240605975884104040e-01
-8.425265309664763808e-03,2.454081887714175056e-02,2.963281330511882347e-02
-2.414348250294278131e-01,3.599119128608437856e-01,2.140862078050134176e-01
-2.538310045658871347e-02,6.232379824284384195e-02,3.582270205156767862e-02
6.829050221188215364e-02,-8.239132775055786617e-02,-8.288463978260253440e-02
3.001883251100739836e-02,-4.056758472722147429e-02,-2.792207001399998195e-02
2.124395563213520577e-01,-3.180426094225932143e-01,-1.753905244288815890e-01
2.169764677146489851e-01,-3.555557536259645324e-01,-2.159842619062627422e-01
-1.855133596999728948e-02,3.004487136523073185e-02,3.143083125494715302e-02
-2.265801176445367549e-01,3.313777722556838778e-01,1.987019487912320692e-01
1.888923064272536589e-01,-2.763142686138048143e-01,-1.600370023548537690e-01
6.289488914288178523e-02,-9.912507380404278479e-02,-6.082218164880181382e-02
1.212776216795151268e-01,-2.219517302424482419e-01,-1.332485592902037663e-01
6.887622940955011319e-02,-1.323751513884503794e-01,-6.304571780414253146e-02
-1.719903706552445011e-01,2.424874540542308332e-01,1.384268046933559426e-01
2.104907516984740046e-01,-3.531800915294477372e-01,-2.201595382897434394e-01
-6.584249972922508187e-02,1.042553964695838165e-01,4.539435440881793571e-02
7.907846898188758411e-02,-1.352982843642375199e-01,-8.111145609543478352e-02
1.759209269777327889e-01,-2.681016740696776091e-01,-1.650030183704676856e-01
1.157800743198546534e-01,-1.787039589398666806e-01,-1.041921170195845153e-01
1.811491943016863351e-02,-3.236473137922835780e-02,-6.059272801297806849e-03
-1.088339902046720209e-01,1.862582287885684029e-01,9.646220290826573729e-02
1.124131653314801027e-01,-1.597324017576228217e-01,-9.210400308445285122e-02
-2.040187783324774184e-01,3.302055158510059374e-01,1.952622634115144806e-01
-1.048110687128385871e-01,1.575892186743347856e-01,8.675381141023454090e-02
-2.194241453285574739e-01,3.551819641176844344e-01,2.183758568405171352e-01
-1.703201554712770460e-01,2.790905092524485487e-01,1.739750124467634995e-01
3.774926891878643050e-03,-2.608522458165230852e-03,-1.538304008864699660e-02
4.482768684071507942e-02,-5.382663945719971116e-02,-4.232549251198641088e-02
-1.654160730367048790e-02,2.286777952117793541e-02,1.259861803292424906e-02
4.062564104305588231e-02,-9.766881355500661721e-02,-5.896197319411004140e-02
5.294892516270207489e-02,-6.516930791801284206e-02,-5.393773773274841699e-02
-8.797741301548224480e-02,1.149231559610539022e-01,7.226213466667677499e-02
-1.422006972213477605e-01,2.520567072681720311e-01,1.351165209704743020e-01
1.797804918630916196e-02,-1.855390614636319088e-02,1.241222100408612139e-02
-4.113892962276661375e-02,6.315346409297666053e-02,2.289472541574989056e-02
-1.898882084801544190e-01,2.963832388304219467e-01,1.903939482550582041e-01
-2.475212183428291413e-01,3.969910221235440351e-01,2.402778554990268600e-01
5.570476691301414623e-02,-7.836921550833353400e-02,-4.885086583812840028e-02
1.774545199601706980e-01,-2.841673291400201307e-01,-1.696907376220647690e-01
-1.849636856746091351e-01,2.718348396369492659e-01,1.663048138999583814e-01
3.484234220664333276e-02,-6.175922997899314926e-02,-2.540760863256504021e-02
1.016979687757302436e-01,-1.625196603350952951e-01,-1.015986929340414041e-01
1.602032243138334089e-01,-2.375271800685475054e-01,-1.231593160414599097e-01
-7.614216618702469852e-02,1.457919063872495369e-01,9.080448864864350267e-02
-1.962633676337196542e-01,3.222954979026632638e-01,1.809535217748623470e-01
-1.478345739117792879e-01,2.323325499621720358e-01,1.499039507569876473e-01
-1.831932589098402564e-01,2.904404965735559174e-01,1.695742170853917208e-01
6.028065945531724257e-02,-1.036003682113464525e-01,-8.158441815598857505e-02
-6.233229461132763077e-02,1.042832794622663567e-01,6.012798939526740882e-02
-1.382118455653426163e-02,9.743185737349864886e-03,-1.547710286089471659e-03
-1.873097603232530273e-01,3.113352316350372906e-01,1.806179386559943201e-01
1.016227423716773298e-01,-1.799458410850863499e-01,-9.534506687656565949e-02
1.441288111338772104e-01,-1.866636656094700919e-01,-1.364000904427627447e-01
-1.379903417587998171e-01,2.252499249325682351e-01,1.287379957776854100e-01
-3.763136974053783203e-03,3.848560308415974185e-02,1.597792977285132643e-02
6.766797148085115787e-02,-9.044649128037010599e-02,-6.897726669058391880e-02
2.090795617788721861e-01,-3.430329469301693357e-01,-1.857704811294134950e-01
-2.074119635336111322e-01,3.133874203072433140e-01,1.978897301035275058e-01
-9.374652162322726079e-02,1.602395421827619848e-01,9.129237260906715445e-02
1.473037986338192051e-01,-2.326626615659427022e-01,-1.433586372887822313e-01
-3.570977686848927912e-02,9.308076293833920933e-02,5.610624440988012940e-02
2.106662559640762669e-02,-3.338116357993192729e-02,-2.127329931878745375e-02
-1.028232374670797200e-01,1.744483744726324781e-01,9.710787320725783323e-02
1.134635027129105439e-01,-1.868400184194253244e-01,-1.371468509508325384e-01
1.556394116418294005e-01,-2.227140686682092530e-01,-1.435589561192794628e-01
-1.231744635329295734e-01,2.266044460655950998e-01,1.260072513150331530e-01
-3.767346391106884962e-02,9.148069449465964786e-02,3.641903460383908581e-02
-5.427508870245784101e-02,9.376145132194850518e-02,6.306015091577277243e-02
-2.414405669034053181e-01,3.782971969353050024e-01,2.275196197535498954e-01
8.847240012541401910e-02,-1.593585849197646787e-01,-9.839544514725817592e-02
1.992100764276718838e-01,-3.036603095711439271e-01,-1.916429616063662633e-01
-6.666660404290011832e-02,1.080999500929604729e-01,6.562536029133492210e-02
2.268913209019645938e-01,-3.733921016567419704e-01,-2.300715106522168152e-01
-2.522472947288285083e-01,3.462408952395871764e-01,2.047542842597768475e-01
-2.221732654657554706e-01,3.164449019898685211e-01,1.920684437196441274e-01
-2.356176165783095688e-02,5.732432631626827035e-02,3.476697364411672486e-02
1.687285128023969794e-01,-2.748797309715605430e-01,-1.687096510727635612e-01
6.302941835204611820e-02,-1.021992767792300194e-01,-6.565792914136975300e-02
1.622861658008796504e-01,-2.485658415246625452e-01,-1.541694719544403069e-01
-6.644695918981882721e-02,1.228582316395757934e-01,6.053139713463461663e-02
-4.707195275338082324e-02,8.023775422942869273e-02,4.114799559207431984e-02
1.443969636754545427e-01,-2.428675578497112852e-01,-1.491508407354802390e-01
1.626657146547712540e-01,-2.559033725106961144e-01,-1.364954386243076856e-01
2.324401794452978509e-01,-3.478161702967551561e-01,-2.063202414163508580e-01
-1.851541355253230048e-01,2.804897708354470165e-01,1.717547052941785501e-01
-1.371462285153422500e-01,2.409937926458602386e-01,1.421131955665981550e-01
1.574895115230125764e-01,-2.305525291971258217e-01,-1.343692201457854229e-01
6.311831578661190878e-02,-8.358138003256758430e-02,-4.819603370371645934e-02
-1.022594671486868334e-01,1.575146199635239774e-01,8.996887974876996430e-02
1.860333865668720998e-01,-2.805485757276733882e-01,-1.803386031956135116e-01
-6.723835068476516352e-02,9.889582496360813102e-02,5.504693063336071890e-02
-1.387338035577327100e-01,1.699379602121215416e-01,1.192074571799438681e-01
5.705104706458878627e-02,-1.000782627668664326e-01,-5.243984085514857146e-02
8.233398809500468152e-02,-1.216544584865680845e-01,-9.765395705867153942e-02
1.645731550093745832e-02,-4.398146764661512581e-02,-1.047057186160487395e-02
-4.314820968539222895e-02,6.821706387122650206e-02,3.994159295927354053e-02
1.602036413623408595e-01,-2.493434469249538876e-01,-1.351053569144005650e-01
1.242996938181285260e-01,-1.856511772143100703e-01,-1.253503743746274823e-01
-4.102096429865694643e-02,7.346487773923253417e-02,4.128621139799807521e-02
6.492369365756314736e-02,-7.630704915947558731e-02,-4.529800438673208668e-02
8.459460331681112333e-02,-1.269480210910393647e-01,-7.520264748421444378e-02
1.772299153490400347e-02,-4.907434644617856070e-03,-1.477104530371075967e-03
1.186377198746515760e-01,-1.814577229428138150e-01,-1.054167915220227403e-01
1.363465430104319476e-01,-2.231383261323693912e-01,-1.304994672875488260e-01
-5.109000837890086827e-02,9.150497864969811546e-02,7.532234006311262775e-02
-2.236567401139014366e-01,3.613099884664692230e-01,2.301118234320850831e-01
-6.802289792680743519e-02,1.332818314139685434e-01,8.039290513158710294e-02
-1.263387800085501445e-01,1.999147503259984249e-01,1.090659486991562288e-01
2.466963370289923241e-01,-3.822778951027859806e-01,-2.116421739235243293e-01
-4.575595222743907703e-02,7.754971541419655723e-02,7.065727521482380313e-02
1.124297363658709609e-01,-1.621147075800488391e-01,-1.093278006707989192e-01
-1.901455644016435478e-02,2.013456257422524889e-02,2.214426399454202596e-02
-2.166160717617923032e-02,1.529201799047941006e-02,1.495942908347193227e-02
-1.515127668839495456e-01,2.456192295929728042e-01,1.358519249043185495e-01
1.801173082502993128e-01,-3.219521201246892672e-01,-2.008657656373469547e-01
-2.228712701432274956e-01,3.389390000923065416e-01,2.062872528881777578e-01
-1.230540352747201555e-01,1.712798653138510041e-01,1.052000253761773002e-01
-9.943303689141010440e-03,1.281428855897341276e-02,-1.159514406491321016e-02
4.626870105998136945e-02,-1.164088472917241823e-01,-4.994208685196504377e-02
1.303626130536117977e-01,-2.076530830702757180e-01,-1.273048608425972339e-01
-1.491925165214747218e-01,2.509869295962014468e-01,1.463295962396180538e-01
-1.164354615577159052e-01,1.699096992717251398e-01,1.153020617463526298e-01
-1.592498542303071585e-01,2.366409396312985636e-01,1.268186908902316223e-01
-1.687791973671683848e-02,5.828030835392796621e-02,4.089089493076945164e-02
-4.381247815197918810e-02,6.134101310555342690e-02,4.836530787309228918e-02
2.048893599576192825e-01,-3.246561708214656949e-01,-1.948991779360552401e-01
7.707589623666984135e-02,-1.322122383216221553e-01,-9.264284708824080394e-02
1.299645885295277470e-01,-2.013097871375782999e-01,-1.361057274797801142e-01
-2.045636021538573546e-01,3.382951334523867648e-01,2.124768640528910124e-01
-1.758658242622432866e-01,2.720962867144906538e-01,1.622610073968540900e-01
1.051714920020826172e-01,-1.638914723537770179e-01,-1.305172905191510913e-01
1.093480794339049128e-01,-1.377485096249899399e-01,-8.193781685475307053e-02
1.473766164092530639e-01,-2.069194759537512363e-01,-1.291367176559224395e-01
-2.737875972109450520e-03,-7.547900698884504704e-03,-1.332917017210379952e-02
-1.054202535533755453e-01,1.945980267566207456e-01,9.694373818918169960e-02
-8.562685353370187713e-02,1.386108630092840466e-01,7.609197498840476748e-02
8.318678711618576749e-02,-1.371253113733543194e-01,-9.242834804752587952e-02
1.171309796887692184e-01,-1.662279480692886169e-01,-7.935306349881067478e-02
1.810273481405196786e-03,-2.155738048517197650e-02,-1.170570588308948723e-02
-1.128587696918004757e-01,1.766339030459712911e-01,8.556629702858473130e-02
9.623140264515344169e-03,-4.962289300622371030e-02,-1.822759847727116814e-02
8.304691333604946948e-03,-1.242578498704106221e-02,3.485934976090427663e-03
2.226667364263231752e-01,-3.317677402570604617e-01,-2.001778631443428824e-01
1.003606912196992468e-01,-1.646386262283771607e-01,-9.687036972404185209e-02
1.547938978598528137e-01,-2.469648865346129318e-01,-1.583665740732862204e-01
1.627538823163620918e-01,-2.355819291793135040e-01,-1.512104267355156850e-01
1.973684181687720696e-01,-2.939116939317829025e-01,-1.543898961152278815e-01
-7.248108606858012781e-02,1.126489739459767270e-01,5.701751212739832042e-02
2.377922805315735022e-01,-3.695544079312544916e-01,-2.223421816508062698e-01
-4.673489767204512015e-03,3.890488770040037569e-02,1.152130092080330681e-02
9.328813103260798212e-02,-1.547745314156166174e-01,-9.442031992700750109e-02
-3.534902559673837579e-03,1.237008068867514674e-02,9.603581184557650335e-03
-1.627263000873269971e-01,2.497594963775402188e-01,1.408155467777329473e-01
9.510091085680193179e-02,-1.552672481958696227e-01,-9.423860376806665606e-02
-1.155662702312561380e-01,1.722310808413921313e-01,1.276984394095946052e-01
-1.629472766197627709e-01,2.547896783647594643e-01,1.376533519734197131e-01
5.152869476837925074e-03,-1.220213903092021504e-02,-4.831966408385108755e-03
7.059132020196814787e-03,-2.261963146975897680e-03,1.403729506959474661e-02
1.390583770507457795e-01,-2.150142341275726177e-01,-1.217796542625623618e-01
1.704268904632712800e-01,-2.902560657560163682e-01,-1.811324836943308259e-01
1.009919864622237096e-01,-1.968860969358356139e-01,-1.187066356976892584e-01
-1.909256392107164246e-01,2.995496707236906531e-01,1.775991454101507883e-01
1.177322134073743171e-01,-2.101935502703657921e-01,-1.094907603048213690e-01
-4.560515100959398882e-02,5.631092710282789571e-02,4.396935709318812446e-02
-5.417056449385425354e-02,8.819163334139555610e-02,4.491838689240354454e-02
-1.544018588174997098e-01,2.179744824742095577e-01,1.360767469443416311e-01
1.194356044847997705e-01,-1.895947405173648292e-01,-1.115285712380090083e-01
-2.579071196530750495e-02,4.993246881442411217e-02,3.729841332820320148e-03
2.834108860770427965e-02,-1.603046293458388130e-02,-2.314223556887834432e-02
2.168674994995259953e-01,-3.336384758478430079e-01,-2.009998994074209677e-01
1.077997263981598508e-01,-1.575427154160631005e-01,-1.080958692509067787e-01
5.520948258963311039e-02,-7.867183421459746084e-02,-5.140248977637422445e-02
9.428099593378047594e-02,-1.254367198041285714e-01,-6.423477153964718411e-02
-4.904081785513696862e-02,3.783086782717199476e-02,2.430982222997330258e-02
1.188511024136588851e-01,-1.670819491155527137e-01,-1.109178626119668720e-01
1.029629455912586811e-01,-1.646051309091850212e-01,-9.612880678722889038e-02
-1.984018867334806646e-01,2.889375315369670516e-01,1.746529190858283898e-01
-1.043683158915455905e-02,-1.363914124538504434e-03,3.563743691885221717e-03
6.013585452445925628e-02,-1.016011179058213809e-01,-4.902308865681684336e-02
-1.921003723542711109e-02,6.375370807802507866e-02,2.540279649684082375e-02
-1.280520699653809047e-01,1.859055089549201678e-01,1.244187943877377023e-01
2.432739135921344747e-02,-4.164042447033340644e-02,-1.279846305435839446e-03
-2.409048226768213119e-01,3.768121050701500607e-01,2.175465494696791902e-01
8.521974209027856351e-02,-1.740692159767299185e-01,-1.000927954973269557e-01
7.446668017996482813e-02,-1.403750123315862797e-01,-7.870657842432411677e-02
1.618942528433162109e-01,-2.587904348017597278e-01,-1.524065235676300978e-01
2.265265524118166285e-01,-3.575265336510621283e-01,-2.358505443379820821e-01
-1.435415657479108820e-01,2.372784958900619190e-01,1.343842314193035847e-01
-1.843633495244552944e-01,2.721175929206504640e-01,1.434921487109346860e-01
6.642667469944486813e-02,-1.198373937507259818e-01,-6.378169620804870210e-02
-5.202847936586044164e-02,7.146042270474417535e-02,3.084430753525610122e-02
-1.196614244332306065e-01,1.933970073153294111e-01,1.116515020793690943e-01
1.902113448068587509e-01,-2.842969774302910868e-01,-1.632416872959924214e-01
7.583321645874083194e-02,-1.532974213788333429e-01,-7.956794523938544306e-02
1.515606450209118217e-01,-2.161424759696656539e-01,-1.368553732153266478e-01
1.551147463749851241e-01,-2.216463298728141851e-01,-1.524607085251687699e-01
1.987787051875778421e-01,-3.126485240985598102e-01,-1.731171906310009501e-01
-1.421885332975153793e-01,2.199189311730224139e-01,1.323990353000398801e-01
-3.423963525838859961e-02,4.848195339225184336e-02,3.486346056098180851e-02
1.155576620343578553e-01,-1.933278456360405240e-01,-9.766706808956535091e-02
-2.692216834680525098e-02,4.078068508754668225e-02,3.400877364014181364e-02
1.004036837909419999e-01,-1.642089383968761140e-01,-8.013262150976060982e-02
-1.696423832656668851e-01,2.419538906571443160e-01,1.352262195626150187e-01
-1.846971500183873238e-01,2.989521903075362252e-01,1.744598452295264834e-01
-1.284433009254130342e-01,2.080649397131423828e-01,1.276765393113784841e-01
-2.081358580341944806e-02,2.767935199757858011e-02,3.983375558884068302e-02
-2.252961397762048290e-01,3.584521976253736142e-01,2.201765679545696908e-01
-1.835993118690177339e-01,2.623512290843409422e-01,1.754697192253653337e-01
-1.376127853599178608e-01,2.175399299063429936e-01,1.290486113191780526e-01
-2.449059348335536068e-02,3.698645121237408104e-03,1.268698827428108196e-02
4.601571897983540438e-02,-9.357696456260863882e-02,-4.612280653465444802e-02
-7.915828127607532627e-02,1.188821175973759497e-01,6.777406278449234212e-02
-1.682413663661788683e-01,2.596887052124832174e-01,1.564998380953329937e-01
1.567594956510217075e-01,-2.306242333225918817e-01,-1.501685315419957756e-01
1.549125681601593030e-01,-2.631375146423653444e-01,-1.797248739867380041e-01
-1.679414927930613505e-02,3.414339942368953273e-02,7.272473357837917936e-03
1.753533969403971160e-01,-2.960127574866152633e-01,-1.662661980999300682e-01
-2.392714744574560015e-01,3.657003365215762414e-01,2.268730132362562490e-01
1.869066898929948317e-01,-3.193971847966146638e-01,-1.781611044296918522e-01
-8.382764544510308558e-02,1.618444665941549399e-01,9.475509672046676657e-02
1.274348486357270160e-01,-2.171755961194764828e-01,-1.237200631714717447e-01
7.227093187774503817e-03,-3.172876565946695926e-02,-7.081709752577213489e-03
1.314257661599556593e-01,-2.332738517883223839e-01,-1.315786405144952764e-01
1.684900620993892706e-01,-2.793232728532796250e-01,-1.805147261464352948e-01
-1.226274178452827213e-01,2.261428521488723642e-01,1.033048752054025604e-01
8.329576484401025882e-02,-1.383052752946557495e-01,-8.304401731803834341e-02
2.100162394799832410e-01,-3.094048110632776072e-01,-1.855468223231574176e-01
6.277712850047081905e-02,-1.163911456287107238e-01,-5.297795956228696507e-02
-1.815067568969076228e-01,2.740485150171918516e-01,1.673263721874473364e-01
1.903357951135963011e-01,-2.788843604514878449e-01,-1.489295050997938574e-01
2.344799611900735270e-01,-3.427066972604762563e-01,-2.150228128868386379e-01
-1.412767423642914966e-01,2.118269311813160694e-01,1.246006007407460675e-01
-7.424099039910700415e-02,9.805975823131451996e-02,6.402942346712640898e-02
-1.171906758511137847e-01,2.125274886108540484e-01,1.050606560585212179e-01
1.784983108366632390e-02,-4.229987187636902179e-02,-3.552862619154849994e-02
-2.113906358566656207e-01,3.600357234621045510e-01,2.112796087554171254e-01
-8.600105996049262069e-02,1.217633328230193490e-01,8.215966498886001501e-02
1.594696357079288251e-01,-2.391734178315964854e-01,-1.661179619733550161e-01
1.289266559493848496e-01,-2.034326153882197730e-01,-1.148701206725037671e-01
-1.572731784371585728e-01,2.383243067247508562e-01,1.525678144142863790e-01
-3.387721986320117729e-02,5.071551809217941104e-02,3.934360654083238901e-02
1.050576717277674904e-01,-1.703676322939525478e-01,-8.707291826238189314e-02
-5.336773572089205386e-02,1.005029129436700724e-01,4.182498675218809109e-02
2.366641025195731409e-03,-8.217182750693987833e-03,-2.097682566333588378e-02
1.099992180695424510e-01,-1.365928106372289452e-01,-5.771137920042762604e-02
-2.413925036997638385e-01,3.600008384885520218e-01,2.044264149227600913e-01
-7.315500130910677912e-02,1.216626667550465002e-01,6.872307960292965701e-02
-2.082234068331594024e-01,3.149437796229048181e-01,2.140678873316025077e-01
9.837031092024688117e-02,-1.530871874017391276e-01,-1.076151412173907695e-01
-1.879556797105157717e-01,2.907337842845804654e-01,1.745472270307412699e-01
1.484718475120289927e-01,-2.310518615033984591e-01,-1.460196084657207904e-01
1.639109178055612459e-01,-2.645273951099934018e-01,-1.740037794402544968e-01
5.534518616543222108e-02,-9.888551953533805672e-02,-7.470274838888088520e-02
-8.879704488898700065e-02,1.216612834447201169e-01,5.483594327846607469e-02
4.888563612656274954e-02,-8.994731105466377552e-02,-6.374541639960967787e-02
-1.266888084438712869e-01,2.146444964035636727e-01,1.295804551074840050e-01
-2.204761577577427079e-01,3.146698898107042064e-01,1.894270768885765177e-01
-2.115953424018963969e-02,3.896568667385613000e-02,1.817615254161481647e-02
5.233237568605358936e-03,-3.065818842858491437e-03,4.854859610727045756e-03
2.290134554597423322e-01,-3.823669558336610375e-01,-2.258254748585674931e-01
1.638236562329312973e-01,-2.729030209344709412e-01,-1.457055818659435120e-01
1.132374028489032819e-01,-1.886713382137501505e-01,-1.071734172518090805e-01
-6.527252447056210508e-03,-2.417144788018016702e-02,-5.258728834652851014e-03
-2.397825296062265354e-01,3.783437219814967389e-01,2.374496219567881206e-01
-1.162575573074476065e-01,1.570984376645699621e-01,8.007784475911852717e-02
-1.094532101914308247e-01,1.930118173937353521e-01,9.270199388905112081e-02
9.487425063235346845e-02,-1.267468408723438356e-01,-8.306945466915602316e-02
1.742918678844031788e-01,-2.805355702976805032e-01,-1.626750765878607063e-01
-3.879814924815667282e-02,3.349129111965418876e-02,2.583732310767567625e-02
1.036781230326607461e-01,-1.511123326288782154e-01,-9.159764236128731252e-02
1.429098809400703163e-01,-1.845803001777331920e-01,-1.090609743926426872e-01
1.256648342306679600e-01,-2.117898987193706783e-01,-1.147931856355610819e-01
5.617601398919377237e-02,-1.005231690620210921e-01,-6.779605411970458795e-02
1.583779122014805640e-01,-2.616940614670260068e-01,-1.396114866130853116e-01
-7.190185875938059912e-02,1.141141404285225258e-01,5.441354181490882375e-02
1.755042355762346795e-01,-2.671869535939182527e-01,-1.743879256677222100e-01
-1.003543404988922749e-01,1.967843588253193332e-01,1.327269855342732563e-01
-1.584754941058317546e-01,2.542669127630424741e-01,1.677765171893402241e-01
1.399496794955342460e-01,-2.387495176454773604e-01,-1.511214112941529908e-01
-1.507952552510656574e-01,2.605567189456959309e-01,1.348112818547507752e-01
1.098734696970211054e-02,-5.079873233095558160e-02,-1.425107719887337698e-02
-2.250807144318974495e-01,3.420982391853389371e-01,1.966211443615693277e-01
-8.005816877023157457e-04,-2.336012853214784746e-02,-1.371539276318542444e-02
-1.471276153345065126e-02,-4.191341093421136615e-03,8.600005621479183196e-03
-2.326316843665629797e-01,3.485600162752882647e-01,1.993675438416508960e-01
-1.858094804674295109e-01,2.594097911811387158e-01,1.641613123917153305e-01
4.504323710056994806e-02,-1.147732536777488904e-01,-6.869991554742586881e-02
1.098305988812433957e-02,-3.432020600053769382e-02,-6.725328061091463520e-03
-2.208491389554450568e-01,3.479871873033063001e-01,2.054353383371217978e-01
-1.996075679832261529e-01,3.136005681119081734e-01,1.965332654916494004e-01
-2.181226633715243127e-02,6.558982985614672870e-03,4.912655463853155685e-03
-1.177704459857395608e-01,2.121309286234079883e-01,1.100260552347159665e-01
-2.119675424907809802e-01,3.057104967872207868e-01,1.945976018233200877e-01
2.070885562865605878e-01,-3.357737852515210175e-01,-2.022102679352074939e-01
-8.295588641751819314e-02,1.361729474511947924e-01,7.208152261295118490e-02
-1.297567411597464436e-02,1.528620162547778038e-03,-9.133984242307987417e-03
1.225779155681265553e-01,-1.654322307294966155e-01,-7.804859798755035827e-02
2.858201381223879692e-02,-5.266174107160435242e-02,-4.069103555283848372e-02
6.913978125157571597e-02,-1.085122423303222505e-01,-6.519302191851759909e-02
-2.455763965412304309e-02,5.302832910717747428e-02,3.416679617465752383e-02
-1.577659923771679851e-01,2.403465276819563845e-01,1.495747766160906156e-01
-2.274037231347668109e-01,3.633860633359363712e-01,2.237838796804389463e-01
2.900266033659705533e-03,2.919392829601603380e-03,2.140711620317549760e-02
1.590783357861717540e-01,-2.677097223558135286e-01,-1.569627804583389741e-01
1.778995172796858926e-01,-3.144114821752980182e-01,-2.045474782259218416e-01
-1.667524043101206166e-01,2.315588441609910952e-01,1.512280980570415156e-01
-3.572033426028024816e-02,6.423462742273292059e-02,3.937133555841863114e-02
1.779707238143376363e-02,-2.941697618311671716e-02,-2.063850536693560486e-02
8.114897440586681110e-02,-1.062792054380218704e-01,-8.083073370065188556e-02
8.684370161978165192e-02,-1.504363783912475716e-01,-9.299954592794139330e-02
1.688966254456695237e-01,-2.730891901903190200e-01,-1.556789138713733645e-01
1.998147465038156989e-01,-2.950497130082395114e-01,-1.688051156643324557e-01
-9.077177621772634930e-02,1.610437849703555135e-01,9.059217619189414983e-02
1.442064927082129522e-01,-2.452391047234718513e-01,-1.429721756500838270e-01
-6.309861272855706027e-02,7.308150949116465345e-02,6.298618000135854100e-02
-2.211241718529106670e-01,3.608352129794619167e-01,2.147821839814295919e-01
5.232685842349811046e-05,5.176482110467882716e-03,-4.359017229223549617e-03
5.584395881879459372e-02,-8.004657419230647164e-02,-3.331935829455857229e-02
-1.283828819954546951e-01,2.081860097929502107e-01,1.165034139682133568e-01
1.847597124309141303e-01,-2.714274792186411878e-01,-1.489500564238689373e-01
-1.439396077607963398e-01,2.418597211346436848e-01,1.411300189331461397e-01
1.131442117141776144e-01,-1.851281819636251824e-01,-9.215558985864749642e-02
-1.308181172355723787e-01,1.954171739081571046e-01,1.065736850615277009e-01
2.094768459732108123e-01,-3.486852157764312454e-01,-2.083116199278481351e-01
-5.464378291061946363e-02,7.504884389276331169e-02,4.395118308881704183e-02
1.918065762670045568e-02,-2.381155964135854217e-02,-1.408967142130033642e-02
-3.587886806085177627e-02,4.402836496750980183e-02,8.689590864777793286e-03
2.147736656979047642e-01,-3.403904097664901540e-01,-1.949103818309343150e-01
-2.270695792436908667e-01,3.409885017470746793e-01,2.203674131581442042e-01
1.819916079311217905e-01,-2.895423053038396755e-01,-1.618770068827278252e-01
-2.239047392250489155e-01,3.447036739006682504e-01,2.112031156890713801e-01
-6.746526668054145248e-02,1.008576908770852376e-01,5.882062687059269601e-02
-2.613061320146022395e-02,8.587858616794338817e-02,3.693313221826627357e-02
-1.553151340252138524e-01,2.636146805898971213e-01,1.669783823447981708e-01
-1.014133196217028299e-01,1.499440293999360074e-01,8.073309711257875554e-02
-5.700614632171584206e-02,1.013021193282467453e-01,7.450604422915407810e-02
2.023376691534545524e-01,-3.101729207579225212e-01,-1.744310990300936837e-01
-5.552883651921895064e-02,8.350488127719138398e-02,6.160798213321051764e-02
1.044513554490281715e-01,-1.879099127865924979e-01,-1.074238937357052670e-01
-2.083040780199710840e-01,3.368565555795924316e-01,1.822392568954412373e-01
-1.389693363711765328e-01,2.394239082592330703e-01,1.328248516614382591e-01
2.233142027496591853e-01,-3.425316247695679994e-01,-2.134506170605740549e-01
1.024325464146598336e-01,-1.720273008812396864e-01,-9.602790594679744274e-02
-2.347732102814599764e-01,3.697644026766165881e-01,1.969987525285188945e-01
1.102071851969284172e-01,-1.651913195989118677e-01,-1.006931095168795837e-01
-1.250981919571203249e-01,2.245343137915357945e-01,1.404203728835240472e-01
-2.269864317202612836e-01,3.457880721901969157e-01,2.240563093157655616e-01
-1.295833479390428866e-01,2.052230290464447382e-01,1.125757294406910941e-01
1.960805135413986044e-01,-3.074584061795499479e-01,-1.601953563807045067e-01
1.415927997052175615e-03,-1.834998655678393362e-02,-4.325339439236507502e-03
3.546057215668307894e-02,-4.268667863030001230e-02,-2.905793420851126088e-02
9.722866234182581460e-03,-1.722061427979509896e-02,1.955602445723826199e-03
1.230295058667159463e-01,-1.619830813796399593e-01,-1.206849848146386989e-01
-1.374005311918249095e-01,2.184927312115547138e-01,1.208856089192865968e-01
-3.945195890490985763e-02,8.027541161284672266e-02,6.791779608568623838e-02
-1.259213213896142325e-01,1.915139383210149038e-01,1.334432571127220357e-01
-1.367847000365094712e-01,2.317262229224866243e-01,1.497444950744699077e-01
-2.099261048704573196e-01,3.203037554912701590e-01,2.081309037627935288e-01
-2.024138913520729666e-01,3.215017791943437508e-01,1.905771704044355863e-01
1.297826841592542579e-01,-2.415285884807074901e-01,-1.409952869637159101e-01
-8.179607897895109806e-04,-1.875115696184982694e-02,-1.918855765922741763e-02
-1.686507421468444734e-01,2.490280759258028942e-01,1.381423741097849156e-01
-1.183002924578908793e-01,1.997433904483431333e-01,1.130340566150308118e-01
-1.455671439033593140e-01,2.509228295162581612e-01,1.659035867078305915e-01
-4.465141173002125374e-02,5.404546345638601423e-02,3.725756194527057169e-02
2.115523089856748418e-01,-3.298903831856389579e-01,-2.038394300752913724e-01
-1.987609644957561150e-01,3.423189153980674693e-01,1.950806454105133703e-01
1.431764115900226175e-01,-2.513791624176437423e-01,-1.600415222137014926e-01
1.570181667525449298e-01,-2.401219406023782643e-01,-1.400191074932599922e-01
-9.649513050021582550e-02,1.461032321345834273e-01,8.009026209509638450e-02
-4.351514041349068690e-02,6.971629811208752969e-02,5.837973599778824990e-02
-2.384701491861575540e-01,3.681221257103377553e-01,2.239243144731301594e-01
1.831493226483407177e-01,-2.786543789518768910e-01,-1.623764714061067260e-01
-2.132634987111970970e-01,3.399066573079038700e-01,2.041209409324273860e-01
-6.317608564677840155e-02,1.266277467928103306e-01,9.009661828246869064e-02
2.431697070115791670e-01,-3.907599936375885097e-01,-2.146055746161860123e-01
1.855055850103575488e-01,-3.098752231694095749e-01,-2.037888962728563735e-01
-9.778660850650014447e-02,1.751283935983136697e-01,1.053987536950946047e-01
2.057044087271365229e-01,-3.288756716338040453e-01,-1.960641303687559178e-01
1.670339284560902818e-02,-5.780459682245749423e-03,1.395532053998227093e-02
-2.016466225945509338e-01,3.141425062872870155e-01,2.012558448905398811e-01
-1.418807083919905454e-01,2.074747873675526211e-01,1.393287412746190834e-01
-5.905334450107541100e-02,8.214951477483779796e-02,5.321986020083329522e-02
-5.395180597333088662e-02,5.794375760428054772e-02,2.660308989968297733e-02
6.827197339773202756e-03,-1.103554338184167989e-02,-2.115472692808148883e-02
5.335755719960718485e-02,-9.638537572793016983e-02,-6.217443362465115836e-02
-7.114206082469408388e-02,1.114425778691271601e-01,9.277327100761748047e-02
-9.881326147392090198e-02,1.542187610191985969e-01,1.000287331182721784e-01
1.532425814086993132e-01,-2.361074261525430151e-01,-1.410544960590457697e-01
6.844927277051031378e-02,-1.208595526391066516e-01,-5.364582977273413961e-02
2.085956369948337719e-01,-3.700726587627626296e-01,-1.961245985812302695e-01
7.474226582738394131e-02,-1.133493782291093294e-01,-7.757973377974478058e-02
-1.279295276921178226e-01,1.794457400942996439e-01,1.132168400643187162e-01
-2.948297355916218790e-02,1.893064383874365833e-02,2.613247068550582364e-02
-1.706470194720264011e-01,2.679819595523981191e-01,1.655364290024486928e-01
9.857151086046178623e-02,-1.680696955423234551e-01,-1.044136939418089244e-01
5.939159727900529540e-02,-7.170643039937493746e-02,-6.329905932392226875e-02
-2.354019719664889598e-01,3.681939811763567105e-01,2.335829732538663162e-01
1.353592539352827806e-01,-2.048924911659815440e-01,-1.503867708380595691e-01
-1.748488613621388688e-01,3.011418391303189446e-01,2.021933943444126081e-01
-1.449833690156374644e-01,2.269094175338185748e-01,1.325098920046432205e-01
-1.552329874326368042e-01,2.150140929599162198e-01,1.379666461188372995e-01
3.144679888349467822e-02,-6.738212633824733344e-02,-3.012247135011243346e-02
1.238249768367127440e-01,-1.995641777630841884e-01,-1.215495492138789352e-01
-1.498687408174743663e-01,2.385665893207248589e-01,1.513285748278509757e-01
1.081194727465846217e-01,-1.513392277177736389e-01,-1.082176230315999715e-01
-7.484187874484225789e-02,1.357794631915838213e-01,8.104175560492266062e-02
-2.109653024136247945e-01,3.533615837425486683e-01,2.216955789967444690e-01
-1.221701719289573357e-01,2.257857268889690294e-01,1.484577831913435064e-01
-1.891721532648217852e-01,2.949644600508721237e-01,1.780997357222008359e-01
2.315296044232701966e-01,-3.441347570204104644e-01,-2.152917408768871277e-01
1.033618366158796653e-01,-1.224594431922713944e-01,-7.533005467477806028e-02
1.550343379471551541e-01,-2.551866562428996565e-01,-1.587589570813792983e-01
-3.649365650365996722e-02,2.624405610473792491e-02,2.034570385598629544e-02
1.688892602228301842e-01,-2.548146229020448739e-01,-1.637970964525256035e-01
6.264453831561846153e-02,-7.428772527312105245e-02,-4.541269127073247619e-02
1.574106496744309136e-01,-2.503956098193985680e-01,-1.390833201808921171e-01
-1.017814264953479375e-01,1.789156106012980973e-01,8.915128611591376095e-02
-1.255371686068725567e-01,1.832204377017483954e-01,1.041614724788351709e-01
-3.837160146596300947e-02,4.170834852929698050e-02,2.736508304005228279e-02
-8.886719589584407553e-02,1.434009284391115358e-01,8.769652422533606717e-02
1.631251382329900190e-01,-2.712942065631042121e-01,-1.698889482969655196e-01
-2.087609742573778293e-01,3.368566785278487297e-01,2.040209210131961881e-01
-5.130476813735555114e-02,8.653373879700408666e-02,6.833420772626924711e-02
-1.410017967970668140e-01,1.958847137937297089e-01,1.062168549231017195e-01
-2.282428582135291317e-01,3.373793857198749691e-01,2.062736546828783379e-01
7.121174217110681944e-03,4.515793101514360220e-04,-6.034661792260560299e-03
8.870564169621932005e-02,-1.608613728063972570e-01,-8.447243384994534976e-02
1.821898781260270217e-01,-2.936092563884687978e-01,-1.770320974296502314e-01
-1.539182070140493186e-01,2.323009013178556903e-01,1.165928263937529574e-01
1.941802413219844980e-01,-2.848970267792420019e-01,-1.486268393719445968e-01
1.772579239304496457e-01,-2.539517616158181723e-01,-1.471170101027233501e-01
-1.194947510734658963e-01,1.771056395570712594e-01,1.137230926075315229e-01
-1.295698490006755299e-01,2.124197835422604597e-01,1.332920332460576507e-01
5.816658307764047825e-02,-9.906488219179353238e-02,-5.163912448629432578e-02
1.243088401724122549e-01,-2.035907128695791657e-01,-1.297634013477511616e-01
2.109554483376507861e-01,-3.102491743297958182e-01,-1.922407569068378952e-01
-1.067005170240273582e-01,1.292720296068405328e-01,8.957006612232372433e-02
-2.377705755675484089e-01,3.603216641169266210e-01,1.926378378401672475e-01
-2.009121084366016774e-01,3.293639479488194022e-01,2.019314993489225440e-01
-7.383865368321679279e-02,1.398789694266300843e-01,5.691949108188507078e-02
9.472479330823109153e-03,2.320661860470108698e-03,-1.736121621188648281e-02
-1.585959862415569910e-01,2.638395197723232832e-01,1.561088107027128469e-01
