1.088616022769774844e-01,1.092235837376678009e-01,-1.834695595440299920e-02
1.986408691530789916e-01,1.726566902791993319e-01,-3.620545216306706587e-02
3.957903310976072786e-02,3.096414200680812009e-02,-1.049575520212118682e-02
-1.408431517850730341e-01,-1.150575556559914614e-01,1.516096789764693510e-02
-9.897397958358436498e-02,-9.313290656560768710e-02,1.773716375626646288e-02
-3.129982380372988704e-01,-2.871870817092830319e-01,5.839286370237314200e-02
-9.923596982071394845e-02,-9.825146592064082363e-02,2.082982282180846634e-02
-3.480585598821336890e-01,-3.239605808637417428e-01,4.670812964626294694e-02
2.252633771435957333e-01,2.233756912214757417e-01,-5.332594141514451769e-02
-2.596415171403551603e-01,-2.430180513014393306e-01,2.735792098461898442e-02
1.276862649408661565e-01,1.222367021852290847e-01,-1.835791378519196354e-02
1.953312763137904015e-02,3.792952149267026646e-02,3.834140765269783944e-03
-1.183614828397410584e-01,-1.220940079029404768e-01,1.306139378473905599e-02
2.224550544308182276e-01,1.859444920740777607e-01,-2.174783788214888075e-02
1.298606338039229868e-01,1.241849807340328071e-01,-2.602070241182572255e-02
2.069473720138235440e-01,1.674931278045326821e-01,-3.316027361000657703e-02
3.501143942906190798e-01,3.367318128429485635e-01,-6.794840785432572361e-02
2.454727976129825739e-01,2.174521138570517376e-01,-4.216660610621294353e-02
-4.619450964393825854e-02,-2.154284020300667804e-02,1.271340214959633570e-02
-1.857937303038602606e-01,-1.685029602182641362e-01,3.688996310642427001e-02
-1.812589595481938765e-01,-1.513852279695953040e-01,3.708801928560716277e-02
-3.262945286450592841e-02,-6.798802644726786859e-02,1.915625794787400790e-02
-1.409872672865684073e-01,-1.218390023550143253e-01,1.970202864452605049e-02
3.079187193144684032e-01,2.691430812500243963e-01,-2.331101377617118137e-02
3.257965917721566962e-01,2.946337846235714264e-01,-4.893040000777915122e-02
2.901451276798296397e-01,2.543198733442556536e-01,-5.432387235418179722e-02
-1.681337355158069036e-01,-1.422131987036752976e-01,5.438178636056723893e-03
-1.399210918729378583e-01,-1.171002411372541324e-01,3.307161365947544618e-02
-2.542724698579573173e-01,-2.562174548512898276e-01,3.191331986368953905e-02
2.562664382823006681e-01,2.273276040642174256e-01,-4.313367266035918191e-02
3.669866388397945850e-02,1.293531400688476690e-02,4.049274918920193686e-03
2.754161534426367852e-02,2.121223793612134895e-02,-1.099746715032590312e-02
2.884979959396594129e-01,3.067560947307813590e-01,-5.700636611337681764e-02
2.886688643482324275e-04,-9.527440709008886191e-03,-7.763269498955922311e-03
-7.602979232951023736e-02,-7.336527814582434470e-02,1.471630298071247706e-02
2.874934866864666261e-01,2.680294237966192039e-01,-5.014255239723584140e-02
-2.516638830794576953e-01,-2.230830300333494776e-01,2.742174487897497404e-02
9.120485654619681082e-02,7.472696787251147110e-02,-2.429030169901391992e-02
-3.470581340179829666e-01,-3.016062847500123323e-01,3.280869592579820776e-02
-9.075509008184690085e-02,-7.314769785040371730e-02,-4.363462598128610252e-03
-2.523358079963851017e-02,-3.110347316197579343e-02,8.529192522383287345e-03
-1.189047206377603916e-01,-1.167992919471867591e-01,1.348777125297319010e-02
-1.044920907862770670e-01,-9.851035359580007089e-02,1.828908406434769790e-02
-3.504374338807861311e-01,-3.021143002939702948e-01,4.658031514266976203e-02
-3.337995533204934362e-01,-2.854480378673020513e-01,4.099925178818077109e-02
-1.987015844824160105e-01,-1.974712282385516771e-01,4.887394295301546177e-02
2.758205954355981704e-01,2.628956339722867686e-01,-5.768928363591879771e-02
2.026291215180167082e-01,1.692274786868240011e-01,-3.665558114555784314e-02
2.734998137354028858e-01,2.537673208638231426e-01,-5.442708726580300360e-02
-3.555615104588816799e-01,-3.118334029031399335e-01,6.670147361641935724e-02
3.343869716565551209e-01,3.197144750604483110e-01,-3.950214907485516402e-02
1.696825447219330318e-01,1.462953023020810706e-01,-3.959573961809313009e-02
1.243147070415164118e-01,1.083249747066319379e-01,-1.285631624080494154e-02
-2.036088610026133838e-01,-1.723093621728212232e-01,3.721040892491803143e-02
-1.751511434673280188e-01,-1.702940285178517199e-01,3.211595879404106901e-02
-8.751157711043358600e-03,-1.562648301224472697e-04,1.071985844530500692e-02
-3.393226796537076040e-01,-3.199551622565460773e-01,4.358811470569651930e-02
2.560711787709464907e-02,2.762201382948132125e-02,1.151696041095332315e-02
3.485629281826488346e-01,3.280524318231988201e-01,-6.742218626013554705e-02
6.188322752545705879e-02,4.451544139755689300e-02,-8.156143037971958290e-04
-8.088408386579613862e-02,-1.085253270372293355e-01,1.343674587086523056e-03
-3.927813996158793786e-02,-4.165265070421458188e-02,6.984671807717598123e-03
-3.071387612584913218e-01,-2.793276637923144956e-01,6.844954441565206937e-02
-3.467717278605996212e-01,-3.123780081521666530e-01,4.813763235874689989e-02
3.020294933369847487e-02,3.603825227775672019e-02,4.875421962532494255e-03
3.206189332202757369e-01,3.061612273207619528e-01,-6.403939925172953684e-02
-2.669520085819114819e-01,-2.511942586707766045e-01,5.726945184510477682e-02
-9.648274125302061521e-02,-8.919302838950721180e-02,1.471629859996700582e-02
-2.177486022795387111e-01,-1.840364549059420596e-01,2.102712775752921606e-02
-1.290589396976480618e-01,-9.553615385081494493e-02,2.141288415286331237e-02
2.335194945093769514e-01,2.233049950182888765e-01,-5.609240691404318579e-02
-3.453418792168982399e-01,-3.108442088208548393e-01,4.034377529147132463e-02
1.002076019289796227e-01,8.021833690586642474e-02,-2.808068402864407134e-02
-1.322226911974918040e-01,-1.156746453069139313e-01,1.657210559824712562e-02
-2.604195991978852098e-01,-2.456275001779810729e-01,4.360550159053402236e-02
-1.733238184452587372e-01,-1.585262929739601201e-01,3.200618994514281557e-02
-3.077465101798824640e-02,-1.750519767375052771e-02,1.260277109272443449e-02
1.809642595497108764e-01,1.482766600175124960e-01,-3.328499158654889267e-02
-1.539757159642645423e-01,-1.471471053875962332e-01,3.568634983612032491e-02
3.214290108804601087e-01,2.880152697105497483e-01,-5.017261704616805817e-02
1.522201602696666156e-01,1.379832353155062419e-01,-3.369859552948548803e-02
3.463276625294222644e-01,3.157913246795538420e-01,-4.818908032462462104e-02
2.725054055351804894e-01,2.484003913017018839e-01,-3.472495105354004435e-02
-3.294664224102611567e-03,-1.374308839140851723e-02,-7.613481065784053620e-03
-5.199428359452416132e-02,-6.253311377230137691e-02,9.191305378421960742e-03
2.195858164238436230e-02,2.095394995178386302e-02,-5.834206238251358513e-03
-9.709266073392200380e-02,-7.238207645527783285e-02,-6.613603142155470788e-05
-6.326919972684443005e-02,-7.673092933966439710e-02,8.323447045608171196e-03
1.105038698984618928e-01,1.151101242918489281e-01,-2.660314091435980743e-02
2.457112835326854816e-01,2.004305396603363876e-01,-3.825781128686716465e-02
-1.578630298554381181e-02,-3.861259820557585553e-03,2.360940970745436032e-02
6.025649556136568330e-02,4.614772738999540352e-02,-2.108274196384814919e-02
2.888996643976509127e-01,2.741051812199397086e-01,-3.941757286886053702e-02
3.866058933033375555e-01,3.517977937885887196e-01,-5.810566726607559879e-02
-7.574674150664609251e-02,-7.521444556895184874e-02,1.537466806926881743e-02
-2.765454431025928805e-01,-2.503537774940540750e-01,4.337888925774516236e-02
2.633290741623878772e-01,2.529034215439158739e-01,-4.960538536531337167e-02
-5.966611898849570605e-02,-4.356541395838935821e-02,1.468832277536964021e-02
-1.584582254498907161e-01,-1.466028567849463615e-01,2.181752562079077376e-02
-2.286846655392660299e-01,-2.040461145698619083e-01,5.762775681736703043e-02
1.436058039814520348e-01,1.208059662464857631e-01,-9.036380941302856948e-03
3.133372747478407883e-01,2.721905063693767501e-01,-5.357196078134690564e-02
2.266119228979240063e-01,2.146354923321558694e-01,-2.972055349407599911e-02
2.822015116822298442e-01,2.543620262812515964e-01,-4.830252219486270288e-02
-1.026337799563669662e-01,-1.024120151733727835e-01,-9.475461691076537268e-04
1.016100317477457576e-01,8.839493903958513255e-02,-1.540871948106010969e-02
8.207463321545122037e-03,8.645222727753074099e-03,-1.209329929345087130e-02
3.033121788784286510e-01,2.655432899931992607e-01,-4.610743776816351308e-02
-1.753275151840251178e-01,-1.423579828692007887e-01,2.815735075364855788e-02
-1.806953144738288608e-01,-2.015253170987193199e-01,3.095436683066630709e-02
2.190670749015622698e-01,1.924384068779723123e-01,-3.646108761453271951e-02
3.895304205022941113e-02,1.480353164354977595e-02,3.756734003709249776e-03
-8.796918243442182483e-02,-9.822166194299752906e-02,1.145921185519375302e-02
-3.330025598513609020e-01,-2.849185079957370914e-01,6.186498546204617643e-02
3.045841739266661463e-01,2.919607933492191498e-01,-4.877621597098934919e-02
1.562544669129134201e-01,1.336250023658351049e-01,-2.298518663139180115e-02
-2.265340468218104975e-01,-2.095595323228713058e-01,3.389911661608596694e-02
9.282083455002156092e-02,6.683410287828224494e-02,2.150028105515106643e-03
-3.255780527072307112e-02,-3.052719631132832026e-02,4.328702022478853224e-03
1.698755505871573368e-01,1.443620285313224061e-01,-2.714211836286783280e-02
-1.839322801804613161e-01,-1.807976875443788323e-01,8.574971883637160647e-03
-2.158538540192269095e-01,-2.153076095148774016e-01,3.852406664742395737e-02
2.216749010344441495e-01,1.802201210432355927e-01,-2.793379762619118203e-02
8.966308694983815553e-02,5.398942388751500066e-02,-1.265015322750950508e-02
9.216069479964678068e-02,8.473058689920875963e-02,-6.380565722552552013e-03
3.677529844531978176e-01,3.380587892710807951e-01,-6.034477070039774571e-02
-1.563942406724574963e-01,-1.350667046290166540e-01,1.421318340315439258e-02
-2.952961338001840463e-01,-2.815999110788640070e-01,4.607544178258798917e-02
1.053578913788811022e-01,9.542822247411984760e-02,-1.516219963285895568e-02
-3.644900265158390051e-01,-3.297181143984443952e-01,4.761532003554505565e-02
3.332778102302743628e-01,3.285871524730663573e-01,-7.995096368907522733e-02
3.057635607165073988e-01,2.980610632621794043e-01,-6.369356687266365669e-02
5.702512609711604674e-02,4.240270067713421825e-02,3.513193682662137498e-04
-2.681133512733961388e-01,-2.434293951108139897e-01,3.672171512240982039e-02
-9.985947275889153762e-02,-9.282373773244738391e-02,1.184072737723733566e-02
-2.416068081303793802e-01,-2.280202573258948984e-01,3.902455355296068767e-02
1.196739869981237048e-01,9.187072861139336521e-02,-2.028052185306326513e-02
7.791032375675630006e-02,6.371296393415322445e-02,-1.475341180496202165e-02
-2.373548836489634550e-01,-2.118968899096331793e-01,2.904262937968542929e-02
-2.476177731914118996e-01,-2.156861746831421622e-01,5.236972409720353633e-02
-3.368950953748366395e-01,-3.160053722116075159e-01,6.492200554779581356e-02
2.722833189865459524e-01,2.571147861602605111e-01,-4.701090485808252090e-02
2.357143039024512665e-01,2.017662728164538177e-01,-2.850253556278208034e-02
-2.228110264751865799e-01,-2.101125100734917150e-01,4.712198927492064482e-02
-8.014752221734515458e-02,-7.997768676908098562e-02,2.173869458232613808e-02
1.526213459669216455e-01,1.385275741431334362e-01,-2.964944188849521697e-02
-2.728556220413169697e-01,-2.639075004905814814e-01,4.172022013568363330e-02
9.542503957963602290e-02,8.804229009082215063e-02,-2.177525079034717953e-02
1.634188177945084530e-01,1.851034671757458283e-01,-3.697827535355252548e-02
-9.741640619712488292e-02,-7.912023076325191973e-02,1.644537765208589630e-02
-1.195154995597535463e-01,-1.296024819422944840e-01,5.850660978482975783e-03
-4.277787316442276111e-02,-1.973969685434343382e-02,9.759279716447485584e-03
6.627797867176238311e-02,5.990825740208905598e-02,-1.135327655878739378e-02
-2.412500962766547241e-01,-2.128604036446765102e-01,5.079033671741706168e-02
-1.808637138359302232e-01,-1.797967056817990350e-01,2.430949369374429264e-02
7.179035089542230852e-02,5.949485522105332075e-02,-9.532405015015527755e-03
-7.254637050425051525e-02,-7.901297364623334485e-02,2.416060995148444634e-02
-1.229787254295351545e-01,-1.150961414756406787e-01,2.359229677333096395e-02
-3.235513495962954924e-03,-1.344348498230258336e-02,1.221365405925531680e-02
-1.758626816364516898e-01,-1.614393824371220254e-01,3.352844662971374984e-02
-2.172553664446052746e-01,-1.925291898382538724e-01,3.382041031139415566e-02
9.109069287668487835e-02,9.131206920105025548e-02,4.625654103921292455e-03
3.528162431292728440e-01,3.272881383827139223e-01,-4.383913212393399789e-02
1.312557508048710631e-01,1.074533627514107637e-01,-8.937736681177498033e-03
1.936845369020506746e-01,1.697379700888405063e-01,-3.870526543973199646e-02
-3.700786224753648823e-01,-3.303406555417873203e-01,7.552976932158932122e-02
7.743444601701957031e-02,8.400387417427535031e-02,6.875446137939642682e-03
-1.575433936347393205e-01,-1.596051236726310218e-01,2.409306232241232790e-02
1.967004405217435276e-02,2.949480491911762869e-02,-6.842837863584302427e-04
1.410059859866359330e-02,2.607002823991999216e-02,-6.955738990848623141e-03
2.384581983468281596e-01,2.073038629261421406e-01,-4.362872943334657888e-02
-3.159734194855124967e-01,-2.753260858449854687e-01,2.826327689963175488e-02
3.290194630223405858e-01,3.091864902507858170e-01,-5.705774918335233120e-02
1.653103944837867323e-01,1.641646864408103090e-01,-3.561688363510478322e-02
1.093422594613522973e-02,-1.225393972034802010e-03,-1.662719934280509210e-02
-1.145115725277001950e-01,-7.013451496318949541e-02,1.242070983504950030e-02
-2.022468927704016428e-01,-1.858019357607054722e-01,2.990947035976885063e-02
2.447471467155747926e-01,2.133360627696866962e-01,-3.538015045617958626e-02
1.653061774094956859e-01,1.668249415221686183e-01,-2.375699168900552785e-02
2.281543319290106897e-01,2.060044322510221071e-01,-5.431579379914205224e-02
5.905834460271515429e-02,4.219428792302725578e-02,9.234598213394505303e-03
5.997586343235000728e-02,6.631276007048382548e-02,-5.193245003933331071e-03
-3.158092744803783769e-01,-2.882585736100297669e-01,5.038318696686189258e-02
-1.301620024958536903e-01,-1.225351805684430084e-01,6.815386169758079656e-03
-1.966042818364807376e-01,-1.917507817413754700e-01,2.279446834123851143e-02
3.306099187814454110e-01,3.009348882922733281e-01,-3.964286837911043526e-02
2.641987761046725725e-01,2.436858570361677412e-01,-4.593497245058487943e-02
-1.615012358724143282e-01,-1.698626970754000820e-01,4.498390673019252856e-03
-1.317419975638086105e-01,-1.373076099766924185e-01,3.789626012020879536e-02
-1.999768642504090310e-01,-1.989085077884968356e-01,4.069997216322782801e-02
-8.693637660665075317e-03,-7.835006936532547955e-03,-1.025509033628323879e-02
1.896119965771995985e-01,1.464045947878139797e-01,-3.151024642786957874e-02
1.345174475598538144e-01,1.166606597335654583e-01,-2.510507559056067081e-02
-1.344245121528315212e-01,-1.267067123447102872e-01,1.191014995773073855e-02
-1.590692915571105259e-01,-1.413523441042361939e-01,4.862901508955141949e-02
-2.204111958824835765e-02,-1.007029471184056613e-02,-4.218946005172216282e-03
1.702531683004523677e-01,1.430495169626261054e-01,-4.253143742223645940e-02
-4.959133759159688182e-02,-2.068673453047163713e-02,1.998385556922426887e-04
-1.127640667894117682e-02,-3.471166082370096342e-03,9.813940685977927403e-03
-3.214933446006442708e-01,-3.045168834075570596e-01,6.027423144512764064e-02
-1.603623738323961545e-01,-1.423079878175573521e-01,2.437949509510872401e-02
-2.410463361798761139e-01,-2.258178850237031743e-01,3.058961256848659674e-02
-2.284647037823585858e-01,-2.259819560967821217e-01,3.985347365968552186e-02
-2.831944245268294136e-01,-2.533201964079117574e-01,6.931386839254469190e-02
1.087011984212402638e-01,9.334306248758988955e-02,-2.579569741612576170e-02
-3.590699464484995440e-01,-3.316438136650985413e-01,6.027295627566073982e-02
3.896829748639980134e-02,1.223288972421615779e-02,-1.919633417469534205e-05
-1.510929911831070671e-01,-1.354622019629908858e-01,1.984761034176574235e-02
1.260451800466537084e-02,9.588625455800003569e-03,2.632031849648227596e-03
2.418148047284998103e-01,2.187297623124361545e-01,-4.869870920309746914e-02
-1.513914935692942387e-01,-1.365974196428010046e-01,2.132549343046220847e-02
1.685627557151982703e-01,1.751909839337310315e-01,-1.485651320577366895e-02
2.465655270734461169e-01,2.166954760876459996e-01,-5.163866739832990993e-02
-1.194535190998002351e-02,-7.271443013199649537e-03,1.796341949497117776e-03
-5.711064065972774840e-04,5.172827499827050909e-03,1.499697196627007567e-02
-2.083145978322189784e-01,-1.879853472246353074e-01,4.080655408874107881e-02
-2.840795966482688728e-01,-2.538282370486408812e-01,3.119125190423806607e-02
-1.938397617568296816e-01,-1.590470316595997691e-01,1.360038003891471219e-02
2.910465350846952459e-01,2.656668180518460542e-01,-4.936717118195566023e-02
-2.047628351057204921e-01,-1.642580580980829985e-01,3.349478990085565794e-02
5.449910753262787039e-02,6.430052808223951644e-02,-8.907527124199553573e-03
8.537317845821329465e-02,7.149359866680589370e-02,-1.816484185544639182e-02
2.107470818176962191e-01,2.089762624443959049e-01,-4.224073052456744914e-02
-1.842894517809375021e-01,-1.665394746800127057e-01,3.084887013287461108e-02
4.729812927108528048e-02,2.146480810083204599e-02,-2.178240029471194272e-02
-1.475027260411716605e-02,-3.660888899873025737e-02,6.162371043287440293e-03
-3.239770999340265134e-01,-3.011200862940903167e-01,5.579101016847819172e-02
-1.533729960478160681e-01,-1.554251024863701758e-01,2.109423479796818796e-02
-7.627418524196466487e-02,-7.671392667325267756e-02,1.329595960281300046e-02
-1.197608364320976865e-01,-1.138886696720540215e-01,3.789585362080868242e-02
3.444184940205734236e-02,5.219549106752910395e-02,-2.272737457992173721e-02
-1.619553874807290184e-01,-1.652925443039936493e-01,2.817022852375481237e-02
-1.600218682444335960e-01,-1.435781889813264878e-01,2.674453426774168335e-02
2.795719555322334071e-01,2.685409850518960528e-01,-5.547169514736124268e-02
-2.129117405583764305e-03,9.780837178457029227e-03,-4.825978410922993414e-03
-9.838648797270095614e-02,-7.882630505982773927e-02,2.118688262973601050e-02
6.317997599086606908e-02,3.275542489905191451e-02,-3.773018370032283839e-03
1.806827709570907881e-01,1.817328899769614370e-01,-2.766080727299761663e-02
-3.903881929432734266e-02,-1.853751973697093103e-02,2.144098591682946572e-02
3.656339380361264269e-01,3.304784338321986592e-01,-6.666952400102510445e-02
-1.714355884301368149e-01,-1.342956318980474684e-01,1.247342678952399579e-02
-1.375468923114405717e-01,-1.108347187158933433e-01,1.554585391724165079e-02
-2.516720809340772247e-01,-2.266612706166599434e-01,4.118032000000135945e-02
-3.491799747638832385e-01,-3.333438827347017241e-01,4.147507135493781055e-02
2.308579637610515822e-01,2.005694498538929949e-01,-3.795897412703055224e-02
2.620735312173608222e-01,2.360631574388094567e-01,-6.495749149843328685e-02
-1.169044289641544693e-01,-9.414351410575835799e-02,1.766244785277652080e-02
6.799001713890936993e-02,5.957366353548255306e-02,-2.435697370376423143e-02
1.880504417357564961e-01,1.668524762911506309e-01,-3.137832645302410239e-02
-2.749711691350165688e-01,-2.545594601425538728e-01,5.695009163231683907e-02
-1.503012383623071324e-01,-1.126334277797938765e-01,1.746661738364186853e-02
-2.092617251417264179e-01,-2.075337292302014691e-01,3.945724062669143245e-02
-2.154678378297104346e-01,-2.213354142425067173e-01,3.187778217110334711e-02
-3.029657845526941284e-01,-2.681194594727441816e-01,5.962653596715111748e-02
2.136188900050791928e-01,1.978915838103516012e-01,-3.629477549169945333e-02
4.720594741987798465e-02,4.972026525770493338e-02,-6.148744631083408879e-03
-1.874067027780494665e-01,-1.539338604459747906e-01,3.809435265745231280e-02
4.021922055538333651e-02,4.389214132339609026e-02,-5.986127080464740931e-04
-1.587612249466691106e-01,-1.302761609963086764e-01,3.591249821084632754e-02
2.329964671767474349e-01,2.193620214610510211e-01,-5.656238754735833096e-02
2.908451980835757844e-01,2.590754358058908746e-01,-4.701782880792765990e-02
2.028701103438614040e-01,1.847457764468263819e-01,-2.833223950040893863e-02
2.822020517634063128e-02,4.361658294363905675e-02,9.343108553342862124e-03
3.491236635934088506e-01,3.212191378565777966e-01,-5.152652375782303812e-02
2.546893324462153885e-01,2.583881677878655525e-01,-4.117518392430912638e-02
2.114720423104033964e-01,1.922626606005149730e-01,-3.505835908107855087e-02
2.155160789075617062e-03,2.618871843992273685e-02,-9.161611475021657486e-03
-9.160384823700981616e-02,-6.680111510469863290e-02,1.215540955935803455e-02
1.149857193458832388e-01,1.058319126883731087e-01,-2.387897754438474476e-02
2.522270820252737744e-01,2.340273445063390523e-01,-4.299164351228443315e-02
-2.240586097704382607e-01,-2.209856180498409872e-01,3.570378608416198418e-02
-2.585829189889975455e-01,-2.415703277301133045e-01,1.785879288140879151e-02
3.275481738435911949e-02,1.749459610582732028e-02,-1.103472193455461679e-02
-2.882713060168907160e-01,-2.466416313739452359e-01,4.565495421623401440e-02
3.554155992918351936e-01,3.358639230235089812e-01,-5.774180242442730066e-02
-3.111831476618109882e-01,-2.636382602060609592e-01,4.847646729264904614e-02
1.590633227190237087e-01,1.292679365466564145e-01,-1.370743626922222777e-02
-2.117366945605589912e-01,-1.813595917357228304e-01,3.142936349711923649e-02
-3.128341104700618075e-02,-1.067869428819679181e-02,4.050893827438384158e-03
-2.278754441488251015e-01,-1.900743279325911028e-01,3.077161668622326735e-02
-2.733733733908458308e-01,-2.518449325883413414e-01,2.893245219350195838e-02
2.196829169963821771e-01,1.634829619056790972e-01,-4.315909606489736622e-02
-1.349289898627761275e-01,-1.200450642727286105e-01,1.860625341021485482e-02
-2.995119212639505979e-01,-2.848070191882734470e-01,5.868008240029127381e-02
-1.130860423577949442e-01,-8.377030179697765588e-02,2.210462403222387961e-02
2.659373330022012372e-01,2.512809901896209674e-01,-4.669694954462443037e-02
-2.685850154863731465e-01,-2.442420264667783669e-01,6.627307793377359979e-02
-3.322311812860108127e-01,-3.235962376567272369e-01,5.976169144496545904e-02
2.051300509264813721e-01,1.914986192047357372e-01,-4.006266917335853106e-02
9.453587694347098669e-02,9.935309595485057599e-02,-2.047286506749626533e-02
2.068231432102352330e-01,1.607336948762155826e-01,-3.644442532408144475e-02
-4.272402538629357927e-02,-3.872148799962093352e-02,-6.744103455463473784e-03
3.514383084718778472e-01,3.051956418874821608e-01,-4.793257435107659004e-02
1.181802462721973090e-01,1.209893180675429003e-01,-1.917593257635900536e-02
-2.333947520733480607e-01,-2.345041037083754054e-01,2.764743837681695252e-02
-1.973286270362513972e-01,-1.757755940002103390e-01,3.696498001026379820e-02
2.318199201174895308e-01,2.232071806311872741e-01,-3.533192576281241060e-02
4.977207492615100259e-02,5.273521509706673160e-02,-3.063792236655936245e-03
-1.649035603226868263e-01,-1.386121037876852091e-01,3.517723828682671472e-02
9.745722977928926445e-02,6.892870030393774550e-02,-2.119440683565726111e-02
-9.391809494603173616e-03,-1.689488565422857941e-02,-1.181131026423622686e-02
-1.288368009269537373e-01,-1.202915117698428044e-01,5.494595622917521072e-02
3.479799065874217279e-01,3.210679995132446063e-01,-7.407042576525306454e-02
1.184015629506418726e-01,1.024012794321370878e-01,-1.927091669075636088e-02
3.071807950838516543e-01,3.042023376600488938e-01,-3.837354240616999007e-02
-1.498417842288149726e-01,-1.484594230594002695e-01,1.416555824369214282e-02
2.823729823564439800e-01,2.612517355778720129e-01,-4.830356939888616474e-02
-2.250064122695530355e-01,-2.122572578485636130e-01,3.270396294786803715e-02
-2.586794746607659623e-01,-2.437159787638787656e-01,2.839538841832455265e-02
-9.795649380565439601e-02,-9.394882790061338806e-02,-2.815665396094206444e-04
1.158939373489382973e-01,1.032490621990476976e-01,-4.001987239422405418e-02
-8.895122093109919525e-02,-8.141806403393200831e-02,1.606686421207375801e-03
2.097070443454593647e-01,1.850174564819312972e-01,-2.655004173213726393e-02
3.039833533007611499e-01,2.949500989273158846e-01,-6.409409653345320146e-02
3.787594671374644451e-02,2.846082318214085069e-02,-7.198427104256272316e-03
-2.190382453532129219e-03,-1.880183653199187942e-04,7.451345936682745100e-03
-3.728942959610697661e-01,-3.282922592990442090e-01,5.313034268887131123e-02
-2.650238993031809320e-01,-2.234254790608478924e-01,4.886464845005189517e-02
-1.836765779188170022e-01,-1.590876651003055586e-01,2.932156492631699668e-02
-2.500363328338988875e-02,3.086270267009270712e-04,-5.407514963125276131e-03
3.686562473993955091e-01,3.440609150499218671e-01,-5.231266025543535730e-02
1.501427159361583552e-01,1.411056179186455095e-01,-4.641733956314147980e-02
1.873449273554284311e-01,1.461186666011057844e-01,-3.712734855537038609e-02
-1.223201835167971180e-01,-1.278876336508986411e-01,2.547440414988066948e-02
-2.727599889064764027e-01,-2.430429984473742588e-01,4.553165177317701484e-02
3.124598524412401310e-02,4.611409256497314701e-02,-1.384590568894546528e-02
-1.462403700695007469e-01,-1.405702500442977676e-01,2.877459502202641198e-02
-1.768351004596940557e-01,-1.809539908606239977e-01,4.870747228611794349e-02
-2.059397615729328668e-01,-1.736070125556027910e-01,3.568623018679965841e-02
-9.901772153737560533e-02,-8.958031377837728793e-02,5.274014135540917511e-03
-2.540049802949519431e-01,-2.150596854795643054e-01,4.784886353420654548e-02
1.100304558861633086e-01,9.109217796092718145e-02,-2.735437375366393808e-02
-2.602086731742935810e-01,-2.520808752680596676e-01,3.672100521024292130e-02
1.947817086586985103e-01,1.686999599589988907e-01,-3.455387981815635171e-03
2.485917961798591036e-01,2.352783654400237845e-01,-2.759192828098681188e-02
-2.338411282224301946e-01,-2.101580394507200078e-01,2.401772521030970386e-02
2.532844844603409085e-01,2.063233292424911103e-01,-4.561521951339681663e-02
-5.034666139217452985e-02,-1.879013043478889797e-02,4.058433946522072705e-03
3.312629360303043224e-01,3.038140564764376106e-01,-6.568328533843482975e-02
-2.422750096227929001e-02,-9.738960615651546734e-03,-7.254610807971379784e-03
-5.003448915099600880e-03,1.632299564963444333e-02,-4.064246642006733023e-03
3.371285635525682056e-01,3.111443629135048905e-01,-6.994655187096122939e-02
2.507616802212085383e-01,2.517246448199843001e-01,-5.020779024491565934e-02
-1.143197982861599987e-01,-8.276415623294974822e-02,-1.596723945482416080e-03
-3.346241275819075017e-02,-1.307331184831654267e-02,7.286263217309148395e-03
3.381406058011219851e-01,3.073319360444292103e-01,-5.728101551080034409e-02
3.054668900146976784e-01,2.855748129625195197e-01,-4.416817029571681180e-02
4.713907524219054269e-03,1.878332930366090336e-02,-1.295743108792504761e-02
2.067197723245063345e-01,1.647046480764866871e-01,-3.338347329034366956e-02
2.962858848503934217e-01,2.926125388367115665e-01,-5.338492394685101505e-02
-3.271412475710572809e-01,-2.952474655760511379e-01,4.823106544526598038e-02
1.320790161145475594e-01,1.118764551762576193e-01,-2.567662147696480809e-02
-3.947181571288751350e-04,2.448832370508473473e-03,-1.574744055717103297e-02
-1.576535637222313546e-01,-1.441765486067061730e-01,5.332193427216263409e-02
-5.231803648915335503e-02,-5.006771684416545104e-02,-1.413381954803371145e-03
-1.054942153256514664e-01,-9.683954761120969201e-02,1.727480087352572038e-02
5.262072783346500443e-02,4.258452570060447528e-02,-2.617006924566678706e-04
2.335697505586264433e-01,2.214295794125950290e-01,-3.799063706259420137e-02
3.540669604241438728e-01,3.253668054986965652e-01,-5.112864698731058033e-02
4.679641911631947024e-03,1.345725756165806926e-02,1.649855121499711752e-02
-2.611213322499936762e-01,-2.281486572667723034e-01,3.708863492897414987e-02
-3.089628427868745253e-01,-2.763047818933666577e-01,2.324044966236780974e-02
2.240797334924266304e-01,2.286961523167242161e-01,-4.221543850084868293e-02
6.301370704147134238e-02,5.427475398569586718e-02,-5.971223337045172483e-03
-2.889901378598103837e-02,-2.773163315581399918e-02,1.961046046913114162e-03
-1.031922497485586454e-01,-1.163906964703492752e-01,1.478507467769778552e-02
-1.473196022117092274e-01,-1.298919265042381699e-01,1.571210458547470448e-02
-2.654081963201422867e-01,-2.341297323657152984e-01,4.562299703391666655e-02
-2.850920245603575931e-01,-2.654185746613970664e-01,6.124500712601822772e-02
1.572958478375012792e-01,1.310718978072503149e-01,-2.144136844442639037e-02
-2.392958037454766540e-01,-2.073574311780590484e-01,3.345426848602551378e-02
7.076029256831437020e-02,9.042803744620640793e-02,-1.026410581654309435e-02
3.515215773218682838e-01,3.144832464681054374e-01,-5.255668584898013501e-02
4.839093170149555943e-03,-3.083143203914797369e-03,-3.588473438600343988e-03
-7.631218763210850797e-02,-6.415563352745524972e-02,2.639481235268678616e-02
2.022149566629133643e-01,1.766595133149050367e-01,-3.601599903341570069e-02
-2.617311848664881646e-01,-2.402563549592114933e-01,6.139069873613775541e-02
2.358384301606150646e-01,2.057853639812971536e-01,-3.413263049035942381e-02
-1.791182801771283861e-01,-1.481444582475824057e-01,3.919911147836194210e-02
1.886058378713942052e-01,1.709696059567424875e-01,-4.308635239527858901e-02
-3.401508154896215608e-01,-3.015283028846884594e-01,4.726272292335619712e-02
7.221209267204976856e-02,7.089073726415374976e-02,-1.760384950509401303e-02
-2.274073194829040467e-02,-2.387496760130131818e-02,6.800872943946293867e-03
4.079374481787390039e-02,3.192815534864918564e-02,-2.485482577295991188e-02
-3.304595259236320359e-01,-2.954028762089922489e-01,5.930478848776193218e-02
3.316265242555373471e-01,3.222749575998628546e-01,-5.057913638875057710e-02
-2.808895825400946622e-01,-2.479692898868308126e-01,5.265103008299022724e-02
3.349844328616459199e-01,3.135463841375034644e-01,-5.508907205140762403e-02
9.761420982750701469e-02,9.095237287685883909e-02,-1.956614603349408898e-02
8.527063845446708479e-02,4.625390799642976197e-02,-3.389834297795716895e-03
2.581258096233139399e-01,2.326784448524168991e-01,-2.700145473189672143e-02
1.445431685086823459e-01,1.311543110899301978e-01,-3.451847967057725813e-02
1.001787112435441746e-01,9.500228428268070457e-02,-1.327599404636895224e-03
-3.002507977464134448e-01,-2.714899121347545408e-01,6.096447736596452560e-02
8.175427815340206850e-02,8.437132465505563228e-02,-7.055347219614745667e-03
-1.838005323864811968e-01,-1.531607152182975218e-01,2.278757407469574406e-02
3.267003723125370684e-01,2.817273697706299540e-01,-6.301293965109192041e-02
2.333274495951746796e-01,1.963135532335633648e-01,-3.602798354998523050e-02
-3.330433262165869435e-01,-3.147166233614169251e-01,5.285738248453051430e-02
-1.674349497826060351e-01,-1.432700972216199853e-01,2.732021902193941185e-02
3.578026030740779628e-01,3.113021141380799550e-01,-7.563711534045856888e-02
-1.602119459294940318e-01,-1.519001049107087387e-01,2.883380921138851277e-02
2.204388738384691071e-01,1.918972811311967508e-01,-1.911107576266309060e-02
3.366572209965188467e-01,3.249595558478445834e-01,-4.854547777480634763e-02
1.988811077656308934e-01,1.746106597755446854e-01,-3.923076649591644011e-02
-2.971747587848492800e-01,-2.568495765324703139e-01,6.600188863453768096e-02
-1.837973740453308080e-02,-4.424456457681197850e-03,2.117970398580688635e-04
-4.092712943011141830e-02,-4.628270941354684087e-02,1.033678560211524940e-02
-1.600411209297771323e-02,-5.642426648981500349e-03,1.034115479689186150e-02
-1.571665417607982507e-01,-1.751335395592385491e-01,2.380262588801485002e-02
2.118679408890641880e-01,1.862537224864759811e-01,-4.065509182409778044e-02
8.056743530281140764e-02,7.770736213484291666e-02,9.158604421809816987e-03
1.870904811037021609e-01,1.868542651872765192e-01,-2.057926340499663734e-02
2.270833671189892156e-01,2.068459659436620857e-01,-2.187238235409104045e-02
3.119194579156305269e-01,3.012033035086065236e-01,-4.432561469548101235e-02
3.126186156888137169e-01,2.833728043453275780e-01,-5.122392213656797033e-02
-2.368897369714357548e-01,-1.958635938317641878e-01,2.408277882541681736e-02
-2.003652975750242968e-02,-1.358625723623445650e-02,-1.159425641818584776e-02
2.403203341371543400e-01,2.209006005481720658e-01,-5.468484825196155003e-02
1.945808388926591193e-01,1.670173516627510291e-01,-3.020894830446363769e-02
2.464080248028596432e-01,2.249170120894119496e-01,-1.927388971312571711e-02
5.187444285957853313e-02,5.876500170617499075e-02,-1.258981192419804385e-02
-3.209765389795407597e-01,-2.994116792021950801e-01,4.959098094406672735e-02
3.339574676791066121e-01,2.844539619143692244e-01,-4.798929456610052935e-02
-2.466857733764367677e-01,-2.190453456509202368e-01,2.166847314437515479e-02
-2.327520242902467451e-01,-2.140252218909645399e-01,4.402614104718832744e-02
1.411681129166859894e-01,1.272117127610384868e-01,-3.099449571829985747e-02
6.901954584420089134e-02,7.346804904450629503e-02,9.334365993424194969e-04
3.576922012097297765e-01,3.332278058907401364e-01,-5.949393815850915340e-02
-2.700023022315619081e-01,-2.489376581266217192e-01,5.183488128654157451e-02
3.307715564551202414e-01,3.009799787875837573e-01,-5.181161936473305946e-02
1.258043781800756988e-01,1.109613131963004540e-01,2.012482518445638316e-03
-3.790522454296360033e-01,-3.301801881332200317e-01,7.197826262942985664e-02
-3.036600927831534791e-01,-2.809528778626985690e-01,2.865167918341956013e-02
1.716246724866863915e-01,1.468517235784755626e-01,-1.790573661923021073e-02
-3.199994897704485086e-01,-2.897381222878914753e-01,5.066361040591718656e-02
-3.123146696547653579e-03,-1.637972581952470063e-03,2.224254973241776914e-02
3.061349758133751764e-01,2.903997595381016539e-01,-4.242812754305040623e-02
2.017801995446339147e-01,2.024465758599975351e-01,-2.980865556317392057e-02
7.947633982841677269e-02,8.075078515255378064e-02,-1.519920718407183000e-02
5.408652518864236897e-02,5.761204612465258001e-02,-2.704627034634220564e-02
-1.176428433277862916e-02,-2.016700844702644033e-02,-8.414849795778609962e-03
-9.479361628481662583e-02,-8.350317109957289263e-02,6.649848797692100612e-03
1.101352053947072251e-01,1.181429519448407017e-01,-1.524396575831722290e-05
1.503911643601446579e-01,1.433233503265827491e-01,-1.985319309885035660e-02
-2.292097237118857211e-01,-2.120806021880849990e-01,4.013847320354811676e-02
-1.170118867199180512e-01,-8.826505032241074855e-02,2.622420097484833706e-02
-3.606167158730717026e-01,-2.925220718123004437e-01,5.759507306383803565e-02
-1.106123683530799845e-01,-1.097320876126589018e-01,1.329946821355559340e-02
1.734988180494358989e-01,1.734653479362834316e-01,-3.453583310797175149e-02
1.772633627492139000e-02,3.960608824839662034e-02,-5.258878787067239324e-03
2.608556690323539096e-01,2.423516794691300824e-01,-3.945920195958183690e-02
-1.644715006550530600e-01,-1.465607440229593772e-01,1.830460541198923249e-02
-6.978094153419624190e-02,-8.805774715348220483e-02,7.238664525992271129e-03
3.587400363015419980e-01,3.380569388635032979e-01,-5.064576996086943977e-02
-2.006300009416134844e-01,-2.058410354350961313e-01,1.721372296724010820e-02
2.959247060883352098e-01,2.722568142218019238e-01,-2.110677017618030338e-02
2.202918818767486686e-01,2.000345763353345852e-01,-3.904596759317537774e-02
2.078588439186939141e-01,2.108609266162237705e-01,-4.117653010209436359e-02
-6.591098027964931161e-02,-4.470618965639925474e-02,9.680634023790428422e-03
-1.944561444339706902e-01,-1.769784933704145469e-01,2.825242689006219818e-02
2.327005012105777537e-01,2.171835409807271189e-01,-3.093187412986587656e-02
-1.471918484239481406e-01,-1.556238556523023842e-01,2.049906039978156500e-02
1.331112946031130784e-01,1.126946594197376916e-01,-1.365403154869994015e-02
3.455828798196347584e-01,3.122827882152006684e-01,-3.964379893910330993e-02
2.225305501266942598e-01,1.956771013936554060e-01,-1.162260799076365869e-02
2.867018407227249766e-01,2.647293400331352520e-01,-4.722375652244761857e-02
-3.339572046205872558e-01,-3.217691115490527443e-01,5.764066913759816058e-02
-1.166898358372153166e-01,-1.281242094856957503e-01,3.636304152327298617e-02
-2.492120278690079793e-01,-2.264139401663221030e-01,3.147022059804600869e-02
2.389374525817837547e-02,4.043155736314902465e-02,-1.512822586951023673e-02
-2.478351863188813231e-01,-2.396449767899144212e-01,3.783607526225268858e-02
-7.077347227221880699e-02,-7.747877795043223159e-02,2.221421673891845611e-02
-2.428468685039015529e-01,-2.138068394464357480e-01,4.617659433165494098e-02
1.738561234740557682e-01,1.379890999358640569e-01,-3.242318525143278451e-02
1.768476191252574825e-01,1.653520547747216185e-01,-3.952896955291208131e-02
3.955185152793760234e-02,4.706512142452535380e-02,-1.346622782740671334e-02
1.397660162157592922e-01,1.273507585494507155e-01,-1.997824198597203393e-02
-2.651863675755835037e-01,-2.403283671056923865e-01,3.148139780988811615e-02
3.281787162016476800e-01,2.977307026459720118e-01,-4.830384443241540066e-02
8.564596424983256240e-02,8.633968829021493319e-02,2.411701842796779667e-04
1.880455306930687021e-01,1.777840763967124538e-01,-5.065618060945772244e-02
3.269430630160183315e-01,3.128744448429666147e-01,-6.071481005769496786e-02
7.252354918454673128e-04,-9.276947542721694639e-03,8.628249079192215664e-04
-1.568896303273961124e-01,-1.252283939049705364e-01,2.416934972531686182e-02
-2.859671428258945824e-01,-2.590935756912882137e-01,4.281615242410782840e-02
2.236541676325511097e-01,1.948647789937120178e-01,-5.705209530169904480e-02
-2.741553828480299826e-01,-2.467977446081503490e-01,6.994225247295314529e-02
-2.449909202824518129e-01,-2.334213906159680885e-01,5.521944283982039431e-02
1.720390111832943436e-01,1.679380605140785299e-01,-2.788783518120409657e-02
2.074753102243214187e-01,1.896489212521342282e-01,-2.577903513109271183e-02
-9.624493575170496584e-02,-7.929920147464354641e-02,1.767343871313828765e-02
-1.989801931896625353e-01,-1.833012846680498464e-01,2.340786616371572440e-02
-3.007260191595783616e-01,-2.902942465919085002e-01,5.483039091454995628e-02
1.241208171609499977e-01,1.408165766495939331e-01,-2.972825600352484859e-02
3.478295661395253147e-01,3.100719131702571740e-01,-7.966107197103992899e-02
3.213648242939408650e-01,2.906485215388404098e-01,-4.325161948399090101e-02
1.355926590810063448e-01,9.469993989530363365e-02,-3.007745863258395186e-02
2.019468725982363159e-03,-1.903140550050905558e-02,-5.500228653370188917e-03
2.572669617077386617e-01,2.271300516309459616e-01,-3.687261700002451847e-02
