-9.277492018631300352e-02,-4.238840287053756428e-02,-1.171037487619898398e-01
-1.697328539538656145e-01,-8.183383276711679588e-02,-1.872787880826589091e-01
-3.605075966398239851e-02,-1.500919988347811269e-02,-3.332424756677562078e-02
1.121114391960435636e-01,6.647105023701910254e-02,1.277400256288439284e-01
8.476693530155639256e-02,3.930553063363066008e-02,1.002688178811193404e-01
2.693416252079318673e-01,1.245456564531786381e-01,3.095117313374547985e-01
8.753998710354338186e-02,3.632075848529149609e-02,1.046544931742781348e-01
2.862603946492503493e-01,1.490831404926702686e-01,3.522869173159118850e-01
-2.032182829271069191e-01,-7.849898786287189123e-02,-2.366942815686183532e-01
2.080678682231381083e-01,1.156852779322703195e-01,2.656023817752906635e-01
-1.061237581850835582e-01,-5.311576013273013042e-02,-1.322840526609696810e-01
-1.244474982829013240e-02,-7.878081773303151000e-03,-4.022382801796721419e-02
9.595862397405757749e-02,4.971356041751932159e-02,1.319374540797446649e-01
-1.756933258777637619e-01,-1.054082610885730825e-01,-2.062899114434500192e-01
-1.133771818773893492e-01,-4.934762795269911212e-02,-1.329405763898174053e-01
-1.727138102623357041e-01,-9.107033452480085833e-02,-1.840024464654498038e-01
-3.041509052212216790e-01,-1.340074456250344159e-01,-3.607209730111189394e-01
-2.080811045622170119e-01,-1.018181882971627567e-01,-2.359144957721170943e-01
4.155557308748873691e-02,2.063596433837404029e-02,2.463632685018779522e-02
1.614162960851218132e-01,7.296414626107984580e-02,1.813682439653834799e-01
1.575211859632523748e-01,7.352248015645779233e-02,1.641016140164484882e-01
4.003010968855131441e-02,-4.280592508851156254e-03,6.658289569470984826e-02
1.159790691235201426e-01,6.208409261976905597e-02,1.334344143515115988e-01
-2.388487121729454266e-01,-1.474996934000997462e-01,-2.983127090696849337e-01
-2.713070741685633669e-01,-1.382268742365614922e-01,-3.203630332010346526e-01
-2.491154606381991710e-01,-1.181110575407323254e-01,-2.753273352926732254e-01
1.247281939183241400e-01,8.631586126752920085e-02,1.597359396830457245e-01
1.249072208486402408e-01,5.385622243489293637e-02,1.260230278174277185e-01
2.086450390255366327e-01,1.057525501745542884e-01,2.767742381517314665e-01
-2.165909833747658164e-01,-1.067894458405326541e-01,-2.467695298339499799e-01
-2.226637442101050274e-02,-2.642656999517479025e-02,-1.834000750077548550e-02
-2.780759058041161122e-02,-8.158707190143540955e-03,-2.212729764002390256e-02
-2.531125230758038414e-01,-1.029226962870941481e-01,-3.254552048198454117e-01
-5.389012002239281993e-03,2.528204563738723713e-03,1.075595373799807623e-02
6.603374640213885427e-02,2.906920453519598602e-02,7.857536901785260042e-02
-2.450543317826414103e-01,-1.156391168713779144e-01,-2.891064191479839618e-01
2.016073490383302469e-01,1.144685905772222512e-01,2.451614142003182284e-01
-8.335157568904327796e-02,-3.373086641340958258e-02,-8.004503621596552321e-02
2.739541188699624041e-01,1.624751820921985779e-01,3.332312498481959095e-01
6.169538823376883446e-02,5.210837320533992512e-02,8.416952177006192803e-02
2.502084925108386676e-02,5.735177542520638813e-03,3.190566735086129008e-02
9.632408574919271160e-02,5.107687060552511954e-02,1.267878186436266208e-01
8.917965877157374432e-02,4.173331483634931671e-02,1.061258511981211100e-01
2.864597997775575333e-01,1.560164834040183579e-01,3.314344750980220966e-01
2.702214717553739765e-01,1.513089152867730935e-01,3.141172251302754015e-01
1.806439921895119927e-01,6.796622922230380337e-02,2.088401487472567042e-01
-2.425558529112185890e-01,-1.034666134389180259e-01,-2.810346718761884133e-01
-1.725267950973340680e-01,-8.526708713599943923e-02,-1.844021715809378292e-01
-2.380447379005307118e-01,-1.059909558594733514e-01,-2.725122549791199611e-01
3.053878226225036907e-01,1.446167031560351424e-01,3.375461930324807902e-01
-2.715327755769862406e-01,-1.446812219067145355e-01,-3.477494902561180101e-01
-1.513505662808015406e-01,-6.463509852916667076e-02,-1.570911015286276247e-01
-9.896590302185533095e-02,-5.742308417584716246e-02,-1.194239123546720766e-01
1.737752765416389622e-01,8.490820012111086057e-02,1.874151805980934227e-01
1.508735108068040009e-01,6.781065554653155358e-02,1.826152040416974820e-01
1.380725872764113245e-02,-4.915536268321634740e-04,-8.003290123379860075e-04
2.778747150406700728e-01,1.456226847383315370e-01,3.478372995471436524e-01
-1.018893102925894599e-02,-1.965172542149868848e-02,-3.257815040044433064e-02
-3.022102898874026722e-01,-1.352389460242125752e-01,-3.521926068118206854e-01
-4.456366264020403256e-02,-3.435937888240876009e-02,-5.143283633423822998e-02
6.143496561072834400e-02,3.295541973947500175e-02,1.160235855459843951e-01
3.387767030428728843e-02,1.453562441599243020e-02,4.435673914279701646e-02
2.724259584550327573e-01,1.156595204192774479e-01,2.990827227608153782e-01
2.857757255942319774e-01,1.499358751302344028e-01,3.405867743757349797e-01
-1.868459640022861537e-02,-1.679649925629989743e-02,-4.004381331860917131e-02
-2.797442108726972410e-01,-1.220714543519823420e-01,-3.278322415900992715e-01
2.356292946522979548e-01,9.998128114144229361e-02,2.685596758873030621e-01
8.062844768928081884e-02,4.033696924499709929e-02,9.671022413797433770e-02
1.719028540339694600e-01,1.028710008525769992e-01,2.039435622649951596e-01
1.077254828914118029e-01,5.841130135596228623e-02,1.059491313128466533e-01
-2.107797883043213416e-01,-8.278804558804245262e-02,-2.371937047637254214e-01
2.789467363925908772e-01,1.542358705165087496e-01,3.404596457808589660e-01
-9.250091952332675782e-02,-3.661004263213012144e-02,-8.583912011215591442e-02
1.074389783583710178e-01,5.911400105194983962e-02,1.268877422262948140e-01
2.207983968722044554e-01,1.052465617850997792e-01,2.649979347657505646e-01
1.488747642920161263e-01,6.929617096681744970e-02,1.709692166609231567e-01
3.093798062918417038e-02,1.036491566068513046e-02,1.864807786413298293e-02
-1.543182432890849443e-01,-7.646773406979477661e-02,-1.618038542175145311e-01
1.380121712783159149e-01,5.544130443393857632e-02,1.565669493762663345e-01
-2.689203982655986591e-01,-1.357833426345620431e-01,-3.130996636583152637e-01
-1.348220583160945063e-01,-5.757208107051113577e-02,-1.478323842530428756e-01
-2.857195948666072516e-01,-1.487794673758203734e-01,-3.438287091490805913e-01
-2.224429790112722460e-01,-1.191271545334245952e-01,-2.711007466086414186e-01
-2.635423434451277924e-03,4.068976107789664537e-03,1.530327943867207212e-02
4.524302004704019303e-02,1.754643274334943479e-02,6.590499051007472908e-02
-2.023297076310368037e-02,-7.436987122116761953e-03,-2.214956896651569182e-02
6.907061769442357502e-02,5.417604647971817344e-02,8.342877137704370061e-02
5.296872820059560921e-02,2.303313815364304434e-02,8.138608788811248218e-02
-1.003466758992032082e-01,-3.692980352203550920e-02,-1.213915455513048386e-01
-2.043314811245902363e-01,-1.084759691659056974e-01,-2.202083244185462918e-01
2.828891871265225635e-02,-4.457768363238702979e-03,1.177410453640918711e-03
-5.861321038954895452e-02,-1.981672304943186622e-02,-4.875170832622185979e-02
-2.383948242703351206e-01,-1.221106486824691251e-01,-2.973336656872645478e-01
-3.221061754042973124e-01,-1.634915600448227091e-01,-3.822567129303972577e-01
6.644282627266587249e-02,2.800813766311296624e-02,8.020010692576498568e-02
2.316779436000351022e-01,1.160890809000120205e-01,2.718175487061808560e-01
-2.276243425271792797e-01,-1.018344115989607279e-01,-2.712562395382716041e-01
5.332108913914662685e-02,2.408084551817136348e-02,4.744167162541542554e-02
1.306817811697883192e-01,6.772502699547498783e-02,1.594145665966681669e-01
2.075498049387023702e-01,8.277180625113877976e-02,2.175416236941687675e-01
-1.097519844873626194e-01,-7.106793896546957645e-02,-1.349155830536586387e-01
-2.651022828176939905e-01,-1.313870519714264995e-01,-2.959663776598364660e-01
-1.860847709044715637e-01,-9.663709349223391365e-02,-2.331059837648091770e-01
-2.393456686017692570e-01,-1.161404054678086689e-01,-2.754921494332826515e-01
7.389555245162462982e-02,5.177114331911509409e-02,1.134989318498043492e-01
-8.451862034770943333e-02,-4.383338737920518258e-02,-9.649315727563363698e-02
-1.496626384058536742e-02,3.754219673887852250e-03,-7.089922374901335041e-03
-2.524754429952246193e-01,-1.303812658477697950e-01,-2.896451082518667897e-01
1.463988633203106848e-01,7.700800510832496448e-02,1.563186144910881370e-01
1.555637458013776064e-01,6.530626717263382508e-02,2.139075393497006372e-01
-1.847336308114772285e-01,-9.199349724582019106e-02,-2.091961203497460786e-01
-2.409944377115670611e-02,-2.745239530701473404e-02,-2.040048740328028604e-02
7.306165694784845510e-02,3.407798503506672544e-02,1.049669980963158361e-01
2.851411836877702499e-01,1.374961906655446930e-01,3.093312793913620684e-01
-2.568701402446007531e-01,-1.234246912221241138e-01,-3.149219264382622230e-01
-1.293078969689049618e-01,-6.840058802033384400e-02,-1.462882286171370838e-01
1.888327362598968551e-01,9.509336517844864389e-02,2.273355926374843738e-01
-6.434318623171542129e-02,-5.368075473601401082e-02,-7.788105168450470961e-02
2.676037392369749399e-02,1.391899356468031916e-02,3.317833729237185114e-02
-1.421237982877012473e-01,-7.319843116698335206e-02,-1.577263712673354912e-01
1.398907792843752385e-01,8.684613252800120475e-02,1.986976013763699367e-01
1.854736801469413499e-01,8.297175120648019042e-02,2.305418816516858205e-01
-1.794235202405326801e-01,-1.022175348781247384e-01,-1.993944000598428801e-01
-7.245609186264362345e-02,-4.490262901052005651e-02,-6.203403976604488640e-02
-7.129265995810206424e-02,-4.355191915188288965e-02,-9.345675264775742119e-02
-3.103651150970983541e-01,-1.514733799483400367e-01,-3.659191227940095659e-01
1.229774380570795717e-01,7.377938096429606518e-02,1.494568180805102842e-01
2.480503567128333475e-01,1.207784859954042223e-01,3.041460845510182698e-01
-8.725491048529836202e-02,-4.508909162090361106e-02,-1.038762611528024904e-01
2.982464372856808987e-01,1.591825315728069290e-01,3.599225158038058536e-01
-3.013325161683040876e-01,-1.159082120571039848e-01,-3.481375780269360121e-01
-2.690883453638306944e-01,-1.133144130805317645e-01,-3.180250448212390002e-01
-4.032868635808647961e-02,-3.204457156885738567e-02,-4.895630649880172020e-02
2.206974681432269381e-01,1.157974359560580424e-01,2.652823124103297903e-01
8.096448471893891163e-02,4.379946340359615331e-02,1.012656043821484192e-01
2.037941986762691338e-01,9.852718183624681325e-02,2.462728614590525555e-01
-1.004014620404989622e-01,-5.312421437832016285e-02,-1.013447471409569256e-01
-6.674515689389051709e-02,-3.267979016345107235e-02,-6.945602081264687366e-02
1.925928840502922346e-01,1.055747212200225382e-01,2.320410875667910933e-01
2.169798992486600131e-01,9.727167522318014292e-02,2.324556303320167716e-01
2.918504048211255086e-01,1.311169500035669622e-01,3.394175216250220339e-01
-2.319276334903682957e-01,-1.090635721477615228e-01,-2.770757194163156467e-01
-1.904964982899076953e-01,-1.070893523679576492e-01,-2.220950499058075567e-01
1.961914539019989634e-01,8.377688155460027986e-02,2.247283912066775635e-01
7.438591728002239001e-02,2.604226625749668511e-02,8.414964182478761046e-02
-1.321175457750031479e-01,-6.032968805746106999e-02,-1.492231090827247919e-01
2.287862729796156513e-01,1.112793137003244420e-01,2.848011441363813567e-01
-8.509205897979330024e-02,-3.531453356225166401e-02,-9.404131957843894773e-02
-1.475248546006482087e-01,-5.264737508898113816e-02,-1.944249664761655283e-01
8.193821054530715797e-02,4.227007614902172916e-02,8.671671046287456053e-02
9.182333658748852157e-02,5.341640092279813234e-02,1.408195695381187218e-01
3.697527757828768941e-02,2.044752511662885006e-02,2.301245683472518885e-02
-5.622944949691246336e-02,-2.723162233417131609e-02,-6.486412263118261634e-02
2.113886350206588272e-01,9.428270417458649300e-02,2.291646468693819272e-01
1.494581874796067911e-01,7.476481899145974441e-02,1.941699304132437076e-01
-5.853457266879449200e-02,-3.252831612888366919e-02,-6.557416775783958540e-02
7.105041192153854768e-02,1.915444924156898057e-02,8.169887998632527348e-02
1.064415113735018431e-01,4.799069084625341708e-02,1.236712715488873793e-01
1.201990533956104161e-02,-8.592818072999799245e-03,1.104782941230707943e-02
1.518721934155477793e-01,6.949883122013278403e-02,1.738368863435802159e-01
1.815697820018903619e-01,9.233613570002449644e-02,2.095653970725079862e-01
-6.280099999596826243e-02,-4.827272776322229925e-02,-1.018949613093075163e-01
-2.875054537832441581e-01,-1.536231103435654610e-01,-3.567341453526927109e-01
-1.006412602583293819e-01,-6.521511048204392536e-02,-1.203017311652196386e-01
-1.681054204907610761e-01,-7.728909116910655241e-02,-1.832750389045928741e-01
3.227286956685837538e-01,1.452632527397338391e-01,3.557142926090278157e-01
-5.157992525204269096e-02,-4.142656832737060674e-02,-9.339896580507356383e-02
1.325297332277242668e-01,6.255763633801551815e-02,1.714543787103927908e-01
-1.538935385815176464e-02,-7.059762749207327062e-03,-3.115525529160452500e-02
-1.612126497876172765e-02,2.290617945489570588e-04,-2.582456009999977223e-02
-2.038810089910781664e-01,-9.812216648926984364e-02,-2.248226958986037360e-01
2.482681556005068568e-01,1.487796134449216323e-01,3.044175056186741446e-01
-2.803520379615275782e-01,-1.319804036805143077e-01,-3.333010462001668173e-01
-1.465372713045609843e-01,-5.980120258261949207e-02,-1.746332656934449501e-01
-1.956660559943080441e-02,2.350949809759975834e-03,3.023842873154426476e-03
8.983437185313314366e-02,5.946024329326913410e-02,8.111898400469122472e-02
1.682475580077953947e-01,8.542740611063764922e-02,2.017812154154377813e-01
-2.023168886311459413e-01,-1.065929641156833085e-01,-2.331759274141176341e-01
-1.378915094801421437e-01,-6.676568196069686267e-02,-1.795810774645733299e-01
-2.048540811269773942e-01,-8.404506468263392427e-02,-2.200310507387167325e-01
-3.508221187467067126e-02,-3.926645780845876288e-02,-5.080263286350869545e-02
-4.782974203958999249e-02,-2.506288971897920395e-02,-7.145364561485229027e-02
2.653385959542317041e-01,1.314783846517416366e-01,3.125313304340149312e-01
9.922952055026154627e-02,6.224478236472285458e-02,1.352130029954515533e-01
1.595525993541179743e-01,8.445912071023031764e-02,2.082085941790726979e-01
-2.680026201301060618e-01,-1.462195972799391341e-01,-3.289843573426722290e-01
-2.249354084696449374e-01,-1.069761041298396831e-01,-2.631615227773432264e-01
1.212400970816253643e-01,7.559485003470142739e-02,1.858560681617970056e-01
1.242229908901589380e-01,4.005508312392414005e-02,1.435607852477535640e-01
1.755152483307687306e-01,7.379445723169567040e-02,2.120391570569659101e-01
-1.340552920165948275e-03,1.109324485109315639e-02,1.082942213683199539e-02
-1.586647591898266429e-01,-8.437101084604459178e-02,-1.615145100942080303e-01
-1.153614943028677536e-01,-5.510219948426077485e-02,-1.264531189496831687e-01
1.061033835783742052e-01,6.112839833048312049e-02,1.388228475558607178e-01
1.506740236334032645e-01,5.224221259898965269e-02,1.490516542467941741e-01
1.218345951648516605e-02,1.647696546007867274e-02,1.360493355804760426e-02
-1.537177172245507706e-01,-6.393329389038822363e-02,-1.534328065714199163e-01
3.448742668621654350e-02,3.133067502980664554e-02,2.676355521685731820e-02
1.501759266671864879e-02,1.161084390825090767e-03,2.939994367691773323e-03
2.774367550182188502e-01,1.255056773120501457e-01,3.271064930668080573e-01
1.335998957996228365e-01,6.848385400580046800e-02,1.549936892321032156e-01
1.970304001368894664e-01,1.040301687467097419e-01,2.457427988605948577e-01
1.955131614281086228e-01,8.885433432661495046e-02,2.423463960907868697e-01
2.555382564916142685e-01,1.036644304453558513e-01,2.704228201769039441e-01
-9.725431633465800307e-02,-4.121892764144192284e-02,-1.001842992505718316e-01
3.041338690286548019e-01,1.466645258341117419e-01,3.585300286092965028e-01
-2.675924299619762692e-02,-2.564844904585500754e-02,-1.715436225294491787e-02
1.236420468894521285e-01,6.620087890598234937e-02,1.479970123166720608e-01
-7.031378610656299419e-03,-8.667089137947054170e-03,-1.154055824592543390e-02
-2.105613387749385168e-01,-9.466161140086160053e-02,-2.353545727736834903e-01
1.250052693291951456e-01,6.520802232907496609e-02,1.488442558922986880e-01
-1.339571063416483132e-01,-7.288822779408332675e-02,-1.899178753046008583e-01
-2.157945997931466353e-01,-9.673324637361249700e-02,-2.334382364024173429e-01
9.740002116773277888e-03,5.892681275509834005e-03,8.318703402424233034e-03
1.120328975608593861e-02,-7.969409813772790688e-03,-7.935255565451935708e-03
1.805145933780282486e-01,8.238412219467362851e-02,2.025486985530675632e-01
2.278708128490551377e-01,1.285904469730529409e-01,2.786436343238423707e-01
1.489468375014721124e-01,9.596970582270715477e-02,1.779309894804450842e-01
-2.467114804790969396e-01,-1.192886035680932461e-01,-2.874504058923808558e-01
1.713117052611706770e-01,9.001407580194090152e-02,1.804998477540089574e-01
-4.680969466266683698e-02,-1.914797012726553518e-02,-6.801663324929725640e-02
-7.472068912794552209e-02,-3.413886600778606034e-02,-7.733842624445486091e-02
-1.844465804109718943e-01,-7.833645523382840037e-02,-2.229631109202827588e-01
1.558127779548858505e-01,7.618847769697030536e-02,1.804642500471707878e-01
-4.901745140672848777e-02,-1.565819586067143318e-02,-2.290053147694985636e-02
1.659069271802338444e-02,-1.711107433743437774e-03,3.629844540718767804e-02
2.755672634137171229e-01,1.309873031974067570e-01,3.250417114814462272e-01
1.272721467999528289e-01,6.240210988983604240e-02,1.674305302850169763e-01
6.534135749588340647e-02,2.937371985950822453e-02,8.214165815178472996e-02
1.148351430069519397e-01,3.676414669262022261e-02,1.192085156051028716e-01
-4.295465469450471946e-02,1.545159372695252206e-03,-5.079029391428463436e-02
1.388381137207603533e-01,6.184728508056385604e-02,1.767586660343023197e-01
1.352027372874245459e-01,6.642396381234387526e-02,1.557081938827848677e-01
-2.437496413691135344e-01,-1.063109562427899946e-01,-2.874646775700517853e-01
-2.738831757329104107e-03,6.934783112702412426e-03,-8.239876713019731944e-03
8.608694855588637507e-02,4.001449399350978653e-02,8.561687298268497170e-02
-4.692738387550306894e-02,-3.616684065221772298e-02,-3.960610021174402334e-02
-1.519388847596732373e-01,-7.203475252732989553e-02,-1.953555655859795515e-01
4.307570108441685641e-02,1.051616405467975177e-02,1.900734585996800147e-02
-3.131943303501870113e-01,-1.476480062163355311e-01,-3.570131300097393323e-01
1.316843478754797236e-01,8.608243160368551916e-02,1.510963652672135393e-01
1.099458635483861330e-01,6.479990937588206434e-02,1.231179713318067692e-01
2.120342474886763029e-01,1.048326104347130222e-01,2.458893823569951176e-01
2.836819231262454610e-01,1.510579181929981307e-01,3.625893714923845157e-01
-1.941999503293984908e-01,-9.776304034065630422e-02,-2.183876246465886461e-01
-2.371802564861728579e-01,-9.503002986942117591e-02,-2.516796478117697133e-01
9.674406492299020277e-02,5.224088092967060781e-02,1.036970833034201595e-01
-6.700210182354197908e-02,-2.024114127641234856e-02,-6.217668804825464413e-02
-1.587355260951754665e-01,-7.852923172598345880e-02,-1.811725955334011484e-01
2.409463096518255909e-01,1.052679703502923392e-01,2.729771159346005005e-01
1.199941708891468922e-01,7.248529997939391623e-02,1.262105949158752738e-01
1.813038382491687917e-01,7.936803573739753537e-02,2.219171587657545464e-01
1.806411944185278284e-01,8.553252531725981378e-02,2.376655080674533738e-01
2.624285037488174321e-01,1.208734109317459449e-01,2.894003004471666363e-01
-1.812953546432186092e-01,-8.683658070147441677e-02,-2.137821846525812530e-01
-3.902894750617388886e-02,-1.898602549960874339e-02,-5.342832022375054724e-02
1.625239454886409918e-01,7.678203507244245329e-02,1.672081683868071877e-01
-2.990000163630091370e-02,-1.878739092067407968e-02,-4.793211818554189707e-02
1.403759589668131524e-01,6.274577851797800976e-02,1.407986847259856678e-01
-2.105457067187441189e-01,-8.302680909437538948e-02,-2.332025047363171510e-01
-2.444432495451733245e-01,-1.221866048686687384e-01,-2.814953254577459152e-01
-1.674307590663468015e-01,-8.713998766855024503e-02,-2.011555687734535858e-01
-1.449439394728706948e-02,-1.643164932777142068e-02,-4.802076019581171668e-02
-2.903846431197940059e-01,-1.474204346586570624e-01,-3.488094381492778950e-01
-2.159246816810907188e-01,-9.962265815526075152e-02,-2.770890739615501919e-01
-1.786109027938826144e-01,-8.737322212640766250e-02,-2.082750809386072210e-01
-9.788817606494026879e-03,1.041179271613329113e-02,-2.387891200776603995e-02
7.414385435079322295e-02,4.364279982224079230e-02,7.482915780830519392e-02
-1.007682462652728789e-01,-4.412398102768148173e-02,-1.135391994344905620e-01
-2.141852913885900767e-01,-1.023565606722280641e-01,-2.527516087697515568e-01
1.891958469738866389e-01,8.945375408977518372e-02,2.377280414779777418e-01
2.002264900464121589e-01,1.213281758934485199e-01,2.659494540956013342e-01
-3.109601054768806536e-02,-1.282024010693417863e-02,-1.921935520719447038e-02
2.409766814797682788e-01,1.240834285802032838e-01,2.693517343154694377e-01
-3.000655314835900533e-01,-1.446224327195460013e-01,-3.626347577462600280e-01
2.593761908115109760e-01,1.350718569696230942e-01,2.883914641754413699e-01
-1.240408536956429664e-01,-7.741310564889944401e-02,-1.442924514684323367e-01
1.754488411134422499e-01,9.243983104802583339e-02,1.984543172006497935e-01
2.452743040942170077e-02,1.780704044562940111e-02,1.379893210783311730e-02
1.862533658896124711e-01,1.026347101903363757e-01,2.092323123646779581e-01
2.189283261013238169e-01,1.226636621296711555e-01,2.757171959868600086e-01
-1.883997016096320420e-01,-9.493115867390736207e-02,-1.798432594590722300e-01
1.110143878725943639e-01,5.877071928020807107e-02,1.310902386455909119e-01
2.604085352263280639e-01,1.150474810990266411e-01,3.053150063503019540e-01
9.687617558997317635e-02,4.902978959668004982e-02,9.222590296699544055e-02
-2.271116585362100704e-01,-1.059842992854787280e-01,-2.706160177699600267e-01
2.429889170177599034e-01,9.704086426086543093e-02,2.602376909005888472e-01
2.853566878529245621e-01,1.292299775574248799e-01,3.471811000137631775e-01
-1.780443111189067007e-01,-7.970745721338409751e-02,-2.056745510618310513e-01
-8.420197712405337598e-02,-3.285133310740976503e-02,-1.051571436984818086e-01
-1.746674025994460200e-01,-9.045887124212251273e-02,-1.767705305074591671e-01
2.581761391038036799e-02,2.652933461612334842e-02,4.471939317937728003e-02
-2.883140895755450517e-01,-1.551628680512846248e-01,-3.342906913195952123e-01
-1.003094106872626512e-01,-4.592625651228677414e-02,-1.296206124654603886e-01
1.902525693733738421e-01,9.828066215530463501e-02,2.537213768947986225e-01
1.696049993117906551e-01,7.965770219077168701e-02,1.899759219781070319e-01
-1.942339799044440207e-01,-9.485283573460144557e-02,-2.410111334156502527e-01
-3.863187181236472229e-02,-2.213324590874153966e-02,-5.731794729815328088e-02
1.444256179613106206e-01,6.576213702261565763e-02,1.498683416460811768e-01
-8.488569335300229224e-02,-4.164480590793601805e-02,-7.588418443805675095e-02
-1.492426690364713352e-03,1.048086066358874802e-02,2.002684496706244946e-02
1.339266483504095995e-01,3.099800176541796237e-02,1.232509794325427482e-01
-3.063404988939144036e-01,-1.321914250869199448e-01,-3.440087637604460347e-01
-9.942649740172394834e-02,-5.037564328788282642e-02,-1.115929502538242218e-01
-2.516099602815775604e-01,-1.291189644336349640e-01,-3.292299390603360409e-01
1.193602241425574390e-01,6.588100630630168431e-02,1.615742972662040644e-01
-2.398690955896187471e-01,-1.146535743856765682e-01,-2.822013114526623623e-01
1.870856500327723604e-01,9.410902373816730504e-02,2.299848461685406464e-01
2.082366741723948311e-01,1.141539244706153144e-01,2.659421291495759898e-01
7.076520405269917657e-02,4.990120913931102298e-02,1.045183784993199833e-01
-1.131989078783777608e-01,-3.506339273537040918e-02,-1.079348390960961496e-01
6.541093921968248182e-02,4.503276194409489702e-02,9.075936138772819350e-02
-1.706896147218187332e-01,-9.322116914661704445e-02,-2.027024356444316611e-01
-2.680125602274142094e-01,-1.124828204985230395e-01,-3.146845655647765860e-01
-3.231850099996143311e-02,-1.645839527178408548e-02,-3.132185924615819156e-02
7.002937313677604601e-03,-3.209329662564301949e-03,-1.007350268895727255e-03
3.078661330768339144e-01,1.621380628401733470e-01,3.585784286219166894e-01
2.264600653376570849e-01,1.104445475070291727e-01,2.430271723425402874e-01
1.538287652004926842e-01,7.846046340437387578e-02,1.734542917082915470e-01
1.266479238680258586e-02,2.183384893314098754e-02,4.171836604211933038e-03
-3.053636571470851324e-01,-1.558707046249330763e-01,-3.734692982938208061e-01
-1.430577062556958601e-01,-4.718163132754880223e-02,-1.480425152283594281e-01
-1.613021576897454012e-01,-7.918382313554100937e-02,-1.598085186218798359e-01
1.081561681899629174e-01,4.331197242368708261e-02,1.356198205662987044e-01
2.303146241239948377e-01,1.136508525772714218e-01,2.637796420856389767e-01
-3.386998489522345668e-02,-3.222045785202846523e-03,-4.622740286312320562e-02
1.273286123467799180e-01,5.574125964116272147e-02,1.505143010006773363e-01
1.649410533344801699e-01,5.593167224369791080e-02,1.898776300263292915e-01
1.742775582392027955e-01,8.728613302666929363e-02,1.892948781810401271e-01
7.533749864048486233e-02,4.814450656516566091e-02,9.931427292378147698e-02
2.178530463346499968e-01,1.049864246240862775e-01,2.336163798240335210e-01
-9.916516075313022704e-02,-4.172090289136884400e-02,-9.786922410222799462e-02
2.159312720541348984e-01,1.079883858923455509e-01,2.726058468854568595e-01
-1.426196397772204194e-01,-1.008934961977098199e-01,-1.894509725472356687e-01
-2.004047718940898393e-01,-1.092583308523314284e-01,-2.565456088491118170e-01
1.864149402808613354e-01,1.066253761049915372e-01,2.308796767343099243e-01
-2.151969398896611818e-01,-1.079321528462789115e-01,-2.254861901611593389e-01
3.774266360227839651e-02,2.985783558568688364e-02,2.425545710837632638e-02
-2.879323171828356287e-01,-1.293592191782398371e-01,-3.266704467934846701e-01
1.137115189328403476e-02,2.009746911909681202e-02,1.418580890722852955e-02
-6.418810501201695868e-04,1.008149742696487321e-02,-1.435075562953591448e-02
-2.954467534266812523e-01,-1.292094278036698130e-01,-3.337291457316668430e-01
-2.196098920307162361e-01,-9.252611291761078660e-02,-2.682870720497042005e-01
8.005298212338136932e-02,6.533610851670709763e-02,9.614668138602164293e-02
2.852505653497146298e-02,1.677126350876591288e-02,1.577276297770915589e-02
-2.864983077275348733e-01,-1.389474383942383984e-01,-3.326942018960559744e-01
-2.536618789712237754e-01,-1.285135825318253211e-01,-3.097639943936754126e-01
-1.387532585215018981e-02,9.235832581802485772e-03,-1.628201871060681524e-02
-1.725622661655080436e-01,-9.141319871191531943e-02,-1.812209509242859728e-01
-2.547875887265959594e-01,-1.142490253385412824e-01,-3.135088808804915028e-01
2.717223606934195401e-01,1.395150681154948835e-01,3.212805657573127305e-01
-1.138739698442010201e-01,-5.407079603485997338e-02,-1.213654177232625087e-01
-1.156677432868308784e-02,1.093948885922516392e-02,8.196228597709294666e-04
1.533783531811918621e-01,4.754205902661989835e-02,1.506638158149506967e-01
3.685160882628135681e-02,2.748593256693660988e-02,5.596814539055794402e-02
8.899718614707427533e-02,4.350674816478043022e-02,1.048427866663607516e-01
-3.785339500195951390e-02,-2.838599239657544487e-02,-4.841288296113613332e-02
-1.972699639604331978e-01,-9.484795230097282925e-02,-2.389928927450380713e-01
-2.936359025503277320e-01,-1.503229987899143971e-01,-3.535845894484569985e-01
8.320663440966913002e-03,-1.083564788974340082e-02,-1.698688660135942718e-02
2.153957086350380690e-01,1.140194389244075096e-01,2.494313193215933200e-01
2.399178102136323432e-01,1.466337914438694268e-01,3.054185075755695977e-01
-1.944986542324652345e-01,-8.349833784822856264e-02,-2.439141270461251676e-01
-4.972235044314802371e-02,-2.960449639787308615e-02,-6.002827136353470344e-02
2.239477515061921720e-02,1.341014754416332798e-02,3.044148757347540230e-02
8.677084292637589347e-02,3.884170579263867412e-02,1.240007087689876386e-01
1.177237315398015349e-01,6.738857999399600063e-02,1.429046896222833096e-01
2.249453608135107141e-01,1.102963784705148220e-01,2.541141350942092147e-01
2.515346253123653120e-01,1.073870071531153048e-01,2.840313294422678325e-01
-1.287064313008293159e-01,-7.074802657518260152e-02,-1.442599379592424125e-01
1.968935957405003601e-01,1.052339625522006744e-01,2.270187197497834930e-01
-6.022223951878427628e-02,-2.407011459242807544e-02,-9.530746182638960562e-02
-2.923511850142795909e-01,-1.500919755943992406e-01,-3.423923485452304294e-01
-5.711359261870600779e-03,-1.966645124592960887e-03,3.051625580003861863e-03
7.434266981171391842e-02,2.395646908100624445e-02,6.734564906568271669e-02
-1.722159293960854043e-01,-8.363472308574172731e-02,-1.916860226668390121e-01
2.345533596567731804e-01,9.608117249347487843e-02,2.564142681038114047e-01
-1.949952453942586095e-01,-1.026370055047597235e-01,-2.248886769234468841e-01
1.574663228808016457e-01,7.136271724670603667e-02,1.602449028497968941e-01
-1.680381353579762926e-01,-7.047997727251364974e-02,-1.829069705396296763e-01
2.800627744152643928e-01,1.481877024520006636e-01,3.293340354802810621e-01
-6.548064046271355465e-02,-2.500583098916305674e-02,-7.507977501607364379e-02
2.164558801403221322e-02,6.707547164327230110e-03,2.489747318247367142e-02
-4.757400728824122405e-02,-6.483546965261304668e-03,-3.155909589524242415e-02
2.821644537327374636e-01,1.348207353220879368e-01,3.196717157658970354e-01
-2.780608211340382385e-01,-1.349729589411046704e-01,-3.476492902748129499e-01
2.413177184303344769e-01,1.138926966684570136e-01,2.682425575714869614e-01
-2.831324714004219700e-01,-1.365863724802290347e-01,-3.387342285866724589e-01
-8.508698116081243878e-02,-3.764986837963886501e-02,-9.760325409902670390e-02
-6.219331209769953656e-02,-4.942339747193646993e-02,-5.577917601211288684e-02
-2.061787421004073473e-01,-1.172226807261324555e-01,-2.554338275944322834e-01
-1.298997350613348423e-01,-5.302576886203157897e-02,-1.400001178083683795e-01
-7.350552293873853504e-02,-5.025149878918563906e-02,-1.055210675290339656e-01
2.618081035092717501e-01,1.172415560056861983e-01,2.920358127371430745e-01
-6.482341469212273000e-02,-3.558729533880348322e-02,-9.156161675584273407e-02
1.487119164176180230e-01,8.411914059985579895e-02,1.690232233276990348e-01
-2.815958069497757066e-01,-1.328952307305261427e-01,-3.051503463342041811e-01
-1.941638998886732193e-01,-1.018018587017862769e-01,-2.149778757484983316e-01
2.802496538892420563e-01,1.363200533113770596e-01,3.400518895708113942e-01
1.405616064823151101e-01,7.155351899294989937e-02,1.563000519412560685e-01
-3.134834184794031420e-01,-1.406628623611774764e-01,-3.355514680958470164e-01
1.373729876558748009e-01,6.327934142059175870e-02,1.633930391905153712e-01
-1.727431216115817292e-01,-1.042274711771277035e-01,-2.123194409596813881e-01
-2.800699468881553411e-01,-1.393285766711272189e-01,-3.513428999868581371e-01
-1.722539351956511033e-01,-7.961651044099470054e-02,-1.886038802570192408e-01
2.626248028097309395e-01,1.151910699954129813e-01,2.764055387822944021e-01
1.269197761862572368e-02,1.228226311342879747e-02,6.745008297430943843e-03
3.774045047688260462e-02,1.251427794397991233e-02,4.840474662649105891e-02
1.869426735190213990e-02,3.776156267948777880e-03,5.583285495355634447e-03
1.329825017293556899e-01,5.883520788488631748e-02,1.865307376110036108e-01
-1.826722931152815754e-01,-8.548693963053420608e-02,-2.013805514156645493e-01
-5.160470449588404340e-02,-4.665375049770970062e-02,-8.816920003364811520e-02
-1.512660964943624842e-01,-8.005868324509755884e-02,-2.026081091886586805e-01
-1.801144330375944180e-01,-1.038268352765810421e-01,-2.271767806073134721e-01
-2.590131323760062609e-01,-1.294798158995238979e-01,-3.257746351703976195e-01
-2.635425196322073171e-01,-1.297478868570743349e-01,-3.071892926500045529e-01
1.876520426473769210e-01,1.121589406000662315e-01,2.174082750053046575e-01
5.580430929732589466e-03,1.890717467879542146e-02,1.821683914972789184e-02
-2.141340072215721646e-01,-8.922905137022839328e-02,-2.360639199316096892e-01
-1.622381087425237567e-01,-8.401885164708400300e-02,-1.824519328969306520e-01
-1.921604470624178329e-01,-1.154069328901610875e-01,-2.478541148837491992e-01
-4.746160761771435477e-02,-1.616525774894697620e-02,-6.155377207009608137e-02
2.688618060080582572e-01,1.331584957876245090e-01,3.242139754523548634e-01
-2.754549337211934512e-01,-1.471836849201575426e-01,-3.117790266235874741e-01
1.937749467160496952e-01,1.154513102423903870e-01,2.417157875575731418e-01
2.007639010314817840e-01,9.211899960092928552e-02,2.304919683358545301e-01
-1.247975993659317939e-01,-5.373292234564222558e-02,-1.364193790543867246e-01
-4.974611154756163056e-02,-3.392932840066287953e-02,-8.084706737419886102e-02
-3.027296798771856312e-01,-1.457841120802353396e-01,-3.600357533482770322e-01
2.334997027825371496e-01,1.062196837425112422e-01,2.678681081204108971e-01
-2.771429505106265401e-01,-1.385398375851118469e-01,-3.266216656562579423e-01
-8.908350228355127465e-02,-6.741217028183360549e-02,-1.251516424191054244e-01
3.260757799966724213e-01,1.541417310573618693e-01,3.574847467211580421e-01
2.406677236725316693e-01,1.382022449315474522e-01,3.081299669402474128e-01
-1.365854454108277050e-01,-7.980719738611043168e-02,-1.622229936701602426e-01
2.684322653632297828e-01,1.340197923065480357e-01,3.144796790918253371e-01
1.868736892223001045e-02,-1.233157136967943067e-02,-2.425408910975044088e-03
-2.531026295984622476e-01,-1.289874677474485976e-01,-3.148842355807877635e-01
-1.688471703352065201e-01,-8.125675785413623287e-02,-2.178907830198928697e-01
-6.913097098398413021e-02,-2.955517154562312815e-02,-8.611384604127583775e-02
-5.959768412560998568e-02,-8.802501098102379420e-03,-5.785008925300028776e-02
2.805908041693561117e-03,9.278332434804928419e-03,2.284635069198620583e-02
7.317784716458107519e-02,4.559384012325990582e-02,9.256907792692768699e-02
-8.055082938924201796e-02,-5.296571911478353822e-02,-1.295905755728897768e-01
-1.236432614318752760e-01,-6.384470478814148475e-02,-1.555295210423432162e-01
1.953985843492297980e-01,9.246910920526833777e-02,2.289000510632377972e-01
1.028207547837102775e-01,4.821546116518109215e-02,9.629834447839136224e-02
3.008619769167155678e-01,1.586619050904539696e-01,3.213086388886903788e-01
9.022863411654517829e-02,4.678109329675376321e-02,1.188420204923162776e-01
-1.517537248633619995e-01,-6.431078829617382919e-02,-1.849857293590199403e-01
-1.808502806643773331e-02,-3.442638723430453815e-04,-3.979113308754603229e-02
-2.178187807326900649e-01,-1.089854972725604332e-01,-2.627055107368116982e-01
1.320877961714365945e-01,7.438434064335736062e-02,1.608905490238726754e-01
5.718287309485722836e-02,2.584392253999069980e-02,9.347810220383058477e-02
-2.971497183337466486e-01,-1.510838899060837071e-01,-3.666300651601622773e-01
1.589342657943358661e-01,8.768110133296108666e-02,2.235423114997956429e-01
-2.293887660865172318e-01,-1.394030970695680216e-01,-3.001470819975771143e-01
-1.879195671083858932e-01,-8.945883205456479914e-02,-2.162181449392570343e-01
-1.818399844717341340e-01,-7.646262874847144231e-02,-2.246126052832077558e-01
5.384263515398036298e-02,3.158955254382667804e-02,5.039529938275003063e-02
1.612931334229315283e-01,8.284953241179823791e-02,1.924922308528951853e-01
-1.912000988764625542e-01,-9.972229629178226695e-02,-2.361630377211729193e-01
1.227149376041910822e-01,5.821230089883291242e-02,1.669035897777046140e-01
-1.056904535428242475e-01,-6.232894343741378351e-02,-1.246987025997790266e-01
-2.786734706484348401e-01,-1.545237069070160840e-01,-3.420280956218169077e-01
-1.688069572717030842e-01,-1.096665784069877775e-01,-2.177657262362295565e-01
-2.421643551566985131e-01,-1.176995647988303556e-01,-2.863789267141977901e-01
2.848270764258876153e-01,1.322780947653864891e-01,3.460654050661733927e-01
1.124904603034773687e-01,3.216727976863060362e-02,1.329126182342084406e-01
2.031716384791325269e-01,1.093039460650961497e-01,2.472533409542023997e-01
-2.957556865769926310e-02,1.650677335819816750e-03,-3.945942364173581768e-02
2.077598344829459098e-01,1.011272371460982533e-01,2.586362235890787842e-01
6.833140060373582569e-02,1.946130093616718279e-02,8.035791369172218257e-02
2.090873235959886667e-01,9.818265839327321165e-02,2.312204590917327496e-01
-1.483229832689178240e-01,-7.422306029335284938e-02,-1.510279320764288669e-01
-1.572142990753500613e-01,-6.546437761631369867e-02,-1.765701029958494095e-01
-3.919066554226564858e-02,-9.321918383826692869e-03,-4.835294694113800862e-02
-1.156950872574169231e-01,-5.972411890545102631e-02,-1.385624824772589969e-01
2.146707870377941030e-01,1.177340717074589760e-01,2.629215729898221054e-01
-2.726162245478170321e-01,-1.396469649386602729e-01,-3.238166483513341687e-01
-6.212429392936211214e-02,-4.264479644327958535e-02,-9.545587760574165970e-02
-1.736848311400653322e-01,-6.363141070353216244e-02,-1.879334219119456195e-01
-2.818977354780685673e-01,-1.272575372057757892e-01,-3.358685141645317285e-01
7.055673265878494721e-04,-3.253097925635198197e-03,8.732222952069414179e-03
1.301132898552774531e-01,7.007183522445166457e-02,1.379896152677585197e-01
2.380692774693152491e-01,1.213008446688753766e-01,2.816896072927840833e-01
-2.032197121706014464e-01,-8.160593695244938717e-02,-2.080640045981102249e-01
2.495825059722796557e-01,9.817204627304307318e-02,2.627413964573732663e-01
2.183911355046619651e-01,8.937659189914597124e-02,2.487416737077909890e-01
-1.455184291644543160e-01,-6.878972316406342657e-02,-1.807503959878684341e-01
-1.689016718326057376e-01,-9.099768706325980783e-02,-2.070481164810600017e-01
8.207786010961984347e-02,4.058485873097406743e-02,8.648638950682090154e-02
1.610936770134052398e-01,8.778212302526386401e-02,2.002087224487720807e-01
2.586876601011965926e-01,1.171161809185228275e-01,3.115730326106559422e-01
-1.132809684135023531e-01,-3.888323707918663746e-02,-1.475620912923333028e-01
-3.097371884416038057e-01,-1.310758380536679035e-01,-3.322015707071057644e-01
-2.638978621766466803e-01,-1.395495473859966196e-01,-3.170275352664757573e-01
-1.184681877938174449e-01,-5.784418990242834457e-02,-1.042949639532396167e-01
-4.302422073641156731e-03,-2.410089713904734181e-03,1.929263580671540870e-02
-2.126013912836430542e-01,-1.115748056096202145e-01,-2.479630032929762695e-01
