9.044453734592253213e-02,1.717927026835300991e-02,-9.030599719428591618e-03
-1.106289295057463484e-01,-7.184101872547176901e-03,8.974586504220671834e-03
1.976753471012279439e-01,-2.497783337898268688e-02,-4.617936859067187615e-03
4.757037128804060822e-01,-3.273322396844417087e-02,-6.825096276719799793e-02
-1.336339186613057506e-01,-2.013807180322504378e-04,2.358221767873346780e-02
1.683367430896434147e-01,-2.693793861886274472e-03,-2.583874167868157115e-02
-4.525074973474691453e-01,2.825124141444384368e-02,5.392342127100397536e-02
7.516746248635558687e-03,-1.580098148441316797e-02,-1.579280790797501013e-02
-4.563222181276422318e-01,4.677432514995421425e-02,4.382694770305948367e-02
2.556900319401156363e-01,-1.131177380800093418e-02,-4.619611759669461915e-02
-3.437434814273295225e-01,2.290351374740515547e-02,4.799300195150790760e-02
-4.071567818037886699e-01,2.798396552705920484e-02,4.577790633753234251e-02
3.509961387085635542e-01,-2.064331187062891371e-02,-4.292992501512496450e-02
-4.324234428736254410e-01,2.231338920518787655e-02,4.854942098716279880e-02
3.876059218176825527e-01,-2.038961347144102251e-02,-4.086945037060812913e-02
-3.334771855058757950e-01,4.245637463957484953e-02,3.399919372994911204e-02
2.622299598410642307e-01,-2.266741308021125861e-02,-1.753891590464772346e-02
2.272198606878807203e-01,-1.962818001262947587e-02,-1.327287559536054033e-02
4.784951404641880068e-01,-2.456859078917136840e-02,-6.072852342008392551e-02
-4.591490876943776778e-01,2.588287080736846602e-02,4.989182822520007304e-02
-1.862831189069490967e-01,2.896098916972246473e-02,2.803585256429140526e-02
1.008188365274613751e-01,2.022069836942119812e-03,-1.783471555446591167e-02
6.242671132280171176e-02,5.562341028340963417e-03,-1.508238334416860289e-02
-4.692170137207950231e-02,1.288350074481125346e-02,2.047643766342280292e-02
3.640380389191832933e-01,-2.065161074319274426e-02,-4.779240283557995711e-02
2.070861443024688830e-01,1.529758670546649659e-03,-3.288947985310046451e-02
-3.368378260619294129e-01,1.998201593345812904e-02,2.772606233755994451e-02
3.842363286875243866e-01,-3.302204708810075467e-02,-5.173895625025340395e-02
3.281639711632743928e-01,-1.712629931950252274e-02,-5.228162001163402101e-02
-3.103116598412690719e-01,2.127366786268633514e-02,3.273261872262259869e-02
8.535807514241443295e-02,-4.286254169097690470e-03,-9.722799657249399721e-03
-1.179795515828793023e-01,1.472413401909900867e-02,2.591542710188366946e-02
3.682215936789730026e-01,-2.564214769498751947e-02,-5.457664009350281231e-02
3.779501937891872609e-01,-1.360120243382631836e-02,-5.677153551834301232e-02
-1.453410590388988233e-01,1.475794751161658112e-02,1.542752598022670805e-02
4.810340132234408039e-01,-2.454415080787816783e-02,-5.491324521445867940e-02
-2.102877547863832852e-01,2.949900550697411722e-02,5.074127554563722525e-02
-4.389036242276800337e-01,1.741554817038174635e-02,4.612746457376506320e-02
8.957323890522449206e-02,-1.152437111446611047e-02,-1.904471639726273979e-02
-4.760236478478948041e-01,3.680693686780468071e-02,9.310337465598655937e-02
-2.352305864878162511e-01,2.273022443880172438e-02,4.338098888207285453e-02
-2.337207584461239163e-01,9.507616849597548547e-03,3.809658076609544891e-02
3.640037255700323549e-01,-1.593498933624882402e-02,-5.506420960104677076e-02
-8.243223601286708835e-02,1.920585373943890437e-02,7.984528997344480725e-03
3.744487922426602000e-01,-2.464990133710666387e-02,-4.727438100352816808e-02
-8.978552856986493635e-02,9.622158997412191481e-03,1.348493276187443142e-02
-4.303093794172970221e-01,3.411152904619912940e-02,7.056083711188014529e-02
4.536235871678155340e-01,-5.278266333363903356e-02,-7.312988296048471282e-02
3.315232779514624695e-01,-2.857806155236543993e-02,-4.911432282295750962e-02
1.455460804790917329e-01,1.931179261223753447e-03,-2.282523637899248545e-02
-4.579375763913738351e-01,2.256029507196079947e-02,6.941466981679207671e-02
-6.855119222702871565e-03,6.287646322809676593e-03,1.810052841711332506e-03
-3.662625496357599930e-01,2.133433140346476312e-02,5.048168277446236918e-02
-3.806090804737624067e-01,1.704513681965149491e-02,6.433176372113218189e-02
-4.046970792474303621e-03,-5.949083834627339439e-03,-6.444528135557121666e-03
2.245628727217304221e-01,-7.082440055872556324e-03,-3.185182182680752760e-02
2.906296899644346676e-01,-2.217637032177003416e-03,-3.695373547341809090e-02
-1.597607791731049387e-01,2.386988122743869886e-02,1.750817078561873671e-02
-3.959243287525697208e-01,3.355446086218007856e-02,4.723468831301155801e-02
1.830166610235466340e-01,-1.005505731772185843e-02,-1.781716904014225833e-02
2.565209803680733591e-01,-3.073510778283437828e-02,-4.366344509277120950e-02
1.062074117878920587e-01,-6.535288365075185568e-03,-7.762708768680707735e-03
4.012543463726061521e-01,-2.132435530162246629e-02,-4.561164896304406580e-02
2.177290002160540139e-01,-2.987290535670246786e-02,-3.585534115719859333e-02
-1.438227162940518972e-02,-2.071605448240347418e-03,8.455835525978401546e-03
1.119745455359689480e-02,2.098796195296763999e-03,-3.660902701590285600e-03
-6.685057207542385860e-02,1.708626412432630651e-02,-8.278516848552805799e-03
-2.333756656822552344e-01,7.754566782926456802e-04,3.543792296393220853e-02
1.878417743154944253e-01,-3.108298226217165016e-03,-2.169063382370258614e-02
4.329033474833950818e-02,3.372250872941762959e-03,-1.168200483875757832e-02
-2.426772494030415561e-01,8.668082802759885172e-03,2.436682056951038414e-02
-7.119667264294569919e-02,4.871498775391783047e-03,1.796876778495242258e-02
1.367393110894479236e-01,5.391384445259837181e-04,7.158332608051901254e-03
1.650179675033310589e-01,-2.546018488985292774e-02,-1.645990092768559801e-02
1.670343253017013141e-01,-1.836949892633235951e-02,-1.719121317165098889e-02
-2.259198991856586902e-01,2.254318295913380552e-02,7.550700428264954349e-03
-3.850628425512453989e-01,9.456963589720712021e-03,3.706309618900833353e-02
8.090512677909073025e-02,-9.491557316857619428e-03,-1.077379402759611783e-02
4.307888816388503739e-01,-3.434262448240293919e-02,-6.776105255329457899e-02
-2.853873678304558181e-01,2.586985546685330664e-02,3.130835791385346012e-02
2.009989342569123150e-01,-1.595259702727711004e-02,-1.809000807388727247e-02
-3.681076177629886148e-01,1.955986588235290521e-02,4.978886181233568159e-02
3.774212092862859191e-01,-1.908318955242352399e-02,-5.283527594248507014e-02
3.769591211493379390e-01,-2.839353258534775201e-02,-6.082101430155287952e-02
-3.700780424273202862e-01,3.325527851082969027e-02,4.076277734947541392e-02
-3.203939631343320077e-02,-1.315268790888277778e-02,1.092145425658557455e-02
-4.763888389498202036e-01,1.470045007723147501e-02,4.882671904035884580e-02
-3.650906938580504302e-01,2.968791879871181261e-02,4.081636167592055109e-02
3.004833427132853063e-01,-2.171389622686709098e-02,-3.620771742694622874e-02
-2.094118256187519345e-01,6.254938799151743729e-03,3.000093575969062579e-02
9.204610202985268053e-02,-1.677343637615160560e-02,9.014523524022933967e-04
-1.291072774111225729e-01,1.621594765446295744e-02,6.966503434405702140e-03
-3.608948008613311470e-02,1.824383817533943054e-03,-1.146664467687223514e-03
-1.868327880352453063e-01,7.299107400895898067e-03,3.628813422942998163e-02
3.851781097461320358e-01,-3.473872725000172468e-02,-4.315046358709054980e-02
-3.129177094201550657e-01,4.629651839112140094e-02,5.480114397261189041e-02
3.501410071062918683e-01,-2.846510365311424526e-02,-6.020071095728998095e-02
-2.885558807560921757e-01,-9.146928832542738008e-04,4.459550784595048972e-02
1.797501623403045534e-01,-1.976474196125322866e-02,-6.792683332174538624e-03
-1.195267271397367215e-01,7.319384750218397781e-03,3.545080120495587572e-02
2.429245407768917953e-01,-2.645983850554854688e-02,-3.184320659737992915e-02
-1.063273605173940470e-02,1.277988870054946576e-03,-1.462129607562591763e-02
1.606810524103345628e-01,-2.588586223461568619e-03,-3.539693485787445693e-02
3.265291032963515416e-01,-1.164321542377293184e-02,-5.377908548149716583e-02
4.591591433746899376e-01,-2.433707109066673979e-02,-6.987948724840588322e-02
4.964191255194824737e-01,-2.064851458901698078e-02,-4.924180886960538572e-02
4.879918060938840396e-01,-5.517503540579808685e-02,-8.094242674266995119e-02
4.279107492869831803e-02,-1.549844134213528013e-02,-1.628840230914864115e-02
-4.001293932204672554e-01,3.115264634119099471e-02,3.951756371305914506e-02
-4.122855986738508394e-01,5.225443063756361056e-02,5.556232092610708523e-02
-1.986067586019175379e-01,1.714877117718422231e-02,2.798632898130123253e-02
9.684387752403199670e-03,4.048734431252713241e-03,3.830922570018055386e-03
1.625250543412559423e-01,-2.295389437033368979e-02,-1.397358732802124817e-02
-1.765154571967902930e-01,5.151117546331172338e-03,3.397978342943504260e-02
2.486408681962983536e-01,-7.548047984330589696e-03,-2.498106843193823728e-02
3.335570075522971134e-01,-1.764530762970753161e-02,-3.831587554588542638e-02
2.240713087920052360e-01,-1.500294887989092260e-02,-3.253311840999217885e-02
-7.165890594301012329e-02,6.011609693046008826e-03,1.182042106802318367e-02
-1.007004614810981663e-01,-9.876683921780915736e-04,1.751055851488494963e-02
1.962405441789211724e-01,-1.987153829948657899e-02,-3.154555368913369157e-02
-3.791804258601004785e-01,2.845407442105799337e-02,3.820300318406816276e-02
2.065877786750191236e-01,5.815806180351977897e-03,-2.237790462508678843e-02
-4.654924935514917483e-01,1.415637400130408986e-02,8.342252928115247157e-02
1.564119826718977924e-01,1.086736596040352963e-03,-1.585413873431908843e-02
3.370485336496671924e-01,-1.187168898469680330e-02,-3.393258673974156037e-02
1.468700172974483353e-01,-1.720711515669190450e-02,-2.226328699176290723e-03
-2.728855321442906767e-01,8.106690118030609321e-03,4.718261094714618076e-02
-2.538106865345537977e-01,2.771671628130053730e-02,3.369821923323676471e-02
2.776841415670838753e-01,-3.920255162507328001e-02,-5.269319640602754956e-02
-6.063019031668821085e-02,6.874304809868004608e-03,-3.983630411300093099e-03
1.190163543522676226e-01,-1.179111731157608898e-03,-6.392545380168639969e-03
-3.954083610528985604e-01,2.249533258934627994e-02,5.461673180293877272e-02
-9.670322211384918543e-02,9.263162476905634907e-03,1.674012867284196265e-02
1.231432298280736026e-01,-5.218405727085386435e-03,-5.682286322413030236e-03
-1.920785762593786861e-01,6.234366192302194000e-03,2.627523119240232977e-02
-2.233237130444062635e-01,8.729540889280774929e-03,2.500259335680040523e-02
3.797138861851405145e-01,-1.272679107478779173e-02,-3.541646550361351314e-02
-2.594565927649675197e-01,3.892342935021583794e-02,2.110448748898740429e-02
-9.977951026431805537e-02,1.968294894524214370e-02,1.660271125698915828e-02
-3.945536920282308735e-01,3.644223871426627986e-02,2.959279267757244578e-02
-1.614654153238636869e-01,2.029071854265343533e-02,1.262238948341546339e-02
-1.047082522252587716e-01,2.912667419347144109e-03,2.660148533512215335e-02
-1.874900029979857385e-01,8.002936240712875404e-03,2.228295756648634302e-02
3.081123150740399663e-01,-1.849902539071156607e-02,-4.429710336936387716e-02
5.734129549553267091e-02,3.625764569241120023e-03,-2.128896101863450314e-03
4.430689380194630100e-02,-8.978893555243411956e-03,2.576863430954502970e-03
4.149789865149311474e-01,-3.831431934121307809e-02,-5.259828543834929593e-02
-3.235690692384245448e-01,1.597452367944412338e-02,5.864287789869854217e-02
3.393514533137445000e-01,-3.336294803984436036e-02,-3.517324265852841275e-02
-1.216606304001137673e-01,4.436521719434468290e-03,5.455279384501536891e-03
3.849833326600013983e-01,-3.142041766843770012e-02,-3.943145895461742240e-02
-8.116954470409236747e-03,1.181998255271008054e-02,1.232963724977178578e-02
3.852964890885501315e-01,-3.075213459362986443e-02,-3.598833561294354638e-02
-4.169508172870468599e-01,2.284687438332848319e-02,4.874925728661706065e-02
4.420997316399228882e-01,-3.648239505399692578e-02,-4.750213627538557581e-02
2.490128342195891686e-01,-2.564137244471782415e-02,-1.947807923149402071e-02
2.712145958917984712e-01,-1.186162560099265732e-02,-5.698657136404988027e-02
4.856534072738085128e-01,-4.120671892352326809e-02,-6.442302363846266755e-02
1.544674929006969455e-01,-1.614528431985601600e-02,-1.421962975775613661e-02
2.084417160288151716e-01,-2.410991175509329641e-03,-2.817114083321344345e-02
-3.415571400157649956e-02,-1.617952013493783800e-02,1.252065098805163826e-04
-3.013842914074997270e-01,1.931459684104168753e-02,4.037491774714521003e-02
2.422957807509353301e-01,-2.633806487688027803e-02,-3.332996903899439201e-02
2.374450534792479361e-01,-2.849925784439869686e-02,-1.688162574590905060e-02
2.091107380072070032e-01,3.999110950653624562e-03,-2.152359820962439219e-02
-4.810476431602846992e-01,2.057958356992145577e-02,6.277185792995104707e-02
2.341825132215213656e-01,2.980663449329231090e-03,-4.859636544232405313e-03
7.240654778419455817e-02,-1.511926772862071458e-02,-3.494221870702457228e-03
3.521167579915688434e-02,-7.247998244416510756e-03,6.930779591526645134e-03
-1.411651154786439932e-01,3.408797681035757605e-03,1.382513217558144041e-02
3.519774628831430774e-01,-2.110792728013236377e-02,-5.112048616783563398e-02
-2.525958162353993466e-02,3.979185253644663208e-04,6.160427458213621997e-03
2.693944140453177760e-01,-2.332748170431149515e-02,-2.464984822160941683e-02
2.532435553168458919e-01,-2.719205946868080703e-02,-3.981560744173499866e-02
-2.819941731883669478e-01,1.613994064032015993e-02,3.941876346680999593e-02
-1.397049772333808053e-02,3.029465783618165648e-04,-1.520001377557319081e-02
-4.186360816736715007e-01,2.255039855437568699e-02,5.931430340599137124e-02
-3.411245867220014660e-01,2.827842590520552105e-02,4.959451951101547656e-02
3.551567967546006566e-01,-2.918063981154994657e-02,-5.388039344268682335e-02
1.400138758134744366e-01,-4.353600751841824046e-03,-2.166687094598781366e-02
-4.078035549413431826e-01,2.024244764133062424e-02,7.702993580224272441e-02
2.417643011937205613e-02,-2.378890810260786241e-03,-1.367833800835468409e-03
3.713156482814834458e-01,-1.308422456752395338e-02,-3.547917370844470841e-02
1.977767212108055006e-01,1.118139141720698526e-03,-3.642262110972370459e-02
5.619072107161850183e-02,1.652268419696494711e-02,-1.968088291471451270e-02
-5.397899612769904015e-02,1.350421759208949093e-02,1.433029364896292596e-02
2.128814340840456676e-01,-2.184493448591096065e-02,-4.119158695925229097e-02
-5.612919815758977971e-02,-7.090885445321007396e-03,1.676471193035617563e-02
5.103256536324048825e-02,-1.181263204957374961e-02,-1.226123515485390975e-02
2.510764674537416807e-01,-9.636352691189063388e-03,-2.650219221879094797e-02
-3.761042921439147202e-01,3.512546849312202929e-02,5.438895421728420776e-02
2.889012369505601363e-01,-2.615326682712801679e-02,-3.591915754572804625e-02
1.672230655517685169e-02,7.350535734792835139e-03,6.695941530275099397e-03
1.586620164237763919e-01,-2.298159522827580500e-02,-1.807422699618940407e-02
2.807053090328393008e-02,-3.581306245611215206e-03,-6.658614163499135437e-03
-2.590419076883121452e-01,3.886745873937019757e-02,4.095790631809975713e-02
-3.542587861602528587e-01,2.916342393256170229e-02,5.233738817544954236e-02
-4.416373271483705620e-01,3.784505974785489640e-02,7.036124915087969833e-02
4.740793048620739469e-01,-2.740641589262425570e-02,-6.003159646784349268e-02
3.624116172766315147e-01,-3.049416332753226294e-02,-4.977898785561323675e-02
5.078780812796125366e-01,-3.668994881071916542e-02,-6.164102448782993876e-02
-3.249440183711106711e-02,9.478597669342550200e-03,-4.621031804116892266e-03
4.704965846271062513e-01,-3.808102737361068052e-02,-6.999638886404808968e-02
2.654921751257031115e-01,-2.521078765403533123e-02,-1.659060205342986066e-02
2.009770241938873270e-01,-1.572331121220872652e-02,-1.611172222183434796e-02
-2.365316990365317895e-01,1.807520989422534488e-02,2.258721079037966789e-02
-5.536920903870466010e-02,6.872190481181515015e-03,1.503386627336622539e-02
-5.234600617037546422e-02,1.191539340065846803e-02,-9.734216078152294060e-03
-1.256652073739856490e-01,1.758549438556774105e-02,2.729252857169280067e-02
5.316371695294313388e-02,3.234839740474801037e-03,1.042594959295266299e-02
3.659944883510693470e-01,-2.476406628767011814e-02,-6.106666415585580709e-02
3.175719950269141612e-02,1.289595507801983339e-03,-1.525535190492059365e-02
5.164669090925811529e-02,-1.202262009861317224e-03,1.769693054137469381e-03
2.410629420696848713e-01,-4.936841525205795493e-03,-3.334216730704158554e-02
1.546946090858669354e-01,-1.081652035871175609e-02,-2.071285001809469034e-02
1.428709973703243541e-01,-6.286113404093307717e-03,-1.138361651157202871e-02
4.233185370293621186e-02,1.002429415205397347e-04,-7.562317672828571544e-04
2.140189536437377416e-01,-7.544113415016449886e-03,-2.515932305339197567e-02
-2.018494467523154201e-01,8.367580326989709077e-03,3.528662716459465831e-02
2.149707748522352579e-01,-2.614417529586959745e-03,-4.698487766672421184e-02
2.360215937208144307e-02,1.835402094824599081e-02,-7.794255221870830669e-03
1.496483211393842827e-01,-6.115224772961212231e-03,-1.783570646039592603e-02
-1.244493029679695911e-01,1.401618221578407493e-02,1.459273616855692388e-02
-3.535551405913652245e-01,2.171751225397927990e-02,4.981766664738281752e-02
3.073055559323482067e-01,-1.047273481152664019e-02,-4.131496697599069262e-02
4.396006525174713242e-01,-1.439950498066070589e-02,-5.717574659444764340e-02
2.879182197904721630e-01,-2.198437567448899982e-02,-4.254333059645065002e-02
-2.850279674205307145e-01,8.568291356554798288e-03,4.189627062377594691e-02
-6.224441309976592313e-02,-5.084189018503961627e-03,-5.351005194686564003e-04
-2.834663708638471280e-02,-2.446238760156063414e-03,7.368768061080313916e-03
-1.735476668859279037e-01,1.099752710431452338e-04,1.569850286094774672e-02
2.418638778040970716e-01,-1.185373869738975093e-02,-2.966662802573016150e-02
1.935878516375446612e-01,-3.876420317444052854e-02,-1.222102333897463582e-02
-4.207760890868474934e-01,3.999457248572236417e-02,5.450424975224412577e-02
-4.319357288498710257e-01,1.863728075799546760e-02,5.761300130801380592e-02
1.108314665276736166e-01,-1.337323241161584610e-02,-1.734983834422909946e-02
-1.495944182697577785e-01,2.338258707054688412e-03,1.965038833412658878e-02
3.255780827877356454e-01,-2.076820370585412412e-02,-3.875815141301103967e-02
4.108230729339431009e-01,-3.120099966044141346e-02,-5.089622124102900075e-02
2.926894853885989578e-01,-9.790736235855052039e-03,-3.574778364388789265e-02
-3.582459501839482252e-01,2.031765027120628966e-02,5.470419710797681800e-02
-8.804553780969098797e-02,-1.399176036283355032e-02,2.616121958350478300e-03
2.601060507283192713e-02,-9.717748289047988680e-03,-1.362836677831466906e-02
2.233486487817614163e-01,-9.323381872449337110e-03,-2.541556752333563873e-02
3.591798900816739470e-01,-3.418191983562161862e-02,-5.557611187685962406e-02
-9.745453640702426978e-02,1.520486612097196773e-02,7.721704828791959132e-04
-2.160625260073163745e-01,3.217815823726270091e-02,1.169715537833447040e-02
-2.382442774912538752e-01,2.834242870590110083e-02,3.890342014961559181e-02
-2.758466950148690255e-01,1.242606573285321217e-02,3.249626476806406761e-02
-2.230602299269114352e-01,3.195519209249698261e-02,2.186770142234746583e-02
3.250101377184664297e-01,-3.483748607362213093e-03,-5.960517059263998468e-02
1.084876572506401904e-02,-5.498981919955095617e-03,-1.837925547368037676e-02
-3.399291286487046704e-01,4.347740567756793600e-02,4.519320592179629226e-02
-1.236451245710137870e-01,8.200707282424606059e-03,1.152981565093942097e-02
3.179227394341789248e-01,-2.253963979763805650e-02,-4.875865472575895837e-02
3.744224254056275347e-01,-2.053329585333398336e-02,-4.672338455914486210e-02
6.678021613433848813e-02,-8.227217817423724405e-04,2.135215293097714271e-03
-2.387405769449603143e-01,2.191183503046370898e-02,2.781909277762418739e-02
-4.037780861262929011e-01,1.014727541975894362e-02,5.114905814191337413e-02
-1.003692089503363943e-01,5.475309023388329503e-04,-1.506148198622455628e-03
-2.569885031576498169e-01,2.266088967402579354e-02,2.476036252968015841e-02
-1.137382064746921551e-01,1.693257222937405090e-02,2.554456139150589403e-02
-3.186699670198110401e-01,2.099405000934757501e-02,4.214979544507974768e-02
-2.312571061612559709e-01,1.490517193598060210e-02,3.408526138021669705e-02
-1.531447226826081198e-01,2.149337463593293390e-02,1.653786885855807604e-02
-2.304444187076024053e-01,8.601671613660110544e-03,3.782776469427635152e-02
3.970037970041602748e-01,-3.184094268807850098e-02,-4.512625467832895310e-02
-1.825921040198560663e-01,9.972237951700466813e-03,3.634857496477049421e-02
4.109611723478362455e-01,-2.219309143196732809e-02,-5.890475407766306015e-02
1.458818854461979564e-01,-9.891844256186804740e-03,-2.298646247464004519e-02
-2.057310056579356727e-01,-4.226646294959865262e-03,1.811463350630733785e-02
-2.110223532140444447e-01,9.650671140803515971e-03,1.590591508863037698e-02
2.197950717524739528e-01,-4.130872997157819526e-02,-3.326188270141915843e-02
-3.502199258536601856e-01,8.553396602198316823e-03,3.268892291928107013e-02
1.349086348895584542e-01,-1.887951468979753161e-02,-1.482352679505289858e-02
5.547947454884507440e-02,-2.865158432190265461e-02,-1.530074573953615728e-02
3.834186696953891804e-01,-3.409572127602786967e-02,-5.806393885026320950e-02
-9.146668822556069944e-02,2.526973128478614966e-02,9.172686914177276621e-03
5.464532816056832248e-02,3.802332418303630730e-03,-1.128439996202810353e-02
-3.327712860892744207e-01,4.160009491922418701e-02,5.120174722370315901e-02
3.641936262850812289e-01,-2.437669829301121124e-02,-5.683408744465931473e-02
-4.149040244256655408e-01,4.222675176991282781e-02,5.762492034471695251e-02
1.430922064172847619e-01,-8.508861326508625200e-03,-3.606350374122806873e-02
1.609008545058348283e-01,-1.801118706438929740e-02,-1.476407870305004692e-02
-4.017221339846301087e-02,-1.260409891181675859e-02,-1.375910111265952508e-02
-4.338175757501256946e-01,4.873837300832416924e-02,5.653688751590486838e-02
-4.264265321894383232e-01,4.118436783181469996e-02,5.420839866618946956e-02
1.744494514950427899e-01,-2.957634674913314776e-02,-2.453667276536380254e-03
-3.477598017850702106e-01,1.442122413531331249e-02,4.999338187417184248e-02
1.415694040886998351e-01,-7.414969530500852869e-03,-3.588348803663111292e-02
-3.144664555801506001e-02,1.357823803207589691e-02,4.361411295502437666e-04
4.769117588716518252e-01,-3.023226829073394697e-02,-6.163865149760612561e-02
3.073208578900281651e-01,-1.800113096712955413e-02,-5.022743951987542615e-02
4.064975900036813528e-01,-4.463431646656269847e-02,-5.600399018267781387e-02
-4.218425455443394062e-02,9.462712124722100562e-03,5.566559639051363480e-03
3.012008045545059853e-01,-1.137691485313817308e-02,-2.697236165092567819e-02
1.206152384620096801e-01,2.023620712078914776e-03,-2.122108594184595950e-02
9.681114109433090753e-02,-3.465025872052887850e-03,-1.308888885585986032e-02
-2.037124364099849802e-02,1.985992333120534204e-04,4.063468247584327807e-03
8.198982731872549168e-02,2.173418167841196602e-04,-3.612380306025170240e-02
4.185569247333446596e-01,-2.736708158336107269e-02,-4.926124787892483675e-02
2.294194808109300543e-01,-5.309050528031337458e-03,-2.694217017739884354e-02
1.712403964059601158e-01,-1.026638571507911164e-02,-2.359925537415339877e-02
-2.832510598592176132e-01,1.270978261715899164e-02,5.259801196986736010e-02
-4.246346990389043841e-01,1.912280575976649244e-02,5.547124394715602369e-02
3.634314975192722841e-01,2.294001469774385130e-03,-4.963820469982821448e-02
-9.748859992289694854e-02,-4.321387363370353223e-03,3.291037641503131994e-02
-2.724537075599750557e-01,2.013450800025435097e-02,4.322955409053608894e-02
4.083287077774678253e-01,-9.648454426461580344e-03,-6.045993464195509315e-02
1.375346028975224788e-01,-1.928782995801864991e-02,-2.394561654190444436e-02
4.059048960035477882e-01,-1.936826151752767816e-02,-5.087441034686509406e-02
-1.370850971590562295e-01,-2.515409324285348275e-03,2.604240895365394701e-02
-7.332734834780035849e-02,-7.993419187964133713e-03,6.289894775349649586e-04
-2.863232801078382517e-01,7.268229675240759323e-03,3.697119608990308975e-02
3.423495507334818888e-01,-3.103804580014697667e-02,-3.390072771664926626e-02
4.627265878088780982e-01,-3.272279938597986298e-02,-5.033949407602874432e-02
-1.241266898080993220e-01,2.796372452408848758e-03,5.015648308628607721e-02
2.630174609894748161e-01,-2.926283313532062474e-02,-3.668204232718183522e-02
4.034417640478843992e-01,-3.400089262216600405e-02,-5.318432100235548354e-02
-4.773192464169668248e-01,2.672707524672957372e-02,4.928678653226665346e-02
-4.745400422951870922e-01,5.017777988889347146e-02,6.599177685630851220e-02
1.228215492832954309e-01,-1.640165083505532723e-02,-3.937264972404935781e-02
9.568357114002758179e-02,-7.415389435677092154e-03,-2.388469206618908797e-02
1.511278184748600373e-01,7.515248720160372289e-04,-1.397181086274570418e-02
4.486203096578630367e-01,-3.315402763450947532e-02,-6.569266263931190786e-02
1.400531860502119141e-01,8.486454617149360308e-03,-3.653413156862742733e-02
3.882080993268706703e-01,-3.337198022496242616e-02,-5.544599658191189800e-02
1.519873639799251830e-02,-2.491431201328937403e-02,-6.869810794825437737e-03
-3.299543789687929829e-01,1.560175388050920146e-02,6.327316829404210086e-02
4.837309420914704394e-01,-2.463541178379026475e-02,-7.419503953721419409e-02
-4.850540237551542733e-01,2.524335381149378499e-02,8.074646329163379099e-02
2.890916099606470335e-01,-2.390812807646177165e-02,-5.237261548711878018e-02
2.986517022817505307e-01,-3.317105255479986525e-02,-4.550382595342576664e-02
-5.757140037283422357e-02,2.600952166143185099e-02,-7.633338033773023369e-03
-4.031052338818251757e-01,3.180322148291561679e-02,3.877500995497912273e-02
1.271459608785923401e-01,-1.949930527833158497e-02,-1.056052181017289905e-02
3.542826591047104068e-01,-2.225702013870913681e-02,-5.133739924065555682e-02
-2.288055131942655640e-01,3.081437588678351616e-02,3.934911907488540528e-02
-2.835303173701380075e-01,4.955275193068053169e-03,2.124250645522712810e-02
2.303391033540028721e-01,-1.390461673822919637e-02,-3.301502360301173528e-02
2.531234098804745480e-01,-1.677796453348185182e-02,-2.578065648013207201e-02
-9.078136416417519061e-03,-9.098986356096115148e-04,2.513861731161218856e-03
1.813295927688514941e-01,-2.336281421838131908e-02,-3.091687779877776501e-02
-2.004331955137511889e-01,1.706244193243062340e-02,3.420708128574116713e-02
2.606864452405486809e-01,-1.956919772336028832e-02,-3.354930269265962717e-02
-1.320536827815756153e-01,1.283412061221185160e-02,3.359814947613457697e-02
-2.206278438750367832e-01,1.623563561123589349e-02,2.280587393087366369e-02
-3.893679106328633566e-01,1.503801952375358360e-02,5.239425917817432804e-02
3.803991514838015453e-01,-1.272369022508420752e-02,-3.664715408085840453e-02
-1.524296327742957480e-01,5.331109909168960277e-03,1.961322040867454278e-02
-2.497263593095502554e-01,2.425810823665814145e-02,2.729310133712895339e-02
3.782846944899496688e-01,-1.585249503635663415e-02,-4.802636760122421661e-02
4.235138896337454772e-01,-1.215936985124933117e-02,-3.686984466500700663e-02
4.711722068439041511e-01,-2.642860647920440217e-02,-7.093900336811047314e-02
1.600542131493702946e-01,-3.152167190410667258e-03,-1.212006386877363152e-02
-4.544730054029619826e-01,3.918578860107492512e-02,6.092853235304917375e-02
-4.488267559195917578e-01,3.075010729705947646e-02,7.014952299960894311e-02
8.803914642929695777e-02,1.239856209919545406e-02,-5.662746408909432975e-03
4.858804859717410496e-01,-3.262336889791769140e-02,-7.202826920221770679e-02
2.994384828374229701e-01,-2.758030440364088107e-02,-4.223483681059814893e-02
-8.484081910642476965e-02,-9.217085482666222823e-03,1.784513347681973561e-02
2.709265736544761438e-01,-2.537919614782814526e-02,-4.378521846880722990e-02
4.650087415770947502e-02,-4.783343624095424441e-03,-4.969715593526931145e-03
3.456807478946661294e-01,-1.113809513164632468e-02,-4.330422012347572014e-02
3.831377626161927008e-01,-2.577062213720306832e-02,-3.859909712223649064e-02
1.256636243186216584e-01,8.324854361814772175e-03,-2.534206238945383230e-02
-5.576927498794255478e-02,-2.676353954639448460e-02,5.429177746388180736e-03
1.013958535344532674e-01,-5.664375305536267433e-03,-1.882890727617524823e-02
9.588564490347506464e-02,-2.729749075328246136e-02,-1.615963017807519123e-02
8.449937389387784936e-02,-1.946570325150253841e-02,-1.458928092406829328e-03
-1.849802192975289750e-01,-1.099610745487772856e-03,3.105207488887103129e-02
-4.184421404258239496e-01,1.175178923662895808e-02,4.672808319318150910e-02
-3.879505361675273378e-01,3.130903024855861277e-02,4.837164642664317643e-02
-3.162314816227735914e-01,2.664949171667874150e-02,2.713641909926996915e-02
-2.398905296474728166e-01,1.855774316420085931e-02,5.091910380321316293e-02
-4.801387242073585915e-01,3.381424202073154972e-02,8.304207321401094188e-02
4.527236861490117614e-01,-2.154276129658716163e-02,-5.850008934873553862e-02
1.813435410722995245e-01,-1.309796221883243947e-02,-2.826587964010382481e-02
-1.859185727713907332e-01,2.733869012131237217e-02,3.928772195024377717e-02
4.150515359150799832e-02,-2.160869534337469828e-03,-3.291127212131332060e-03
-1.701683466313307080e-01,1.749240177131091215e-02,2.749310836958018117e-02
1.122181605473126648e-01,-1.299982882103132816e-03,-2.095186179004248500e-02
-4.517227205153939024e-02,7.122747811321068507e-04,1.424508053685706772e-02
4.114369209205165911e-01,-2.403040959799563128e-02,-5.460345596786284061e-02
-3.701110391716125325e-01,1.810064266032459374e-02,2.991614360176815188e-02
-4.492936286154765035e-01,4.804364735008920945e-02,6.457932487331530247e-02
3.708816651577720447e-01,-1.201896192292693094e-02,-5.586837670327639976e-02
3.047713181830278839e-01,-1.343863063969683892e-02,-3.866739387328504279e-02
-7.482520055307868845e-02,-7.062266387995092855e-04,9.338317156306064071e-03
2.817243190301385036e-01,-2.010050499365005627e-02,-4.605222378571417058e-02
6.253232872165163936e-02,-5.520798391865305334e-03,-9.134338870621023718e-03
1.862230208576368395e-01,-1.618949949164388835e-02,-2.651956726684406851e-02
-4.200475426865798445e-01,3.065425491095672209e-02,7.094413551779335525e-02
4.568567831038617966e-01,-5.378998936025849997e-02,-7.610537393946820162e-02
3.936219737419107689e-01,-2.472656147456418763e-02,-5.564927928552871467e-02
2.706457506760035492e-01,-2.964757923916947618e-02,-4.484550717841505330e-02
2.000509046198580831e-01,-6.533672024533329278e-03,-3.001267323192377545e-02
4.323172286759372485e-01,-1.606512529363356145e-02,-6.306940819703139856e-02
3.486328336370110494e-03,5.737140909017349188e-03,6.864957380648297261e-03
3.652116967176878282e-01,-2.704678170092798470e-02,-3.637527089947163728e-02
-3.146455821342204473e-01,2.590031849428642979e-02,3.579646556054508905e-02
2.468585599276514886e-01,-2.670755938672536925e-02,-4.861826100811757895e-02
3.930812659401621278e-01,-3.785219938755613606e-02,-6.932008897726664454e-02
-2.391495611253787734e-01,2.913786480536970785e-02,2.138713156577002131e-02
-4.006327692303685573e-01,1.840162143194614200e-02,5.624402521321167359e-02
-1.345455766505479211e-01,8.111845416101715056e-03,1.227802602056165052e-02
-4.138115075793348530e-02,8.091014473074253921e-03,-1.086812205466704262e-02
-5.772993029243184832e-02,5.754535213567796986e-03,4.591297355852385145e-03
-3.881849730347715632e-01,2.042721745399647681e-02,4.533573918334927316e-02
-7.916242381378597957e-04,-6.024423617933489204e-03,1.845064556664426786e-02
-4.121150404103542386e-01,2.646542504439961668e-02,5.418993400744687855e-02
3.313356522050365793e-01,-2.099333421343568123e-02,-5.376316890262763937e-02
-2.691616286375840272e-01,2.237603366419918180e-02,5.033044299087598150e-02
3.802885704502750874e-01,-2.752522235475010973e-02,-4.632025965952744212e-02
-4.561775078073869172e-01,4.913656966103688295e-02,8.047613410067315509e-02
-2.711723065396797194e-01,1.202331573603805832e-02,2.676490193555133498e-02
-6.077213395617866998e-02,-8.889491702528650938e-03,5.673089858768217211e-03
4.978709682483942744e-01,-4.178541067751303378e-02,-6.317690839937478708e-02
1.285618617398784358e-01,-1.569745992208734786e-02,-8.294896155944852037e-03
-3.549996438137602572e-01,1.645756768866060357e-02,1.921403517746259060e-02
1.698939072931697492e-01,-1.128128115811287760e-02,-2.670428700438456579e-02
1.966338893212600802e-01,-2.917371929906127995e-02,-4.043954962154180932e-02
2.162003314897969763e-01,-1.881588882916443786e-02,-1.912979547096995553e-02
6.216273822724690395e-02,-4.628498462840580085e-03,-1.545267437210602959e-02
3.816171793988544225e-01,-1.587140228619943888e-02,-5.388113606287870533e-02
6.167465330605016033e-02,5.894193217112835351e-03,-1.656099600783576820e-02
-3.209189122995571575e-01,2.481607335812705678e-02,4.213824872563899648e-02
-1.875759755043103771e-01,4.755688221525406628e-03,2.721031841251581734e-02
1.790035372950580239e-01,-1.533169924836381807e-02,-1.647848096802582638e-02
4.312795067688652839e-01,-1.962703683915967279e-02,-4.782325502750147533e-02
1.895417606767971219e-01,-1.080849166409770905e-02,-1.934952822444139381e-02
1.678382037814199201e-01,1.448207861600313848e-03,-2.730697616488527921e-02
4.795658157448294268e-01,-3.086238026368695597e-02,-5.775595988137936787e-02
1.188843231856835797e-01,-4.016715469140882087e-03,-2.779176853684180160e-02
-4.438568528763153775e-01,2.476278330256114282e-02,6.100443558469105521e-02
6.011416693385810556e-02,-1.721259780232316933e-02,-5.223628522843044159e-03
-5.313017727903953519e-02,1.555640681217498877e-02,-2.716801621220565031e-03
1.067005083563778434e-01,-1.115066586122457140e-02,-6.463275212887561842e-03
4.073423942050486968e-01,-4.047189187104405922e-02,-3.671134013738555635e-02
2.910734672918014465e-01,-6.996339593410351096e-03,-3.342617251057173472e-02
2.245544333087191591e-01,-3.548662556571946514e-02,-3.422868703336834351e-02
3.064940272699822610e-01,-1.530997644562577704e-02,-3.836149754417252783e-02
-4.296746871300456960e-01,2.105904466589870322e-02,5.278292672029560179e-02
3.971572748123458063e-01,-2.475429699334496386e-02,-4.418604715236473801e-02
-3.386136192718469662e-01,3.193229012549347184e-02,3.628680591117926235e-02
-4.340610568666814495e-01,3.435258995892554595e-02,4.786852435622458712e-02
3.896009475708593905e-01,-3.100217183069870278e-02,-5.733041994235077432e-02
5.837646579303745753e-02,-1.500769589116970545e-02,3.632274542079129854e-03
4.046041554121307393e-01,-2.827673875700556852e-02,-5.771176270168759670e-02
-1.565194412035829374e-02,1.680503832709919626e-02,-9.313306735593697427e-03
-2.257045472830839228e-01,1.064761649451875791e-02,3.668368010670768758e-02
-4.198654560747128173e-01,3.667343104927370256e-02,5.111025799561339650e-02
-4.717137120506904174e-02,4.608777057077399764e-03,-3.912036805542666237e-03
7.247766483741670263e-02,-1.310972913105822035e-02,-1.669676518197278289e-02
-3.773398817513008430e-01,2.856725931615064148e-02,4.691591383694383721e-02
2.583309391318952541e-01,-7.838166494632710368e-03,-3.491189649102331705e-02
-1.562610939846029168e-01,9.093694025504833744e-03,1.994813951758690057e-02
4.125961491095617162e-01,-1.372224896082701109e-02,-3.541367279659887735e-02
-1.616093998287128353e-02,-4.123596788721058289e-03,-1.029019590615947236e-02
-2.736262118622099226e-01,1.246536716060265594e-02,3.660181709814576412e-02
1.574409671191946414e-01,-1.353336050370357140e-02,-3.085577438226326866e-02
4.212796240911118595e-01,-2.597651045458536714e-02,-7.000064395992616761e-02
-1.930401617248330981e-01,1.534562074170510611e-02,1.945214515870800215e-02
-1.806470719052903073e-01,2.093250561921081165e-02,1.504050772673312143e-02
-2.110070069621648725e-01,2.108178847965213806e-02,2.290520240836169466e-02
1.718686665267037117e-01,-2.798455678492820994e-02,-2.360441033930529148e-02
1.910570332129103710e-01,-1.025811382873976010e-02,-2.061359918225532523e-02
-4.890848452320516460e-01,4.642311411877920319e-02,6.931416125753815660e-02
1.332149162072525650e-01,-2.246888954097074273e-02,-1.262381257654145508e-02
1.191459789348400522e-01,-2.276915814414535999e-02,-2.184861983788638842e-02
2.725865109292080826e-02,-8.012302695574579497e-03,-5.637171936002601663e-03
3.117512230113457794e-01,-3.075123594943317620e-02,-4.110299680232179509e-02
3.303016146100230532e-01,-2.862685890914011891e-02,-4.130589254306574892e-02
-3.859762929679298460e-01,2.406490046635252275e-02,5.180391991696201015e-02
2.496659305583947830e-01,-6.028328281733128478e-03,-3.298896692919134344e-02
-9.101885304892147477e-02,1.414927251010522115e-03,4.721002760314203274e-03
-4.156190800513996919e-01,1.389087149108081398e-02,4.620049221811169810e-02
5.216625031028895160e-02,-1.783333580748403327e-02,-5.426224868175001832e-03
4.117405059266855405e-01,-3.218149738961939565e-02,-3.937581423342702280e-02
-1.781228550137374522e-01,2.278572502967605301e-02,2.230462374483539387e-02
2.020445491084934542e-01,-1.297985071172980120e-02,-2.305656686329386404e-02
-3.252596621014308131e-01,3.657204756488722369e-02,4.824044983713430407e-02
-1.208934761973681771e-02,7.927421214860806697e-03,4.569414910877742965e-03
2.459064068332745545e-01,-2.674559638999653502e-02,-1.752871902167855642e-02
-1.293712153782308194e-01,-3.181872462030359804e-03,1.814964097200864185e-02
-1.716638658185681565e-01,1.385798533798475798e-02,2.199514303713671556e-02
-3.310868080785646372e-02,2.808049567223374135e-03,1.045432741641976609e-02
5.139100744277663030e-02,-1.495579474413071897e-03,-7.295185222684521902e-03
4.365464576593359736e-01,-3.036632873395051987e-02,-3.428760769337713815e-02
4.741654087910474047e-01,-3.602843119452960735e-02,-5.365049443152755670e-02
-1.612612858672193006e-01,2.419761435600157815e-02,2.870985323413357063e-02
2.049452945945825014e-02,-6.337898232094673137e-03,6.508975830713052127e-04
-3.529792753505688330e-01,1.631058417687335921e-02,4.225456281176501183e-02
4.772758436922241998e-01,-3.857325101859396949e-02,-5.664511695225035726e-02
-1.414346683670846816e-01,4.304757534002022490e-03,2.062829553312089254e-02
3.808687148905564590e-01,-3.570281050195831668e-02,-4.506374850288541456e-02
-4.325531015679339591e-02,6.659045739511294804e-03,5.494619352045489180e-03
2.048295857892710181e-01,-2.183519968175604009e-02,-2.633576346908791249e-02
2.683659503934074375e-01,-3.467864880356019697e-02,-5.748416391343487419e-02
4.728147340216460881e-01,-1.760211160980016537e-02,-5.091000294340758403e-02
