-7.244719097111250450e-02,-2.335199395676841247e-02,5.256407796777034375e-02
7.942104582740872054e-02,2.436324955640217088e-02,-7.395704237567497785e-02
-1.139453238800027662e-01,-3.701086418571716830e-02,1.592715274330009367e-01
-3.184578355080551204e-01,-5.163609010281149797e-02,3.576898118770514001e-01
9.718230302844410584e-02,1.477048192647313282e-02,-9.355008606818400463e-02
-1.187769231217160049e-01,-2.066583911930115758e-02,1.203209117243120990e-01
2.992332008570096624e-01,5.985457077846919466e-02,-3.396260075737587703e-01
-3.222058696303722013e-03,1.849166357578692008e-02,1.425699784712164755e-02
2.857622898235194220e-01,6.154370823280782415e-02,-3.562174775146577654e-01
-1.795566062398842866e-01,-2.227047967158837447e-02,1.868231271337702504e-01
2.299099477033379191e-01,3.877963864268157285e-02,-2.581182592841259615e-01
2.663813386271459693e-01,5.511020417333863108e-02,-3.076673720615629715e-01
-2.333989087129188789e-01,-4.602577963891468088e-02,2.624385474646627747e-01
2.872576162861487648e-01,6.179653754772759799e-02,-3.217284839665312535e-01
-2.559549150090939529e-01,-5.750749445348134897e-02,2.889712243522113422e-01
2.049088652247934017e-01,3.969405164640454203e-02,-2.657108605061578310e-01
-1.629508180103942938e-01,-4.378528899852323492e-02,2.027704524879415104e-01
-1.402578580444538703e-01,-3.960496915438865145e-02,1.759246413759589511e-01
-3.213763355047016268e-01,-6.239030663593404108e-02,3.550688232912543318e-01
3.029018498733079268e-01,6.609773709064450942e-02,-3.433053462302723680e-01
1.158045846423337161e-01,1.210292384255001741e-02,-1.508938889507259185e-01
-7.444531182036571992e-02,-1.191567328058915597e-02,6.930018702950180298e-02
-5.062869021372789352e-02,-5.760322247955012437e-03,3.948501774696987904e-02
3.245340043438015021e-02,-1.094098768989770244e-02,-4.017445381198703896e-02
-2.441246323240789662e-01,-4.524634429847326778e-02,2.712751901583865255e-01
-1.495237709861085007e-01,-2.656849107295581117e-02,1.445872968170462125e-01
2.172660299871076728e-01,5.571473758730276921e-02,-2.536120596281988271e-01
-2.516687859326898202e-01,-4.178076026343287980e-02,2.938062656411486451e-01
-2.254665333177735542e-01,-3.349862978152628318e-02,2.424065882881445977e-01
2.019933998693344834e-01,4.388541811119930913e-02,-2.347127094825678939e-01
-5.684152624644675522e-02,-1.212927937360044200e-02,6.340999350139407686e-02
7.948963179613996455e-02,2.193983942466625620e-03,-9.210954862313139313e-02
-2.471819794117399438e-01,-3.833093265418038159e-02,2.768665384074876501e-01
-2.616025333902529115e-01,-4.420016024374825991e-02,2.754356717933775234e-01
9.182074911550446028e-02,1.839607336266637846e-02,-1.131828764958633937e-01
-3.201586659448730776e-01,-6.808194369630846121e-02,3.575959721244694745e-01
1.419930610673992288e-01,-1.422211676677335524e-03,-1.658365342910101403e-01
2.931091933608836464e-01,6.770412472586381791e-02,-3.233737588746312674e-01
-5.983652716596067622e-02,-2.060409588024348423e-03,7.024401902835117339e-02
3.284599585944572020e-01,2.852123272886495850e-02,-3.576619873121738014e-01
1.583353469061638263e-01,1.439333452174229588e-02,-1.801520245800107556e-01
1.625923319062717309e-01,2.427962059784800897e-02,-1.707084379922771122e-01
-2.504630140588014475e-01,-4.100730195266899525e-02,2.671542308632618434e-01
4.529465592752791869e-02,6.402892039090162836e-03,-7.165952953511342538e-02
-2.481655170598774940e-01,-4.669070073851116359e-02,2.815816708419301984e-01
5.836638668095325139e-02,7.734834968429435062e-03,-6.978114164840232281e-02
2.897402014851024332e-01,3.715015136961373476e-02,-3.255442705053879782e-01
-2.948755035834915161e-01,-3.296165648968280709e-02,3.547820665609263679e-01
-2.192886320065779437e-01,-3.215325232050943172e-02,2.530123917321607796e-01
-1.054530917937707007e-01,-1.929417501197759274e-02,1.010730560221855256e-01
3.136799980390519993e-01,5.038018391857613382e-02,-3.377882222180996208e-01
1.556257613534115999e-03,-2.486551560930612328e-03,-9.011024952975680430e-03
2.464647268225194365e-01,4.321429143983359505e-02,-2.730191801055667500e-01
2.649801940284470247e-01,3.688541010759933958e-02,-2.787783132626996951e-01
2.941041773977007626e-03,9.194442072406576114e-03,3.376717598997821504e-04
-1.551012116885066294e-01,-2.831548665582653973e-02,1.632024223596836576e-01
-2.027440504826955592e-01,-4.333597690562147886e-02,2.070095559817828057e-01
9.667878922043711409e-02,1.643601476222595822e-02,-1.295487667624597716e-01
2.566181359725607236e-01,4.849839927261347106e-02,-3.031635355380232211e-01
-1.198748689101866993e-01,-2.824499825106722636e-02,1.369156301524344366e-01
-1.673597136172145505e-01,-1.626413617583621213e-02,2.009486521209016829e-01
-6.788563037920179732e-02,-1.831044224046953287e-02,8.024495531247891056e-02
-2.664617548228917498e-01,-5.658969236621012172e-02,2.988911859986306818e-01
-1.392207267964091499e-01,-1.320522290306797193e-02,1.732833656684678592e-01
1.457776703346004565e-02,-2.627003288992183199e-03,-7.951729549938221092e-03
-1.020161843256136777e-02,-6.857079422068775411e-04,6.216665385412790783e-03
2.859334716970453327e-02,1.726366910393983822e-02,-6.094144301254995899e-02
1.662288985124461826e-01,3.026250008374338496e-02,-1.648416920494131521e-01
-1.289711969900006194e-01,-2.917603069203915378e-02,1.352030579223481854e-01
-3.542279741713222352e-02,-2.729749529130898016e-03,2.756208058690641505e-02
1.620745686636918259e-01,3.883228130084959151e-02,-1.782835188777082691e-01
5.148690468162532563e-02,1.052354334082802574e-03,-5.256962533741062898e-02
-8.427033587330444442e-02,-4.224423057482076804e-02,9.931317670958123012e-02
-9.858647004756088128e-02,-1.802949756174170373e-02,1.345575122144344327e-01
-1.044279816668655519e-01,-2.099681620227622503e-02,1.311006196951977343e-01
1.348923321472944303e-01,4.293770667589709433e-02,-1.776666009587147543e-01
2.589229128774643285e-01,6.485682197312540864e-02,-2.801589152671987715e-01
-5.143156274977413178e-02,-7.802340457415311847e-03,6.360598771885887792e-02
-2.885351797555431586e-01,-3.959058523311246441e-02,3.263894487379411236e-01
1.826330794432355076e-01,3.659192234574536878e-02,-2.200036407118242665e-01
-1.280244407281996843e-01,-3.016938785815128157e-02,1.538891026971652698e-01
2.483538713731538172e-01,4.506358847384438898e-02,-2.732295096377274080e-01
-2.560895282397335215e-01,-4.508333580615971059e-02,2.792635853187351302e-01
-2.542111439093899805e-01,-3.404401192464873854e-02,2.842908142296896590e-01
2.370834215678110923e-01,4.743610665585106662e-02,-2.850728714836743838e-01
3.363534280036656332e-02,4.671108474811877520e-03,-1.287007143549596250e-02
3.200182637980704681e-01,7.637557952094101155e-02,-3.482837338854429254e-01
2.360287940063212353e-01,4.762714432430809747e-02,-2.790351701277893337e-01
-1.971530539565927997e-01,-3.812175731685660263e-02,2.274865628414871332e-01
1.449898437262653883e-01,2.629930286847574628e-02,-1.519170332769900211e-01
-4.851822329332107497e-02,-1.763966255990869619e-02,7.803505620123878106e-02
7.641889729991534208e-02,2.080794025879094747e-02,-1.034763739536615490e-01
2.144328476036234249e-02,9.657572325344400410e-03,-2.745925388770221326e-02
1.330173654564402175e-01,1.450703759936614393e-02,-1.355452791020190784e-01
-2.470379819541213828e-01,-4.869197463760159550e-02,2.967022834159867006e-01
1.997038985192328697e-01,1.470172565781586484e-02,-2.509307435200103797e-01
-2.367095597441674637e-01,-2.751951867763961085e-02,2.650365503107589560e-01
2.070227950284292684e-01,3.755747195388177417e-02,-2.024477486688437411e-01
-1.066296939271861866e-01,-3.269409446459680540e-02,1.425065296509131774e-01
8.954079740511372565e-02,-2.419186676559141862e-03,-8.702622786156162527e-02
-1.553849454901128635e-01,-2.474650420705543780e-02,1.896564647365645007e-01
-1.135437972013697821e-03,1.484422513954061253e-02,-1.033587882317691005e-02
-1.186365171071096652e-01,-1.046104966820737663e-02,1.135516958402443127e-01
-2.283982435863181615e-01,-3.415227952268745648e-02,2.373117652587815596e-01
-3.136391233357465058e-01,-4.953024625244051293e-02,3.398232036387573984e-01
-3.295178697581434002e-01,-7.869215094363818386e-02,3.667541192228523927e-01
-3.192821967723737386e-01,-3.419493147296275709e-02,3.802914004806853820e-01
-2.620810247499632401e-02,9.543406672460494344e-03,3.947972367073873667e-02
2.569378668711306823e-01,5.729624035996386255e-02,-3.055089686787945680e-01
2.601171423445270969e-01,3.750841785894327984e-02,-3.266945098253767332e-01
1.306475174987860588e-01,2.048905106272434079e-02,-1.517675343512269459e-01
-6.707133456671518848e-03,-7.594993349833538410e-03,4.710203942672115326e-03
-9.725260318886135014e-02,-2.060558973919769665e-02,1.313540122824431444e-01
1.265540448881699864e-01,1.472389374528258570e-02,-1.269099956610983959e-01
-1.668532188769718816e-01,-4.035031890517970510e-02,1.817557791665166400e-01
-2.217501799304666954e-01,-4.673278669118056949e-02,2.483599098814464889e-01
-1.504382011935798125e-01,-2.417017707152578979e-02,1.681534830275734915e-01
4.808872803660470957e-02,5.982869393521729993e-03,-5.442922115846956371e-02
7.359876859201304466e-02,1.171643210253931269e-02,-6.995802006480852930e-02
-1.292721294645809982e-01,-1.562037501710979853e-02,1.514763070569075665e-01
2.444875018490673402e-01,5.410795584967081212e-02,-2.886954965223056391e-01
-1.465764983702098623e-01,-3.735956272661006272e-02,1.425927687970885427e-01
3.303615307833867587e-01,4.391656948365663116e-02,-3.358207509558627235e-01
-1.084805076429731785e-01,-2.778891336954677008e-02,1.103494394641536536e-01
-2.252445437960432784e-01,-5.392788172714855360e-02,2.474888897306811719e-01
-8.486693163074617019e-02,-2.912252389565984922e-02,1.175641350496577919e-01
1.929355586841264569e-01,2.731375703037443314e-02,-1.969473526764498050e-01
1.625163532866390204e-01,2.545549780270640536e-02,-1.981517183525786929e-01
-1.803253893355566684e-01,-1.035682052276828968e-02,2.209013030945903844e-01
3.276186654887171951e-02,1.634994704758818349e-02,-4.897432682013733857e-02
-7.857307935726227932e-02,-2.516792623982824079e-02,8.602321915227612026e-02
2.664527213227553815e-01,4.678377653524272428e-02,-2.943654615006273123e-01
6.460243290157750840e-02,6.895644221120273386e-03,-7.413856626770047586e-02
-7.847572715819391143e-02,-2.511345075729636347e-02,9.184035075458756026e-02
1.320846728832897055e-01,2.497890551975708723e-02,-1.398324998782945749e-01
1.499707087682639051e-01,3.318512727971303922e-02,-1.642630488138377975e-01
-2.527592741275635491e-01,-6.345963842835843083e-02,2.787194938189667126e-01
1.533162490313340898e-01,3.294576055548100596e-02,-2.113926699725965364e-01
6.034178685127368491e-02,3.309579492760107884e-03,-8.346816526094048838e-02
2.453691812015631468e-01,6.210513616936588766e-02,-3.062895737891389025e-01
9.748582078508939708e-02,2.264619790262311153e-02,-1.289410050657612550e-01
7.832121343663547841e-02,3.237399078681880201e-03,-7.439924401912423324e-02
1.261430267237848846e-01,2.645402502770024741e-02,-1.382070901920872674e-01
-2.079069752292474482e-01,-3.453583459470654232e-02,2.298251765744540320e-01
-3.986863312110083130e-02,-1.476152670120250976e-02,3.870777646590974758e-02
-2.176696534886165060e-02,-9.947489965301240314e-03,3.843967034050651405e-02
-2.686266590506466434e-01,-4.680558441965106814e-02,3.195169498806228470e-01
2.263326542339412772e-01,2.730643481908373235e-02,-2.375268476356672542e-01
-2.146197629634402637e-01,-4.415760122722393183e-02,2.636249528526269925e-01
7.787817446066148952e-02,2.525916753082067812e-02,-9.026470066314833118e-02
-2.470488470614387311e-01,-5.328508912715020085e-02,2.947572144495798629e-01
4.258930653716666050e-03,-1.362397032984446685e-02,-1.240426677681423159e-02
-2.459532258039558161e-01,-5.662615481497730585e-02,2.949486868825090813e-01
2.771430333051995709e-01,5.733814615888745830e-02,-3.108866833379579919e-01
-2.845550662814588794e-01,-5.910189436798606727e-02,3.384892482064429386e-01
-1.536902733279777167e-01,-3.736135092418174652e-02,1.950069139773288607e-01
-1.944616957790623046e-01,-1.679439225142420611e-02,1.970992688117241820e-01
-3.179320742960290436e-01,-5.387705085242726344e-02,3.711118580443005799e-01
-9.624505980331880817e-02,-2.122915585209218803e-02,1.208688787261083530e-01
-1.457434288573577763e-01,-2.928733131338658036e-02,1.488236547218572403e-01
3.147623461308236836e-02,1.584784244243823276e-02,-1.365642310146818542e-02
2.011947042977506317e-01,3.580235597618049159e-02,-2.259968163725253609e-01
-1.557849681113399054e-01,-2.335210531162314890e-02,1.889379494843957952e-01
-1.433257401114455820e-01,-3.533188521809047661e-02,1.889093447019267735e-01
-1.466965936811769899e-01,-3.797115573547572148e-02,1.457561650588257429e-01
3.263712524639422186e-01,6.302377602845050941e-02,-3.539498122872610231e-01
-1.539475164464638168e-01,-5.847373269704601861e-02,1.665981232941367851e-01
-3.909247202037120783e-02,-9.417351896838612943e-03,6.218200800668840372e-02
-1.483410001267198262e-02,-1.206837077743990079e-02,3.122074951814253485e-02
9.507299189458082167e-02,2.359685323316658076e-02,-1.026384856625758846e-01
-2.377746702262764356e-01,-3.901748646562462619e-02,2.624649024659180263e-01
1.894805612188261643e-02,1.134438527426544913e-03,-1.777188475785542246e-02
-1.706358896077243281e-01,-3.924404138771503403e-02,2.075293596871857216e-01
-1.654683233341635029e-01,-2.025775675111302077e-02,1.966388727286964011e-01
1.901990062371154977e-01,3.291959298482546870e-02,-2.099421080522990146e-01
1.291893504246628514e-03,1.664023718573445429e-02,-1.215485580420170783e-02
2.835853118309771270e-01,4.879583723989446009e-02,-3.106142513220687684e-01
2.258432656420411855e-01,3.438511992922396038e-02,-2.596877977400022242e-01
-2.363907106400604807e-01,-3.397556153746568441e-02,2.699185987657018448e-01
-9.762938213036381763e-02,-1.612263632298593236e-02,1.014931372027079448e-01
2.867217099554936199e-01,3.167627189694137424e-02,-2.990558174620844278e-01
-1.473004376134233288e-02,-4.126586262280441952e-03,1.892160037416575416e-02
-2.472066736998335679e-01,-6.104979725406037977e-02,2.728865370291613801e-01
-1.450607663864152963e-01,-2.090314602529703969e-02,1.377095550721531003e-01
-5.537884346841452643e-02,-4.904626187543325959e-03,2.696037310545005769e-02
3.358203926132652395e-02,-4.059081131642672431e-03,-4.644592265432587186e-02
-1.434875118642195690e-01,-1.080765017566486137e-02,1.636672893808997220e-01
4.833044858825055051e-02,3.320579411939177366e-03,-3.368923566880002024e-02
-3.168129231372959070e-02,2.314422528203649663e-03,4.341817657050577040e-02
-1.679235194396684339e-01,-3.877263020001636001e-02,1.847511644374903450e-01
2.465248440106607708e-01,3.645329833535644604e-02,-2.890381527978255205e-01
-1.869777783329917287e-01,-3.341334362917543904e-02,2.221732720947025286e-01
-1.175417077982631939e-02,-1.333995289194431916e-02,7.898523356300432910e-03
-9.677918555364660447e-02,-1.604437484481264359e-02,1.280813574874062610e-01
-1.910854991444614279e-02,-6.333145691921148563e-05,2.190837537311034894e-02
1.628350021980173590e-01,1.573777404194181759e-02,-2.086337074995202878e-01
2.350686238621169655e-01,3.507850196031301465e-02,-2.694461650200734582e-01
2.946807263072703242e-01,3.867485554998968678e-02,-3.362945253068428952e-01
-3.165314558866304528e-01,-6.060557663561752517e-02,3.538939007951664162e-01
-2.382403254944493731e-01,-3.884573034948891890e-02,2.765548381568341263e-01
-3.334527003483807595e-01,-6.405653841080444222e-02,3.844372123053402812e-01
1.291148236255307800e-02,8.398424157370645848e-03,-3.049334344308519615e-02
-3.128222599750095645e-01,-4.645085918133386865e-02,3.573531119090077590e-01
-1.630679515616507702e-01,-4.435712188429101477e-02,2.069739497019815466e-01
-1.271743700140607891e-01,-3.196917338606348330e-02,1.539585201500665301e-01
1.517072395482736147e-01,3.468412486639104592e-02,-1.804607018273317043e-01
3.873821076340349528e-02,-1.430495585911765013e-03,-4.285204961184109484e-02
2.165772579244277379e-02,1.695635352648169197e-02,-4.711964466251768180e-02
8.339038580812256629e-02,1.781791530796684618e-03,-9.944216835267405408e-02
-3.079898218159942552e-02,-2.432595772038758514e-02,3.748620934260268878e-02
-2.494641114348166433e-01,-3.252974695219892909e-02,2.738682796945431930e-01
-2.856906919651543142e-02,4.276472980391252468e-03,2.020961658872200833e-02
-3.145653345815952601e-02,-1.454150607101622507e-02,3.835347485306841997e-02
-1.676563402346231690e-01,-3.228327214005986823e-02,1.734835913950685815e-01
-1.027302134393783678e-01,-1.799516088920088269e-02,1.166152596363068117e-01
-9.326376342911611717e-02,-2.490411802724586815e-02,1.061267128131544168e-01
-2.750889280462085612e-02,-1.048552498584128662e-02,3.042831502885338588e-02
-1.447966699882620445e-01,-3.112452969744572764e-02,1.567137700200818273e-01
1.414993493751330322e-01,1.884386542477409915e-02,-1.472453886329367911e-01
-1.590398415632804652e-01,-1.468359693015582924e-02,1.513854970783722331e-01
-2.977784077797864665e-02,-7.408777731834501057e-03,3.615610263713495923e-03
-1.008689370882296793e-01,-2.118939037174683709e-02,1.101208231224504869e-01
7.848560873918769554e-02,1.396186147775084485e-02,-9.768370369165933764e-02
2.377835495975277602e-01,4.029075016863419706e-02,-2.641785886080101897e-01
-2.106719927089401867e-01,-4.037114212260269758e-02,2.241445777825334940e-01
-3.007646802751649528e-01,-5.966335416756888416e-02,3.204778256050800911e-01
-1.920673664888115084e-01,-2.924712921875684268e-02,2.178184592771340577e-01
1.978333532037394038e-01,3.485568624962282619e-02,-2.066801897063745008e-01
4.255890362394740972e-02,1.897559865909749163e-02,-4.158327368705518751e-02
2.319788429886658621e-02,2.132568383036262914e-03,-1.791996029752749089e-02
1.186575793907998222e-01,3.189601952923250272e-02,-1.235648435417261715e-01
-1.622736651721153611e-01,-3.266893776277298572e-02,1.792170567301518969e-01
-1.069133981090856084e-01,-2.341371198855785388e-02,1.647713462848625632e-01
2.722774783240304308e-01,4.595360723976719269e-02,-3.246167540281209574e-01
2.935707670086404875e-01,5.544281834321638375e-02,-3.177693796811744686e-01
-7.150905441070003199e-02,-8.293228099541943843e-03,8.706980942529574108e-02
1.039589517075483888e-01,2.124518806068888613e-02,-1.072906032095258116e-01
-2.150170765558333807e-01,-4.290826832982812256e-02,2.446653589623544733e-01
-2.693382258482041047e-01,-5.026384845842034321e-02,3.118813726505725303e-01
-1.989915556112139272e-01,-4.163747533259033740e-02,2.137979860800617304e-01
2.440117955808899508e-01,3.791151286479421678e-02,-2.660196942458656899e-01
6.587750139324681509e-02,2.687583324383903752e-02,-5.378173089425229009e-02
-1.758573275921748377e-02,9.144457995693466845e-03,2.374530438623137854e-02
-1.498383670468424189e-01,-3.257839367493298166e-02,1.646347699029830081e-01
-2.368398606027362074e-01,-3.140228292575871633e-02,2.760218802030168228e-01
5.372725612921108035e-02,1.829266318341180725e-02,-8.067175025871031746e-02
1.249265199367465967e-01,3.260689468679116992e-02,-1.765939622170804579e-01
1.547456114117936876e-01,1.661548413108852526e-02,-1.866944738268807580e-01
1.850626428008738111e-01,3.888686867281553050e-02,-2.038171807490204157e-01
1.345297583594217972e-01,2.576530810194303800e-02,-1.802583974642497644e-01
-2.351125501935537876e-01,-3.226151034672460755e-02,2.299517040100928500e-01
-1.271506033065422127e-02,1.538937762017392533e-02,9.339477979611082031e-03
2.139301274294664601e-01,3.128815579258854146e-02,-2.697025677573727798e-01
7.990540269133358797e-02,1.891043857227430250e-02,-9.351912645442232719e-02
-2.139845209308353369e-01,-3.150966149058651022e-02,2.391193761637801507e-01
-2.503120730088608803e-01,-4.894114121450530291e-02,2.788287545295921044e-01
-4.118180628774749386e-02,-1.898728525930825847e-02,4.907519854047551894e-02
1.534213006402672663e-01,2.908963055969715147e-02,-1.840293221775645971e-01
2.774044921408825304e-01,5.731377531166768902e-02,-2.924342919061374557e-01
6.313918344962225759e-02,2.736688784831500798e-02,-7.308244208162592570e-02
1.631486806679659785e-01,3.618594264534492205e-02,-1.980978742435133000e-01
7.528865119947660001e-02,4.462249254167194941e-04,-9.059269349647670888e-02
2.121304511408437787e-01,3.807472453011882807e-02,-2.394136385484381679e-01
1.558548448035757816e-01,2.475704673207924228e-02,-1.730900757762737496e-01
9.337533677533624288e-02,1.656776730049736371e-02,-1.232693307920728343e-01
1.609002062478594730e-01,2.404499957358573539e-02,-1.677573255470594937e-01
-2.572862446708151785e-01,-5.134162560551858850e-02,3.030347589166159650e-01
1.287538815382198998e-01,1.218628116301565152e-02,-1.342924920551807066e-01
-2.786860595925548245e-01,-4.729230596038046242e-02,3.048752310757472106e-01
-9.875643478643753026e-02,-1.412482751958620518e-02,1.093407809421460680e-01
1.429949352496926451e-01,4.012411958761040454e-02,-1.435749096996109531e-01
1.370895268931653921e-01,3.740827535051474001e-02,-1.571103105966497326e-01
-1.325068501079048056e-01,-1.103287770958229740e-02,1.828738577908541607e-01
2.350210210410906553e-01,5.988903196203439888e-02,-2.549002672800758096e-01
-8.241386674127815226e-02,-1.439861535048221099e-02,1.085225655523763683e-01
-2.606223341574183394e-02,1.106028516913271781e-02,5.771852633182722458e-02
-2.536174098229012630e-01,-3.564637829315847606e-02,2.931746247962555008e-01
4.807182410672829892e-02,5.120757183140772599e-03,-8.216891220106195548e-02
-4.274520250619680967e-02,-6.234798100858967608e-03,3.552298213050607278e-02
2.134125799111315225e-01,2.504257099280335699e-02,-2.625202011946956571e-01
-2.464623924242006214e-01,-3.587605964752729748e-02,2.728195957161426710e-01
2.687341987416863032e-01,4.075674641423737005e-02,-3.215118933146570712e-01
-1.042124275539068751e-01,-2.713488846403444305e-03,1.047891381877735645e-01
-9.952439965812528988e-02,-2.163786504491212181e-02,1.267208054311289023e-01
2.639150882356448846e-02,2.785200809660953389e-02,-2.212999794715341667e-02
2.764479999241891139e-01,4.383311405651039300e-02,-3.397421068004747302e-01
2.750430676923527606e-01,4.717457875173299009e-02,-3.295453838680572622e-01
-9.530658086170049059e-02,-3.079973525958931702e-02,1.458815404684278283e-01
2.384768810923865723e-01,4.177897951354165446e-02,-2.550048700115818967e-01
-1.037967200669721035e-01,-2.943210467446059214e-03,1.029664075139355151e-01
1.230106718700772761e-02,1.987252143651101113e-03,-3.190900905653921982e-02
-3.174617225675326337e-01,-5.873848916120729541e-02,3.576674205879149526e-01
-2.106077581335178972e-01,-2.942904830497113794e-02,2.281912562323951954e-01
-2.611372547046061365e-01,-3.890937080680720306e-02,3.172733125719523484e-01
2.412272435493700851e-02,2.158050028157844445e-03,-3.624193467594487988e-02
-1.991880722782300994e-01,-5.075024385607814631e-02,2.220977076863170641e-01
-8.877249352089124079e-02,-1.418386882294372410e-02,8.319091018784366409e-02
-6.630646143282681315e-02,-1.258318310792419688e-02,7.071661142115756582e-02
1.490909785616171407e-02,1.748208194973082394e-03,-1.435971282992605687e-02
-7.031657085802812956e-02,9.574640148540074919e-03,5.469199482144959656e-02
-2.757491852998542048e-01,-5.536064526677828002e-02,3.150604905432076719e-01
-1.568450187960976072e-01,-3.459059385335512549e-02,1.661038699809785080e-01
-1.150568986473103628e-01,-2.008013785830008516e-02,1.278448083748020270e-01
1.995040849560083540e-01,2.336687042701534461e-02,-2.069090665027530640e-01
2.875615614481269455e-01,5.516642992893027592e-02,-3.130852625395245115e-01
-2.582103479469242124e-01,-5.342875271297647249e-02,2.549989250846561584e-01
8.107894675249192884e-02,-9.644509678888620995e-04,-6.349069701371316821e-02
1.836060745735685618e-01,2.540313209977913128e-02,-2.053014997063139779e-01
-2.851833007580547585e-01,-5.069173829588298485e-02,2.942476212346129549e-01
-8.833245416955953777e-02,-7.042283424020412408e-03,1.095854174368058598e-01
-2.731779174150453238e-01,-5.411620323422085266e-02,3.002788400242259459e-01
1.019664376014309398e-01,1.455482502804475269e-02,-9.416932028300105395e-02
5.194015802677642846e-02,2.213563393533988025e-02,-4.747024424027272704e-02
1.970116832865207168e-01,4.000583947224650716e-02,-2.073322133470199558e-01
-2.172872046380247002e-01,-4.704735959912546839e-02,2.643646178473418318e-01
-3.013658491017549013e-01,-6.368815158644504371e-02,3.504899223535724584e-01
1.023802017637739370e-01,-1.193919124722467653e-02,-8.547910631472895038e-02
-1.689569169097918933e-01,-2.462554880027726170e-02,2.054926105541791115e-01
-2.640849479250489407e-01,-4.514376543469920955e-02,3.081737665659676217e-01
3.137283434387090342e-01,7.101617487892554481e-02,-3.570832064193890099e-01
3.062893766034527898e-01,4.572774475716242376e-02,-3.689942643023614299e-01
-8.820447124967084607e-02,8.870061664334571994e-03,9.510860067519452676e-02
-6.855175856015063851e-02,-1.266159182991662613e-03,7.127317546540413995e-02
-1.039777142289599055e-01,-2.788242184377258057e-02,1.069887811933311478e-01
-2.996282245079330830e-01,-4.656240200259387230e-02,3.387178287432205948e-01
-1.125485062300276007e-01,-8.868536157939590006e-03,9.097164622047218541e-02
-2.558231783956499972e-01,-3.947288162101545567e-02,2.964622556012129206e-01
1.635006601336153227e-03,1.272753829977824915e-02,2.709714659865799721e-02
2.329116685480534799e-01,2.514766258492825632e-02,-2.413225030358177314e-01
-3.313000043647014725e-01,-5.211873937649666444e-02,3.572553370576020959e-01
3.350045757965898763e-01,4.655171978302096586e-02,-3.578260691836399610e-01
-1.965080881755307263e-01,-2.024410265992669655e-02,2.187765891950351205e-01
-1.937728429118009132e-01,-2.466393222976302757e-02,2.328251102794209326e-01
1.769857401831531965e-02,1.041234604058122008e-02,-6.022933450680757750e-02
2.580920376693781604e-01,5.843496292485065441e-02,-3.081925227455409311e-01
-7.498813447049555714e-02,-1.577268589521393233e-02,1.038549226722885743e-01
-2.386763306733230006e-01,-3.893709449961697128e-02,2.648860470028578940e-01
1.474652702044345898e-01,1.268721900648153364e-02,-1.815017089692750052e-01
1.888676363650469425e-01,5.384112124145131600e-02,-2.056584287066647310e-01
-1.553335902342179164e-01,-2.587268339007988208e-02,1.718764459814527690e-01
-1.646558489857073981e-01,-3.683974710101066419e-02,1.911776331067040757e-01
7.579636782042647493e-03,6.049104515458954626e-04,-5.634107446923935537e-03
-1.173610452128747567e-01,-1.074332245221216835e-02,1.431539790713972915e-01
1.349221642868095872e-01,1.563971142305148679e-02,-1.522699123576529423e-01
-1.716588102624132528e-01,-3.091308184660273087e-02,1.975944487400678740e-01
9.338321047236690375e-02,7.441858191215799088e-05,-1.000564635595061064e-01
1.427291889616476017e-01,3.112379808485498181e-02,-1.676903010120824045e-01
2.659066140249203847e-01,5.034590840223427538e-02,-2.851975322151013570e-01
-2.538038949952005630e-01,-6.257910934060616215e-02,2.790624636244866674e-01
1.039846893270147121e-01,2.072466784323285724e-02,-1.113802703521653698e-01
1.588028917977459820e-01,3.140673890756033593e-02,-1.936282056873132873e-01
-2.561902207329265213e-01,-5.085591127136396966e-02,2.782757459046218962e-01
-2.818259220002825027e-01,-7.393089526070531492e-02,3.098057824640250146e-01
-3.206071650159724729e-01,-5.085936670532020115e-02,3.497977022511769563e-01
-1.064699872431163485e-01,-3.012904397519040531e-02,1.163209601861813630e-01
2.974656843987434351e-01,4.959412973580320377e-02,-3.476321527475858542e-01
3.033706234984264172e-01,4.381315394975612842e-02,-3.366877690744185525e-01
-6.642773261262549522e-02,-2.355673988796231494e-02,5.448962000982233295e-02
-3.268877220281011797e-01,-5.109286738703677083e-02,3.645080774140697644e-01
-1.959762327261242720e-01,-3.010991699098685900e-02,2.299881926114139552e-01
6.848407618737531455e-02,1.083394216447553307e-02,-5.285759213384535332e-02
-1.798010854998595143e-01,-2.225316478271567935e-02,2.076988771655997879e-01
-2.935756561949257049e-02,-5.829873904323336874e-03,3.624990562601133892e-02
-2.358028595576492081e-01,-4.842478553708818440e-02,2.520843979281588432e-01
-2.488000664184612243e-01,-5.596516043090313253e-02,2.896808384664835700e-01
-9.775152314428189881e-02,-1.468048438705566068e-02,8.204872274644141317e-02
5.416474775221853666e-02,2.151960437882066701e-02,-2.142572708338347232e-02
-7.075790787214854272e-02,-7.881875446423677531e-03,7.482597492716464016e-02
-5.313112067883130757e-02,6.251792934177450830e-04,8.588967757382466595e-02
-4.325826931121001806e-02,-1.246047668037114642e-02,7.412587213523015583e-02
1.342266176502611152e-01,2.217348985481434540e-02,-1.291304514507968515e-01
2.836645238956838067e-01,6.427541951998319569e-02,-3.046613718899742751e-01
2.534036570042964565e-01,4.640006312316589943e-02,-2.957352038983799281e-01
1.998529692527502843e-01,4.793635787691057082e-02,-2.433306945166990587e-01
1.674855400796492755e-01,1.091931425341213791e-02,-1.797608789989615097e-01
3.279201672969446202e-01,3.957313532869650985e-02,-3.598262277972358314e-01
-3.055858486592355483e-01,-5.886802667242493903e-02,3.346594262132027708e-01
-1.221372804600652923e-01,-1.747721012747169983e-02,1.365028508959982567e-01
1.220569261424033908e-01,3.004976029088023571e-03,-1.481543845948279925e-01
-2.688814763286295761e-02,-7.103663164952266768e-03,3.106033059447041791e-02
1.120110400121392680e-01,1.331252266033480965e-02,-1.315120716079256347e-01
-8.130378904634695536e-02,-1.077653966041463435e-02,7.941754279905584302e-02
3.547037658257169018e-02,-7.559078935000782852e-04,-3.138860948673517087e-02
-2.757914574895707349e-01,-5.033145964519538523e-02,3.069937361435890466e-01
2.407377928592567551e-01,6.336054008176404684e-02,-2.761078544323033457e-01
2.907082686930448912e-01,4.125326099513709766e-02,-3.494714822943557619e-01
-2.575729986325694387e-01,-4.381157231679509712e-02,2.693615358916753300e-01
-2.059969291431685001e-01,-4.070652882584274712e-02,2.246543216231943196e-01
5.286710253451171876e-02,1.186171983881886480e-02,-5.244885731125464856e-02
-1.909426063403973084e-01,-2.541295686163957263e-02,2.116330131550581417e-01
-4.122172326981535240e-02,-6.120183891410866522e-03,4.782802919462329772e-02
-1.225728736495886317e-01,-1.892386480559670597e-02,1.423452803055159921e-01
2.854085157481108803e-01,3.562681071631002699e-02,-3.157299499923814090e-01
-2.978094592395120754e-01,-3.080657973016970655e-02,3.574408927342395681e-01
-2.644978957546143539e-01,-4.445910799121545465e-02,2.944668983057998624e-01
-1.776184255043808113e-01,-1.941724611375050119e-02,2.102709830255053147e-01
-1.388429480557069884e-01,-2.371519293012775559e-02,1.453411134653956882e-01
-2.980155375115512983e-01,-5.195017212714631710e-02,3.156294405291236171e-01
-2.250610181187960579e-03,-9.318375624740441940e-03,-5.473028828641219234e-04
-2.354866086462917563e-01,-5.263266231429062497e-02,2.778671124094718725e-01
2.035348350020463049e-01,4.037577436344959997e-02,-2.406188346463277172e-01
-1.659939223091619620e-01,-1.120184321749644919e-02,1.906219140244723997e-01
-2.631055345228828224e-01,-2.684413913100615334e-02,3.013400326295118115e-01
1.462513214603951561e-01,3.161615530299702326e-02,-1.900260688522333874e-01
2.730143344550297058e-01,4.852166373489787826e-02,-2.951566485024139097e-01
8.729806142823612336e-02,2.116037979970017760e-02,-1.012440168743275887e-01
1.634823493440300257e-02,1.671627398203888448e-02,-3.673256904895751129e-02
3.578030026028505839e-02,8.678743901296052596e-03,-4.507093360562492573e-02
2.584966774711238147e-01,5.379080817092399963e-02,-2.888705427054280017e-01
1.313041149453600571e-02,-1.309814682561106190e-02,5.777327618159066105e-03
2.745823661974345353e-01,4.981170266177539774e-02,-3.091910293884557182e-01
-2.259365258195114023e-01,-3.137795836790580051e-02,2.471489892013675471e-01
1.836624616853449465e-01,1.744545990268874663e-02,-2.035818724776319033e-01
-2.497323036060464241e-01,-4.779937026549095636e-02,2.878742744212449134e-01
3.022730757334475826e-01,2.887329157938960805e-02,-3.532506900024614538e-01
1.794958025572369609e-01,4.277944367055373093e-02,-2.008644219231705275e-01
4.691623963519745560e-02,1.488254132480984308e-02,-3.717305070976503756e-02
-3.247930301756692395e-01,-5.790329312988606175e-02,3.804859255202567847e-01
-7.702901648758084252e-02,-1.974371919811728632e-02,1.025674608023858930e-01
2.267867775254931439e-01,6.934198010588181471e-02,-2.653756302385774091e-01
-1.151205381434003139e-01,-1.660980692741088546e-02,1.271837332198152981e-01
-1.283918484765264878e-01,-4.025407009298952177e-03,1.570053465463175646e-01
-1.365659385819406602e-01,-3.201702557393402288e-02,1.666950046525761120e-01
-4.461612533822206794e-02,-9.600540421516798317e-04,4.618326345355307228e-02
-2.611862586603162506e-01,-4.667138078550903124e-02,2.799826250839409503e-01
-5.107005467615397670e-02,-4.431583442096502859e-03,3.853545830068813571e-02
2.113034888007788159e-01,3.701949956402374869e-02,-2.436407397106628292e-01
1.305380847499635899e-01,2.363248182863622940e-02,-1.354587716517280105e-01
-1.135303830994594532e-01,-2.606354232896682804e-02,1.377694145140902493e-01
-2.877575973159040013e-01,-6.328599758237132833e-02,3.191625682192211211e-01
-1.243558716347504672e-01,-2.830727762986939844e-02,1.419564087956881326e-01
-1.216281993632910147e-01,-2.106194360299434507e-02,1.169632701028885807e-01
-3.168798941040408268e-01,-6.251009985900295163e-02,3.604874882386252533e-01
-8.732095629111087665e-02,-5.448109066978300968e-03,8.524885571597837219e-02
2.992401300577182677e-01,5.299022583902404659e-02,-3.301378847871484501e-01
-3.084112617764227585e-02,-3.797919374188993887e-03,5.451305924934746888e-02
2.345306838905848040e-02,9.533134378823054922e-03,-4.930792505987823676e-02
-6.483388370089707142e-02,-1.756239200167294956e-02,8.390017682087320960e-02
-2.546632797159797956e-01,-5.757260448048918955e-02,3.174043664170980161e-01
-1.984698502815806787e-01,-4.442605340063836283e-02,2.110120030854520101e-01
-1.394685467503793685e-01,-1.396679329967519256e-02,1.822335048253510559e-01
-2.058421681689483196e-01,-4.061173000157814600e-02,2.272097661073465558e-01
2.883202624233852096e-01,5.796776773390467652e-02,-3.183724574390213169e-01
-2.611127888716468504e-01,-5.526065219455630201e-02,2.984383600103343026e-01
2.155406287422112210e-01,4.362312803642659498e-02,-2.619825312000847450e-01
2.808522560450070205e-01,5.760111362118079670e-02,-3.311866832062825838e-01
-2.590408665798671906e-01,-3.923852165373845069e-02,2.956264161354301145e-01
-2.668374309438134931e-02,-1.193522303213406278e-02,5.283714998410506125e-02
-2.704366645819801795e-01,-4.402153664033996855e-02,3.045666738946142815e-01
-4.498570173464728171e-03,4.859727734743124299e-03,-2.388045776386894109e-02
1.560966508916014905e-01,2.290383094032411374e-02,-1.658639710610173845e-01
2.719917385423815115e-01,5.008001240103102797e-02,-3.221128478417709662e-01
2.552744237196073740e-02,1.374166438563564734e-02,-3.769879925349024774e-02
-4.681052147245537420e-02,1.081229704336644087e-03,5.925592702438989279e-02
2.475225545390657422e-01,4.606171657464147584e-02,-2.863799589648864385e-01
-1.777575600483801699e-01,-3.419898785031966898e-02,1.877440559885310001e-01
1.043753169389690372e-01,1.981109603108155426e-02,-1.166681907052841000e-01
-2.732029443835945481e-01,-7.164892252201911227e-02,3.031577043043692798e-01
7.721777407197907318e-03,1.489589452675350867e-02,-1.012692664704263265e-02
1.856354635488898785e-01,3.474687712355623015e-02,-2.017387206625117779e-01
-1.078622180514800522e-01,-8.790530814311376534e-03,1.192113974068640392e-01
-2.884990714820813706e-01,-3.878851528475273786e-02,3.135524322350752291e-01
1.239613899451940671e-01,2.717146941433587135e-02,-1.475590157147124715e-01
1.105638297608804027e-01,2.530988887417430847e-02,-1.429433465605004228e-01
1.337584581369460901e-01,2.641874298093793358e-02,-1.640236933681652187e-01
-1.049850208492635051e-01,-1.256998600552272638e-02,1.403541342058833297e-01
-1.262714052194669201e-01,-2.785240685409922159e-02,1.425226822896064616e-01
3.194449870649012646e-01,4.829954227405179601e-02,-3.765442852656287753e-01
-7.812777077618654475e-02,-1.429809880784794693e-02,1.100092784509651700e-01
-7.348154734852484216e-02,-2.524529080796734937e-03,9.892244436901893867e-02
-1.546760953122166757e-02,1.186675073989030280e-03,2.446126773054891138e-02
-2.014214734596536382e-01,-3.294033670646012019e-02,2.411809365489451240e-01
-2.146432482788228902e-01,-3.854670877494717485e-02,2.531151074801863410e-01
2.581098136227328865e-01,4.605837419147543188e-02,-2.889609222108757147e-01
-1.723405297683559267e-01,-3.437007226227971335e-02,1.804858152165008944e-01
5.970365756277115632e-02,1.916992680670400948e-02,-6.615669789509355525e-02
2.803348037389281622e-01,6.306456616434752416e-02,-3.041412826334309871e-01
-2.548960083255584486e-02,-1.271458620785065113e-03,4.916760209884974558e-02
-2.636871359780713631e-01,-6.001615247719366275e-02,3.146164387044369515e-01
1.114211549046751487e-01,1.758077714096720548e-02,-1.414944504162606309e-01
-1.328902945052552187e-01,-2.744670621929497581e-02,1.520162148209624198e-01
2.101261825840899378e-01,2.780471901807829785e-02,-2.540322586737318034e-01
5.290102282555254019e-03,-4.204577911883033633e-03,-1.357248054113257066e-02
-1.500928822745107583e-01,-3.775050559949207768e-02,1.937513093012846188e-01
9.354970224228240094e-02,1.962917807882256366e-02,-8.910439790800565862e-02
1.124163054153659996e-01,2.001982762355098908e-02,-1.307902660036661391e-01
2.465273191432250030e-02,-1.555310128773435127e-03,-2.455985888603783029e-02
-3.557172556048984746e-02,-6.529076273209645856e-03,3.726279156274912158e-02
-2.781288448911676814e-01,-7.169169473916459090e-02,3.319265132555078712e-01
-3.083545109969140219e-01,-6.239927933315795455e-02,3.606010035865456209e-01
1.029464873832389993e-01,7.025960792656370593e-03,-1.294899190793976640e-01
-9.042512355248218808e-03,-3.188890094600692511e-03,1.920110178344929322e-02
2.368975792766687405e-01,4.900369949942552650e-02,-2.610057976939236246e-01
-3.103102571533023490e-01,-5.952993274333454043e-02,3.642149466370476207e-01
9.805700129472269544e-02,1.741191313794749132e-02,-1.026132189734775685e-01
-2.446510773829498886e-01,-4.549499854240768304e-02,2.940109955975153122e-01
2.643024263943113961e-02,3.714535408585555292e-03,-3.511694874934794680e-02
-1.310464109974822933e-01,-2.151474671506951875e-02,1.596541932919758600e-01
-1.793927974084798538e-01,-5.740938987894377531e-03,2.105055509285241877e-01
-3.170395531963392521e-01,-7.238588927662847894e-02,3.474214158388610474e-01
