2.214234468249695609e-02,-6.876062315123734892e-02,-5.778050423610595759e-02
-2.456734111953046487e-02,9.112793299545210446e-02,5.884777093924024177e-02
4.223766264213477811e-02,-1.815936362969000073e-01,-7.043075651824212691e-02
5.850176522857408051e-02,-4.271409602635918845e-01,-2.148297555006265236e-01
-1.542043865221976937e-02,1.154488538303421880e-01,6.962727901225676530e-02
2.199714434623997392e-02,-1.466650708131456982e-01,-8.377134841294014977e-02
-6.654699879784900518e-02,4.039769246137062120e-01,2.020966216673306393e-01
-1.728524257241717196e-02,-1.580487474598521458e-02,2.647941678315160995e-03
-7.086925924299807000e-02,4.160723509778482820e-01,1.849322915048823290e-01
2.481138431349669271e-02,-2.270501987504528474e-01,-1.243866246710482182e-01
-4.371401129895496201e-02,3.081620024104783084e-01,1.552827926352274568e-01
-6.154984772628516870e-02,3.646124893653812649e-01,1.786748802930516744e-01
5.102127089051657766e-02,-3.127769461168875553e-01,-1.582239743832254963e-01
-6.778686034247986825e-02,3.833880563539940334e-01,1.956106013811788058e-01
6.304050486229158257e-02,-3.436529315776509219e-01,-1.739337698781910635e-01
-4.737244766739987650e-02,3.085086485969476544e-01,1.293977863706616827e-01
4.900287960593271291e-02,-2.363309864982649777e-01,-1.064535562402155050e-01
4.421081741043631635e-02,-2.046253918633426094e-01,-9.145574009799804782e-02
6.869045748978813704e-02,-4.247054700176365882e-01,-2.194448756406364998e-01
-7.278464698221352724e-02,4.080940710196029331e-01,2.052769510144402121e-01
-1.658967241670251253e-02,1.757469672960307872e-01,7.186052162175261826e-02
1.218895918191180774e-02,-8.613164163250369709e-02,-5.403122456355031328e-02
5.252505699713106227e-03,-5.140217889908949012e-02,-3.854529024325694525e-02
9.769831676047368782e-03,4.819082220061758626e-02,1.921224076276276116e-02
5.019358303026152934e-02,-3.242536056417317791e-01,-1.660557136208569429e-01
2.759959929810051546e-02,-1.779951193315623681e-01,-1.073532897557767096e-01
-6.113287510709152633e-02,2.992234634612243038e-01,1.461363303735521146e-01
4.823557156705625404e-02,-3.481707179305675859e-01,-1.668994076752048639e-01
3.737421146078145906e-02,-2.922268433697979839e-01,-1.546767927676314103e-01
-4.888388297802502558e-02,2.776945144142992650e-01,1.353271671003765941e-01
1.329187572989576176e-02,-7.562795286817329543e-02,-3.876395986667964533e-02
-4.253359015672282008e-03,1.100495937138838975e-01,5.175499914670660812e-02
4.360205379823638150e-02,-3.309224999816901547e-01,-1.667705949627631690e-01
4.811375671182384350e-02,-3.331197768380395052e-01,-1.815781639748867693e-01
-2.128433462032479004e-02,1.325604261552068841e-01,5.961995917890976215e-02
7.467307788291799309e-02,-4.264112330111756721e-01,-2.181948521805523455e-01
-2.418702109471197736e-03,1.981894668084724087e-01,9.154721901442934573e-02
-7.332365468810596310e-02,3.861771062611787375e-01,2.013909628786581529e-01
3.691984324187187229e-03,-8.368389065819445416e-02,-3.875891092724157577e-02
-3.474463965776523194e-02,4.314206797104500613e-01,2.220146603663042117e-01
-1.810897314660991908e-02,2.153477222813076075e-01,1.050210727361656909e-01
-2.669178226813531674e-02,2.067951237637204731e-01,1.126519539100666045e-01
4.508528717180475959e-02,-3.223293096241083289e-01,-1.727884149209067688e-01
-9.321785674978084676e-03,8.075094135142818486e-02,2.490142240794993717e-02
5.225597195383328147e-02,-3.351523083969855099e-01,-1.673219242015667463e-01
-9.399789265010873029e-03,8.245366311881316412e-02,3.806452280006202699e-02
-4.348268350111644115e-02,3.893898698582454743e-01,1.944051842148726561e-01
4.162870206122015748e-02,-4.191257803838366880e-01,-1.910732308507427091e-01
3.753175791043064646e-02,-3.007908951815490561e-01,-1.457834375234934310e-01
1.993342918832612456e-02,-1.246335271916178267e-01,-7.601003034134615199e-02
-5.579330018849018580e-02,4.068242787866476196e-01,2.154421059461555654e-01
1.755684221449494136e-03,9.237783973858186212e-03,-1.176591388240559978e-03
-4.814822544947996302e-02,3.267064820144355841e-01,1.676199041095034481e-01
-4.089041590316554176e-02,3.377468926463897958e-01,1.831594798167142935e-01
-8.851677768816915148e-03,-1.343381330063711488e-04,3.864099882198258635e-03
3.061021754622806831e-02,-1.972647306942105772e-01,-1.079019180634939734e-01
4.569806321270015320e-02,-2.513677969098350173e-01,-1.433946681839085024e-01
-2.046587773249792033e-02,1.497246107476951082e-01,5.969508037650726739e-02
-5.536795164388313290e-02,3.580537397060477578e-01,1.698381615987003268e-01
3.097313567738680870e-02,-1.623726085883513970e-01,-8.117545656785477015e-02
2.116371383546241172e-02,-2.376489810672947345e-01,-1.083015035498427342e-01
2.008977771289229691e-02,-9.439465686783775344e-02,-4.548663041350348851e-02
6.219427315390273908e-02,-3.561177388210055028e-01,-1.812518403132420963e-01
1.785340774767986763e-02,-2.035845777398770373e-01,-8.842222026902006593e-02
3.058362486969738205e-03,1.181143085282586325e-02,1.156628552754861497e-02
4.250903754133822225e-04,-8.721087275269616759e-03,-8.182424912556935173e-03
-2.046654256789567222e-02,6.514803824077333716e-02,1.289678248419749880e-02
-3.178500694875929095e-02,2.017653242030925109e-01,1.183263129324224894e-01
3.099379952963444290e-02,-1.631683535841814692e-01,-9.044418207311373525e-02
2.378519569006015428e-03,-3.599020791469470515e-02,-2.685036265198303268e-02
-4.187988875244930825e-02,2.129381499203977235e-01,1.116447231557717995e-01
-1.728860075642306036e-03,6.450459071530353916e-02,3.537998206535705042e-02
4.427475199750097873e-02,-1.155762915271621727e-01,-5.857506948860478901e-02
2.235742909593772115e-02,-1.549457062658407547e-01,-6.034941943469773057e-02
2.450241146661924149e-02,-1.530364775043636660e-01,-6.717819970413853314e-02
-4.811875740580626865e-02,2.045964924445349276e-01,8.619669070248044129e-02
-6.927007207467403282e-02,3.355222167292515323e-01,1.798971905532625593e-01
9.458867656071246952e-03,-7.461985215776881231e-02,-3.307886521340558383e-02
4.608152569348671068e-02,-3.897048465948246276e-01,-1.932787162969216710e-01
-4.186011035639438521e-02,2.587551745604595443e-01,1.199537544784253090e-01
3.379663190279176554e-02,-1.807629527094956889e-01,-8.464542466202393256e-02
-4.984839002345676368e-02,3.273030948644676252e-01,1.695657968850342867e-01
4.979727829392099903e-02,-3.352159052556292762e-01,-1.753654232301836702e-01
3.946465955186465036e-02,-3.402643897113473703e-01,-1.710738239236087033e-01
-5.422678570750835703e-02,3.354035949624126767e-01,1.558497970837145197e-01
-3.083201491733178305e-03,2.127693505181650971e-02,2.926739109996919636e-02
-8.204728549428548512e-02,4.168828227507047623e-01,2.214123588219515659e-01
-5.394045536485565784e-02,3.293100100388630103e-01,1.564733434424122327e-01
4.288763002755258819e-02,-2.698211884863433996e-01,-1.320223798195113429e-01
-2.838561370481913065e-02,1.837966288796002434e-01,1.010225185882438065e-01
2.080196912655220623e-02,-8.699539406186077017e-02,-2.745405572184255599e-02
-2.403322478541201901e-02,1.188539025910380215e-01,4.771092279803795799e-02
-1.038639594278429473e-02,3.158155740990216398e-02,1.420639994816781312e-02
-1.613888374637625217e-02,1.655967529498723056e-01,9.270301065017121089e-02
5.574178362517121649e-02,-3.492097308018506374e-01,-1.624079289256463443e-01
-2.162223121307400506e-02,2.945847904785725002e-01,1.257628967568213685e-01
3.262881652636015484e-02,-3.174250176677980151e-01,-1.587760406164648863e-01
-3.918952771752313990e-02,2.485580599304902383e-01,1.481119983758956982e-01
3.699144636530880825e-02,-1.637936131121160988e-01,-6.745510827574788260e-02
1.619350974246573692e-03,1.082482883161579312e-01,6.226280574288523689e-02
2.950848127562033171e-02,-2.229551287606867938e-01,-1.007308565630156555e-01
-1.578496492124565123e-02,8.601451103541346913e-03,-2.306632128773157368e-03
1.125224518437743446e-02,-1.408212345418329292e-01,-8.438489947903191069e-02
3.730877518787894392e-02,-2.881024357386077206e-01,-1.589152340576939215e-01
5.514271668933198173e-02,-4.088220207925401528e-01,-2.147705539015422604e-01
8.528892409463498248e-02,-4.370536303383891208e-01,-2.258162720262329726e-01
4.323187988466835330e-02,-4.502191713874496015e-01,-2.077634858935284434e-01
-7.937064025772828935e-03,-4.571330766606766793e-02,-1.356046991265352601e-02
-6.429021681047553116e-02,3.597987638576716773e-01,1.704326086281841013e-01
-4.636736783544510160e-02,3.823243174004884448e-01,1.657567356883885012e-01
-2.377889968935578344e-02,1.801011602544965173e-01,8.671848435970916369e-02
7.426596321984288776e-03,-5.850233404226098596e-03,-5.956174993865497556e-03
2.472447636535581722e-02,-1.513330358948812016e-01,-6.019591525597095538e-02
-1.607856545563455739e-02,1.555230112091295080e-01,8.884221429373082013e-02
4.331878465703984521e-02,-2.174800324073568603e-01,-1.154522695563668100e-01
5.136451327665007144e-02,-2.960237924449956592e-01,-1.509017613209764908e-01
2.733907478109797590e-02,-2.010103539745010104e-01,-1.016801665886355871e-01
-7.072359166161866668e-03,6.502183941726821792e-02,3.214035999947498917e-02
-1.212171586581049960e-02,8.654323467209039389e-02,5.302367987816671013e-02
1.903308622928536961e-02,-1.797715166708499512e-01,-8.497231663331313023e-02
-6.057911061675613773e-02,3.404645096867431331e-01,1.626683379134877538e-01
3.836279458103333123e-02,-1.745452385282348085e-01,-1.061854990753004491e-01
-4.783237765401100738e-02,4.099589483529953449e-01,2.312762572824658691e-01
2.897882714120426570e-02,-1.337908921308936516e-01,-7.731408536049591551e-02
5.813735399565127943e-02,-2.956646741277568768e-01,-1.552305382999811800e-01
3.290459897085448726e-02,-1.341283468063219908e-01,-5.290290428715099802e-02
-2.966447683991588202e-02,2.400992002214375476e-01,1.350215676141126031e-01
-3.041985197341863512e-02,2.330159125165110201e-01,1.053654025762912061e-01
1.609944629163649263e-02,-2.607481403915245521e-01,-1.147741721412684907e-01
-1.810485862038799937e-02,5.487800049167728539e-02,1.999411193531411279e-02
2.655854242620341726e-02,-1.024132817017326114e-01,-5.489363441687680756e-02
-5.204330722603126708e-02,3.524348977790630055e-01,1.814330079454044287e-01
-8.462871710095902500e-03,8.840392646384953590e-02,4.278640955315190370e-02
2.705403695790566804e-02,-1.079693952971805676e-01,-5.323968399712341454e-02
-2.700546327990699727e-02,1.687470841426940982e-01,9.175271712728715057e-02
-3.596056642438600487e-02,1.965434973466565483e-01,1.032100124979431488e-01
6.825360322585806439e-02,-3.325411012095359498e-01,-1.742320127149086795e-01
-3.983739325622250721e-02,2.426814710122845442e-01,9.379148148751580150e-02
-6.121418767782649088e-03,9.642197753993278497e-02,3.583782427002583232e-02
-7.008062737851850077e-02,3.570429251519575686e-01,1.596416026580800285e-01
-2.650563273857210397e-02,1.489454405391009151e-01,6.127663091829629871e-02
-3.735391101382884525e-03,9.267213392748421819e-02,5.547849298822914860e-02
-2.880369548231330110e-02,1.654552204281082295e-01,8.664869052799209492e-02
3.866779344718881961e-02,-2.752623105361305944e-01,-1.413262472290378047e-01
1.499176132978966881e-02,-4.709225305598810363e-02,-2.938144534857822440e-02
1.166991988079996156e-02,-4.218234872080085102e-02,-1.161137456839585018e-02
5.422886812591363320e-02,-3.771539324733415577e-01,-1.767944202407709109e-01
-3.070460202828930937e-02,2.882017579831803178e-01,1.561668633626734359e-01
5.081339775123531327e-02,-3.088774421569490114e-01,-1.397224981981463887e-01
-2.710079166037167656e-02,1.062840851048596352e-01,5.310359811055322121e-02
6.011752234774295905e-02,-3.470379321097573078e-01,-1.634160524902683598e-01
1.271233423327919332e-02,1.398524142235904946e-02,-6.530488739426683819e-04
6.354024902723291734e-02,-3.466953756977906864e-01,-1.626628163088996715e-01
-6.318043163360811953e-02,3.705089584979105455e-01,1.883555109966397745e-01
6.689442487627358935e-02,-3.989017027600940124e-01,-1.882608782282267357e-01
4.266281656486672902e-02,-2.267714082652282914e-01,-9.898929049966662119e-02
1.911553969336409614e-02,-2.413728068654397707e-01,-1.353487670819729094e-01
6.201807239514626341e-02,-4.397186013759578072e-01,-2.109712349022630495e-01
2.444942376155494895e-02,-1.409577398916126434e-01,-6.209843542006428241e-02
3.100099766648287472e-02,-1.808357671432886671e-01,-1.028821583206309120e-01
-1.442355110340043552e-02,2.068492793724094683e-02,2.815138144431297840e-02
-4.011694361113515850e-02,2.696597651403749851e-01,1.360511692017392082e-01
2.802522519519680053e-02,-2.224698733281449126e-01,-1.011610996451800665e-01
4.092873261177803340e-02,-2.182102337499607081e-01,-9.047918623004103100e-02
3.925437554698211345e-02,-1.775710909633314571e-01,-1.055185318923292370e-01
-6.880645975868389386e-02,4.249628853289103003e-01,2.245949188792079054e-01
6.094653141578429412e-02,-1.981736913113713028e-01,-1.090259524200471314e-01
1.193774559942139928e-02,-6.975283419826983078e-02,-2.180693367872774124e-02
1.366921188395043424e-02,-3.320973852825232636e-02,-7.120197345516381116e-03
-2.519740944595347601e-02,1.229912913410053377e-01,6.609521027189754760e-02
4.371166198920484192e-02,-3.144771961647614966e-01,-1.616798279818641992e-01
-1.231043970103394992e-03,2.217824862704007374e-02,1.351907866675403080e-02
4.431133621548177109e-02,-2.433139819050424424e-01,-1.120711757373173412e-01
2.487995306424212530e-02,-2.327265442705126197e-01,-1.080570799672341542e-01
-3.666070855589697447e-02,2.514326187538369894e-01,1.295093856988105974e-01
-1.753802036456180574e-02,1.089247602406684390e-02,-2.807308356676906764e-04
-5.415184494303125484e-02,3.725941047458257716e-01,1.937113490235061186e-01
-3.983199327652314770e-02,3.088451430791759322e-01,1.505103295839967104e-01
3.951570848108862388e-02,-3.215850187112562208e-01,-1.578370721410450594e-01
1.746513708310372393e-02,-1.230989110329094721e-01,-6.807289949449635280e-02
-3.583164563041999623e-02,3.635234553600538154e-01,1.980249925981811265e-01
4.652054559560429327e-03,-2.191976069646534020e-02,-9.482211951612222120e-03
6.577327021867598877e-02,-3.255823310873366405e-01,-1.702213322904700121e-01
2.170248906148432647e-02,-1.705530756422357630e-01,-1.043270788148953770e-01
2.848936714596461695e-03,-4.075342403897366794e-02,-4.635488505669704135e-02
2.449351030788354724e-03,5.405271695495057066e-02,1.933281410219757357e-02
1.423016173598084556e-02,-1.956963527971718186e-01,-9.483086509912241890e-02
-2.479874381790371854e-03,4.537583642730740746e-02,3.763916577042131922e-02
-8.446166694234799382e-04,-5.050873621885254572e-02,-1.850278571650118553e-02
4.194462088173402797e-02,-2.207534086210050928e-01,-1.155127670689941460e-01
-4.292582851955646650e-02,3.425420505285283190e-01,1.626920782103636609e-01
3.855278713065822538e-02,-2.622446331759006877e-01,-1.232052715227108519e-01
1.301145990814497368e-02,-9.908966010534323368e-03,-1.053640587446456715e-02
1.993242749325265656e-02,-1.483711919130585588e-01,-6.014278511117816806e-02
5.401869316445683574e-04,-2.626180516531020220e-02,-1.245565693705433762e-02
-2.172686380595239761e-02,2.438111272610191949e-01,1.018578273403059481e-01
-4.067426298074104662e-02,3.206941454873151187e-01,1.568115571294668720e-01
-4.559255969054342578e-02,4.009561352161665759e-01,1.964229589267180442e-01
6.720622780488466619e-02,-4.223667126100344449e-01,-2.149320230405305787e-01
4.481496611074958780e-02,-3.281304487114399815e-01,-1.583415593170680591e-01
7.209071605138991923e-02,-4.560808034420352208e-01,-2.233363899564258515e-01
-1.011702404766832118e-02,3.223058486033075765e-02,5.091082737835998275e-03
5.378593110100867575e-02,-4.256177139723160696e-01,-2.089816509031015568e-01
4.995208516944479871e-02,-2.403562627838895238e-01,-1.055015785256103317e-01
3.565851538632415496e-02,-1.804746251504585342e-01,-8.399972809184935718e-02
-3.881407144756675309e-02,2.124551814446696829e-01,1.006995714394727515e-01
5.972087076763012451e-04,5.184648940590379229e-02,2.550643692776109750e-02
-1.944183079294063005e-02,5.000534820335542779e-02,9.915457176421199614e-03
-4.208089651943575440e-03,1.181825459130504408e-01,5.348882028947023887e-02
2.511032144982516465e-02,-4.278301396012206687e-02,-2.201433365987823590e-02
3.737983311107447720e-02,-3.290649371800911660e-01,-1.691548909988596638e-01
-4.697858491504098774e-03,-2.752583349176314712e-02,-2.152131861080970252e-02
1.542825354264481391e-02,-4.445441735061493593e-02,-2.139466522205651575e-02
3.447807703388171274e-02,-2.103101694102004759e-01,-1.175938323678861197e-01
2.031407841965011951e-02,-1.388788903479149239e-01,-6.911174561869948274e-02
2.696729218430734404e-02,-1.257513949955231247e-01,-6.356552245619480346e-02
1.098844946850943693e-02,-3.604112607912642041e-02,-1.930955676048767486e-02
3.363603891451802386e-02,-1.880191692809505821e-01,-1.000571165461317524e-01
-2.083808374138673009e-02,1.788583701987961905e-01,9.815202130987867035e-02
1.566115685785156655e-02,-1.879318922998660935e-01,-1.134159599501401577e-01
5.253561709168858528e-03,-1.115605395790126263e-02,-2.833063670152500060e-02
2.303122739533377053e-02,-1.319232538886480344e-01,-6.939701770895684296e-02
-1.653160983315590110e-02,1.143273472921887135e-01,5.052715962193236182e-02
-4.513393612813843686e-02,3.160375009326259477e-01,1.613626769148091833e-01
4.370317521795814841e-02,-2.701813557764120022e-01,-1.461005709921684992e-01
6.444929009673784626e-02,-3.860458437517566566e-01,-2.086625049311159885e-01
3.359709146565636323e-02,-2.597477986222430646e-01,-1.288117447878786848e-01
-3.765397648416844711e-02,2.502727514457516733e-01,1.378962771779328744e-01
-1.922110815481238230e-02,5.030606348088605823e-02,3.162832988057056455e-02
-1.887786748547426972e-03,2.342151678264130232e-02,1.765455957279447180e-02
-3.345255721296430673e-02,1.489873474267410514e-01,8.395799241788309830e-02
3.583467833567431649e-02,-2.143032451082161061e-01,-1.109448074072185986e-01
2.983229876914731890e-02,-1.858506840031841911e-01,-6.080978841056743078e-02
-5.355975767924810171e-02,3.831062855572468506e-01,1.788399355302464078e-01
-6.059731625818692152e-02,3.817544468249459144e-01,2.020559021719575687e-01
1.048890784370140085e-02,-1.026111001256240357e-01,-4.609142167080892277e-02
-2.257044335440297478e-02,1.300546073760438515e-01,7.311955538690796674e-02
4.777601856950518255e-02,-2.908866528714399990e-01,-1.450414003267895269e-01
5.689140872390938131e-02,-3.697934321424566906e-01,-1.798769305081281411e-01
4.495148930466019016e-02,-2.569612285825519371e-01,-1.378085194143369441e-01
-4.243520203948033392e-02,3.196759143307894013e-01,1.665895565202500650e-01
-2.628955618039863565e-02,6.788491840750578155e-02,5.152792707836789665e-02
-8.301109716457670193e-03,-2.822490942600969568e-02,-9.548018353421667062e-03
3.540393749972081672e-02,-1.969044822364197644e-01,-1.029207535895198533e-01
3.749376807579563042e-02,-3.277354346543723818e-01,-1.563681665860078285e-01
-2.126951129670785409e-02,9.091246100557986987e-02,3.180728203458244724e-02
-3.858253403229830458e-02,2.015233126123931739e-01,7.586181514783105206e-02
-2.121662709071974948e-02,2.204859922874656541e-01,1.000644145614270758e-01
-4.243171881250992067e-02,2.437442009200943838e-01,1.268468653161765880e-01
-3.134964448596168352e-02,2.081388741298977330e-01,8.337029272321370976e-02
3.419834985462751747e-02,-2.830167568754415330e-01,-1.671181937445507526e-01
-1.544088029779499237e-02,-1.348961832648654796e-02,-8.083375824184564629e-03
-3.866535839913574218e-02,3.153834172897637678e-01,1.360985427119129898e-01
-2.093823061867383303e-02,1.103902571291304480e-01,5.351529415580066895e-02
3.603333365635916219e-02,-2.860511140023305199e-01,-1.443491221512658573e-01
5.405725568983973939e-02,-3.329506345738511564e-01,-1.703482656032874465e-01
2.004281917083997402e-02,-5.711216089565909065e-02,-2.830759191348415638e-02
-3.345479065375443761e-02,2.167258095239253946e-01,1.008057239738771871e-01
-6.141690433337817362e-02,3.528847941200112803e-01,1.935361003121721379e-01
-2.879766856327582725e-02,8.561029032551238649e-02,4.379633379065777515e-02
-4.101088942052481118e-02,2.324156066217767658e-01,1.071017038902646323e-01
-2.721333055983002781e-03,1.075574341878923618e-01,4.795423785634281982e-02
-4.272679581836333340e-02,2.853815313586649527e-01,1.431771830661008604e-01
-2.793814726226061251e-02,2.071947878450615399e-01,1.056105968228066155e-01
-2.028208505865982531e-02,1.427848735221828869e-01,5.822275555213698300e-02
-2.632256726573990041e-02,2.035152727552676510e-01,1.117954151908259613e-01
5.812265053805121956e-02,-3.579224770816190060e-01,-1.708083640296017003e-01
-1.406797204323388326e-02,1.633792582352300571e-01,8.871218080528517347e-02
5.252616308261669198e-02,-3.658440371206684860e-01,-1.903957227272578268e-01
1.612120865884477533e-02,-1.310699807181956167e-01,-6.684696946858646738e-02
-4.149032815968806825e-02,1.743163407755285166e-01,1.027794589537583958e-01
-4.053844244601759877e-02,1.858573678980675603e-01,9.322146011686827105e-02
1.713965451693327466e-02,-2.110831647083323270e-01,-7.920080428340441070e-02
-6.394322399149385272e-02,3.050595073541370605e-01,1.632350569529270878e-01
1.765293603249027884e-02,-1.257735364018118251e-01,-5.143835319822211843e-02
-7.732245318578008161e-03,-6.326817707325445295e-02,-8.387392486203808575e-03
4.193032956586070087e-02,-3.485137185163014184e-01,-1.682969130541618064e-01
-8.800911455574433884e-03,9.168038257802664515e-02,2.461917885065523226e-02
5.999031532153036202e-03,-4.540273980269090431e-02,-3.210155982477928827e-02
-3.184152374612103653e-02,3.087730493681038468e-01,1.368730689763543451e-01
4.084815396754192668e-02,-3.270085268947791057e-01,-1.669077170102197250e-01
-4.840358650085786751e-02,3.795041390486300625e-01,1.757349730508928898e-01
3.927938530133705773e-03,-1.289729454439433876e-01,-7.210344792692810478e-02
2.513168244695131170e-02,-1.474444322248054939e-01,-6.371815913392696318e-02
-2.753986577638494609e-02,2.660564870095998360e-02,2.226383058592360659e-02
-5.252281925819114738e-02,3.989024453309229501e-01,1.785713589839704185e-01
-5.500406379160025644e-02,3.885114997441305729e-01,1.802988006830462120e-01
3.635172694479745642e-02,-1.640449405102840652e-01,-5.550856995238155622e-02
-4.569990984302289838e-02,3.073294044779524836e-01,1.646339729762231197e-01
4.020178528153707520e-03,-1.270950007863252962e-01,-7.221635272269455452e-02
-3.936970991116481126e-03,3.385220720888340584e-02,3.461012928891673071e-03
6.562879153873923954e-02,-4.263673827645663716e-01,-2.146202595053815221e-01
3.322741395991988395e-02,-2.747816333144566525e-01,-1.438191191937183699e-01
4.679697803623043828e-02,-3.734745865386003838e-01,-1.693981577766352220e-01
-3.543278025550163513e-03,4.124668677062189037e-02,1.364539668033206907e-02
5.475068939869614376e-02,-2.643619297821805936e-01,-1.367260006037423481e-01
1.456149599027858378e-02,-1.032406553031736812e-01,-6.427904172964468699e-02
1.364865962147627891e-02,-8.520747676451009833e-02,-4.592518317572666375e-02
-1.852641295349281630e-03,1.775382745849154661e-02,1.062582298649840905e-02
-1.015822204547890684e-02,-7.243277385463159357e-02,-5.174564682515949560e-02
6.172072867857540668e-02,-3.742619820830735411e-01,-1.856988081756282549e-01
3.696451879103650889e-02,-2.001044310721338260e-01,-1.094495579834772192e-01
2.242061406106472810e-02,-1.528978874099739260e-01,-7.813545278442662889e-02
-2.613840192067729690e-02,2.517252026574254287e-01,1.382405824670853989e-01
-6.037828848887544925e-02,3.756283364052405149e-01,1.975226149118553265e-01
5.564587223145543715e-02,-3.119648431502061725e-01,-1.847515649176862396e-01
1.675174677338542436e-03,8.325088651535145212e-02,6.059932395380733527e-02
-2.930918147933371867e-02,2.456752455108542621e-01,1.236521780909994594e-01
5.437870154473001261e-02,-3.572085642306569442e-01,-1.998144850192985489e-01
9.968324074174939389e-03,-1.289155130794311654e-01,-5.605892375759461560e-02
5.931990220732070301e-02,-3.594617417869821474e-01,-1.870575450913072590e-01
-1.487292788591429785e-02,1.173726420170826540e-01,7.402240966974871217e-02
-2.213783820239947214e-02,5.831878296537081063e-02,3.937037041938239862e-02
-4.289232844738902206e-02,2.503254184809675653e-01,1.374705432350198930e-01
5.353165160578866183e-02,-3.101256695120084839e-01,-1.423807076127670546e-01
7.118812270094142247e-02,-4.147247334808368269e-01,-2.016342926049476125e-01
1.225982792591057309e-02,1.109355499497792774e-01,7.398599863325959480e-02
2.975315158273170862e-02,-2.418832282148756507e-01,-1.094866398104994976e-01
5.189512212898357568e-02,-3.651378723417509353e-01,-1.753029382486545884e-01
-7.806272331936731090e-02,4.239539016853541842e-01,2.124770278211543517e-01
-5.468636352852535715e-02,4.350352705410867604e-01,1.995361896449323880e-01
-7.158759858809520676e-03,-1.160670404355215873e-01,-5.815107003813099057e-02
2.287083066426979019e-03,-8.712061769883511220e-02,-4.675018207995371849e-02
2.912689350593916301e-02,-1.293233809005888413e-01,-7.390859917846316629e-02
5.324041224481938089e-02,-4.041095057278709102e-01,-2.013352020758584215e-01
8.067519656207495019e-03,-1.175980849047113808e-01,-8.442311980493839851e-02
4.585307987277052744e-02,-3.520156926961401922e-01,-1.699291709681304552e-01
-9.972954859065198338e-03,-2.639633378659152901e-02,1.013373403804305149e-02
-2.837792768419269973e-02,2.937963766411633149e-01,1.612302175265866722e-01
5.789022208743881820e-02,-4.302226088886262345e-01,-2.272986157681527730e-01
-5.211634162850033863e-02,4.321633869025223174e-01,2.301158798584475584e-01
2.438956070250518360e-02,-2.624938866010015359e-01,-1.318732619470692202e-01
3.030692735597276949e-02,-2.749181892275245898e-01,-1.259572767484240519e-01
-1.449251534660556465e-02,6.193094677784438673e-02,1.937533899503091333e-03
-6.557564073695258677e-02,3.626132169531672833e-01,1.709393638382757097e-01
1.918900228660258903e-02,-1.191626327079852166e-01,-4.571533716738634262e-02
4.378358149523089299e-02,-3.170526336645059229e-01,-1.618880215655404409e-01
-1.743044159786256292e-02,2.137684424471801292e-01,9.406951961588240485e-02
-5.713104309666951902e-02,2.455493740231379785e-01,1.315552679761710086e-01
2.897481390444694646e-02,-2.058123609280766431e-01,-1.055517168618505391e-01
4.089213111881174340e-02,-2.261487633460252111e-01,-1.104634483509249199e-01
-5.050605605287490597e-04,7.446903295900569181e-03,5.817948285888304219e-03
1.439268071901788140e-02,-1.688431015872061403e-01,-7.527916991357884446e-02
-1.866419309018329739e-02,1.820847936608469275e-01,9.017479144649916123e-02
3.503597412042327996e-02,-2.346276030715507555e-01,-1.148403253965484677e-01
-1.754017404145095937e-03,1.216341272151060943e-01,6.271991673983487448e-02
-3.482630173240931770e-02,1.979783736332892119e-01,9.514221735675633396e-02
-5.476908116032747076e-02,3.432519371268243913e-01,1.837311232866221944e-01
6.732637925402699952e-02,-3.332165427978884820e-01,-1.750494641726506873e-01
-2.243258889497895189e-02,1.340191324929423666e-01,7.199682754592440226e-02
-3.620770554384967338e-02,2.272557069061517387e-01,1.036362362673305254e-01
5.542516459685847829e-02,-3.339074657713413941e-01,-1.763263993302527921e-01
7.916178589181828429e-02,-3.696425429377978022e-01,-1.948564921638532565e-01
5.682051433091605402e-02,-4.202148771821421214e-01,-2.189176742234750228e-01
3.202127558018826731e-02,-1.388078330373520852e-01,-7.403517171409643161e-02
-5.725554054403284715e-02,4.118605255057690706e-01,1.971959313223977384e-01
-5.001735496758309002e-02,4.033765341812830529e-01,2.051770391128137361e-01
2.301695850646599123e-02,-6.893862250140471437e-02,-5.152056183446424714e-02
5.790826933973415580e-02,-4.360346668584513252e-01,-2.210262519484237909e-01
3.526666157594307571e-02,-2.724364088369328196e-01,-1.293929107668443379e-01
-1.007212742386685671e-02,6.879538886101387030e-02,5.260337214351051144e-02
2.671780089029065011e-02,-2.471405172095970104e-01,-1.190385699451445151e-01
6.759527954998280526e-03,-4.244637316784484471e-02,-1.904006127772466320e-02
5.224123469144995036e-02,-3.033456936341522026e-01,-1.635442926555606968e-01
6.216112991820754025e-02,-3.424702046212828033e-01,-1.667294613452607321e-01
1.421378582995721368e-02,-1.045804569265633976e-01,-7.323773702538463604e-02
-1.891985207909932173e-02,3.399259524958165440e-02,4.839956320295848297e-02
9.002208318900573741e-03,-9.068921265813165156e-02,-4.860204690780385584e-02
3.032002115553769899e-03,-9.702687590389509620e-02,-2.787356925430307247e-02
1.572881356100357120e-02,-8.214864485642717207e-02,-2.292140560540566890e-02
-2.305014507771057514e-02,1.592605567173028813e-01,9.637368891999933962e-02
-6.895143004130629971e-02,3.658641829614517338e-01,1.969886877831419081e-01
-5.285701619683406960e-02,3.501867184822656243e-01,1.685262237848795530e-01
-5.388097117038022354e-02,2.850987672553273455e-01,1.313943091418058873e-01
-1.387715545462527011e-02,2.177222647425098578e-01,1.135299571474264052e-01
-4.595700378799816299e-02,4.326038295527804833e-01,2.220686016295108367e-01
6.458624006325186517e-02,-4.010265129122845829e-01,-2.094073555402146403e-01
2.006491453634338257e-02,-1.633237757767264653e-01,-8.233310346050612405e-02
-6.795567780276155941e-03,1.754511354825080416e-01,7.763610043904831115e-02
7.742246284891121481e-03,-3.670433563444921304e-02,-1.819417539278215395e-02
-1.629562507013060380e-02,1.560334121478753611e-01,7.353331367384542683e-02
1.143978284415047772e-02,-9.779758441732849805e-02,-5.777845511260604888e-02
7.279063020579106457e-04,3.990801504241988512e-02,2.551047441646430228e-02
5.597580742648700786e-02,-3.668754113225747848e-01,-1.873725685245350436e-01
-6.889503782658595865e-02,3.267377397134270667e-01,1.634035294577304565e-01
-4.970270698611908150e-02,4.123283482724324767e-01,1.893631962537446201e-01
4.749211461482887725e-02,-3.262123486923463322e-01,-1.793012635800448062e-01
4.446568590726308889e-02,-2.693622969992036098e-01,-1.415205859991820192e-01
-1.233083060292620645e-02,6.404040510661904162e-02,3.785882580862245245e-02
2.930854980117591699e-02,-2.537642603667634167e-01,-1.289889088978816989e-01
7.155498182737110753e-03,-5.679336117425379943e-02,-2.734082056426373128e-02
2.200875068435405313e-02,-1.689496053842469148e-01,-8.133908392018955602e-02
-4.141151740264407272e-02,3.788885628557245866e-01,1.927206138146129732e-01
3.949788608561240894e-02,-4.226276373243660345e-01,-1.929489785675067570e-01
4.990583112839470925e-02,-3.521512499793724160e-01,-1.792914066462232281e-01
2.432166895071125046e-02,-2.491982714206204541e-01,-1.159650756401959387e-01
2.571177482302154649e-02,-1.759736201841558267e-01,-9.662299673787107246e-02
5.656893122801769785e-02,-3.811592568238190148e-01,-2.065226420233392535e-01
9.011591213249244003e-03,5.335689022219284585e-04,-3.271611063205073777e-03
5.884298065446974535e-02,-3.277036176040198923e-01,-1.567868450787119339e-01
-4.582512847474880940e-02,2.840192014938264231e-01,1.348599517440117190e-01
1.529065829003284013e-02,-2.277099530070853528e-01,-1.092270603466524992e-01
3.318036156163725603e-02,-3.595465313228649595e-01,-1.742879823388491789e-01
-3.710640141927491753e-02,2.203358420501437265e-01,9.259680788372016969e-02
-5.330496196812463394e-02,3.548807706904217318e-01,1.876881601179251069e-01
-2.328559013202897293e-02,1.196802570426450107e-01,5.876632982971077834e-02
-1.867066036158408077e-02,3.859946564075268649e-02,7.580760130764086814e-03
-9.882558467402807051e-03,5.248067797087690306e-02,2.313121303257940908e-02
-5.913526339351760086e-02,3.445054622500284824e-01,1.760090362836334021e-01
1.460868181602436797e-02,-1.048991052338258062e-03,1.276059183811336165e-02
-5.576348938284767659e-02,3.686854025998580475e-01,1.855728465173978325e-01
3.567298454863929852e-02,-2.970472935062858921e-01,-1.536387204710107646e-01
-2.124812195042323493e-02,2.445772711191744331e-01,1.233381468586004642e-01
5.381384954146164329e-02,-3.415436704002290935e-01,-1.672560669834936287e-01
-3.682441622126184783e-02,4.199662238875684905e-01,1.981440446513139941e-01
-4.647455144715204739e-02,2.391195508393784697e-01,1.227081757875900514e-01
-1.439271854050137682e-02,4.754983223261569081e-02,3.655574352310069636e-02
6.632506078428036800e-02,-4.503245353942033069e-01,-2.154568227254395618e-01
2.284269725742368862e-02,-1.182215688830878797e-01,-4.842767470252997558e-02
-7.497186956001264391e-02,3.122059907726012495e-01,1.535298534171746221e-01
1.891027561302937102e-02,-1.525150164950494214e-01,-7.801216061663185375e-02
8.114216723818011220e-03,-1.856131216911078852e-01,-8.144493872537450496e-02
3.612391058258243581e-02,-1.952691041613313361e-01,-8.959693146388116036e-02
1.604463675169199178e-03,-5.649657898956947366e-02,-3.049551485006415583e-02
5.102330256882481319e-02,-3.371999133095663348e-01,-1.802209502396582008e-01
3.809512622609678364e-03,-5.070227443776932630e-02,-3.908372990502562844e-02
-4.214087255727571452e-02,2.892794299014513904e-01,1.411452304192860885e-01
-2.538866462942939925e-02,1.642176779657716079e-01,9.130024390344741725e-02
2.940672859570355596e-02,-1.615939923739448392e-01,-7.464243861870520358e-02
6.898506821750875762e-02,-3.809642615615815298e-01,-1.969304167242110215e-01
3.113786193947732858e-02,-1.684350426155475089e-01,-8.412714632006901283e-02
2.184446032052120637e-02,-1.442020208336551312e-01,-8.744156701848797286e-02
6.968146488992645049e-02,-4.286581855878280334e-01,-2.137013393212794932e-01
6.203340511446593306e-03,-1.054035510173557816e-01,-6.142970535754031097e-02
-5.885161729592890134e-02,3.953409694713215239e-01,2.039255929065610928e-01
6.322279085254096410e-03,-6.050727808710809619e-02,-1.536785508320810158e-02
-1.213275885489594787e-02,5.309757399718522536e-02,1.027824595149889018e-02
1.993732487727028352e-02,-9.711169571902308895e-02,-4.150820871164782183e-02
6.585792262412967779e-02,-3.705636534661823633e-01,-1.651024996795471267e-01
4.750185163237802266e-02,-2.539579887054483898e-01,-1.383435405136905494e-01
1.942212815632149078e-02,-2.121855145319218039e-01,-8.634631138255353944e-02
4.462219009670975733e-02,-2.717770570165968791e-01,-1.406793519147013782e-01
-6.358825578465264472e-02,3.807192609947049333e-01,1.971274600597655580e-01
6.127066659067095106e-02,-3.543022666174359681e-01,-1.761104545568974444e-01
-5.005483630275658902e-02,3.075913679060082173e-01,1.409881212893077940e-01
-6.502807677445734957e-02,3.909808061123298262e-01,1.865096663230007279e-01
4.527961728546365389e-02,-3.521144968985312484e-01,-1.732107022948469743e-01
1.458076460116776961e-02,-5.720896158808162768e-02,-1.267959504303171545e-02
4.992637247146623769e-02,-3.635002265455997139e-01,-1.822352510322017283e-01
-7.413429922031506726e-03,2.133968259919346785e-02,-1.018770600430508877e-02
-2.540667267356372383e-02,2.004554957180691432e-01,1.075811415050473979e-01
-5.744460598302987553e-02,3.803483819830362767e-01,1.796647594506819434e-01
-1.505840765249560030e-02,4.225021764038464772e-02,1.580653623054622051e-02
6.165886444168054530e-04,-6.977535086652937590e-02,-2.889081334287527808e-02
-5.213113924304762364e-02,3.396199214778514164e-01,1.653578873010823624e-01
3.688080419207431793e-02,-2.266356412955549127e-01,-1.236577691051512357e-01
-2.198643766709017927e-02,1.392596915375077515e-01,7.086245766339795138e-02
7.698349110558191932e-02,-3.610492042503311017e-01,-1.881356553259553865e-01
-1.509258415736577930e-02,1.083278669442609699e-02,6.239615314981849202e-03
-3.808328562535263917e-02,2.421870017591362112e-01,1.275205934204186042e-01
1.100247884656439454e-02,-1.433996292802773298e-01,-7.237665761963305022e-02
4.409342896495697245e-02,-3.774369405718628889e-01,-1.965922591009481857e-01
-3.056467847642512642e-02,1.737765219847872133e-01,8.213342134890611046e-02
-2.938314597673778034e-02,1.657914272413495982e-01,7.033906907201242786e-02
-3.054961414899403510e-02,1.923121061731754011e-01,8.703919797760541199e-02
1.695650284546054015e-02,-1.626320852887784274e-01,-6.436166549630178979e-02
3.058259718075916761e-02,-1.695354442876437773e-01,-8.576349567595681345e-02
-5.686561839445852806e-02,4.457203590688582628e-01,2.103882298683197871e-01
1.804205772150895004e-02,-1.260277831824532513e-01,-4.692448785621013835e-02
5.706898172558787750e-03,-1.149097114069242698e-01,-4.421256139809542907e-02
-1.648090760174433713e-04,-2.779340427892895010e-02,-8.155260748966643158e-03
3.867212045768066153e-02,-2.844779149348106162e-01,-1.319117239720127566e-01
4.426533038002933990e-02,-2.991817054798739939e-01,-1.419708352312970823e-01
-5.150246452442015094e-02,3.450064312144998646e-01,1.748099621160907058e-01
3.681772473815282665e-02,-2.181733725206622398e-01,-1.204264266288043866e-01
-2.029997242258214929e-02,7.857516688613869205e-02,4.150392469378720584e-02
-6.797373627235242521e-02,3.645314161538822373e-01,1.938119689512777799e-01
3.755172094598127272e-03,-5.407920532512586892e-02,-1.140735235368153973e-02
6.728525311585679958e-02,-3.702062564899470942e-01,-1.747465882653531644e-01
-2.150860372508260274e-02,1.651579328433683269e-01,7.074372176012801161e-02
3.052271169101551315e-02,-1.804878207792482980e-01,-8.952425507011971262e-02
-3.406084341690350514e-02,2.995427088688923933e-01,1.362810623789291742e-01
3.341079857844661896e-03,1.475494808294460294e-02,1.002286420903412620e-03
4.322620785087612216e-02,-2.245518805445846366e-01,-9.591919378921472117e-02
-2.012480105134778832e-02,1.098590864898563724e-01,6.784112798646525777e-02
-2.285090294954179868e-02,1.550009271043761017e-01,7.481217637391519848e-02
1.272433017097961616e-03,3.043816066915219776e-02,1.688970509612548743e-02
7.039552163560973928e-03,-4.507928626164883074e-02,-2.479505569378509522e-02
7.930162646007471450e-02,-3.899928302621289977e-01,-1.851685935625929647e-01
7.027913312898374787e-02,-4.264305340050262294e-01,-2.054923390686234641e-01
-1.061039276132077179e-02,1.520250345101912537e-01,6.473631886678420100e-02
4.212640104518631731e-03,-2.068722741364735496e-02,-3.861430397466400835e-03
-5.355678498614507843e-02,3.121642136874295259e-01,1.622683781162356509e-01
6.760845761916672858e-02,-4.306275870030237818e-01,-2.061013675624509545e-01
-1.881379711371377120e-02,1.242039407090163722e-01,6.831723853209163699e-02
5.251404061218644531e-02,-3.461875191598821067e-01,-1.605082153840167725e-01
-4.794358316202130751e-03,4.069734289189754634e-02,1.631857832718126497e-02
2.549834476129615723e-02,-1.877058650266426043e-01,-8.509906137132267068e-02
1.062751660844650330e-02,-2.508319672412622769e-01,-1.161796075687968471e-01
7.825160742113647372e-02,-4.155054400828356309e-01,-2.183743360341570405e-01
