8.123325770930290776e-03,-8.920959549999502025e-02,2.307711080508660986e-02
-2.264534534541414248e-02,1.064266398215456544e-01,-2.305370331869027040e-02
7.409267605035825544e-02,-1.837646038889830247e-01,2.148501957074583357e-02
1.634963711265517150e-01,-4.387218655120892485e-01,1.132066326160384717e-01
-3.787924310154494600e-02,1.245740626911730209e-01,-3.821847208205728097e-02
4.975604424045830532e-02,-1.569211152009890864e-01,4.372934754322361367e-02
-1.506405835819951966e-01,4.197948233825234410e-01,-9.771706093619998701e-02
1.994827053191524854e-02,-1.125243326844232832e-03,1.250542289953669728e-02
-1.671898917151994346e-01,4.210759806666672933e-01,-8.414965364751141041e-02
8.377827662114173402e-02,-2.356076184086645098e-01,7.148202889829698148e-02
-1.171731021612015811e-01,3.174057131756419792e-01,-8.069422268947494536e-02
-1.374396136508945487e-01,3.776161486046406557e-01,-8.468624986723802262e-02
1.158580118867981318e-01,-3.257171206844853839e-01,7.715369433643726182e-02
-1.389312266363604831e-01,4.026877321350196270e-01,-9.157331606948342084e-02
1.243838741539926157e-01,-3.613078117608362061e-01,7.943372048623704995e-02
-1.304117529113198171e-01,3.055742906943603732e-01,-6.150324986517599624e-02
9.059085737900730850e-02,-2.441739593432369904e-01,4.193269801824063558e-02
7.810828108015019366e-02,-2.118978875696634068e-01,3.447725972893676133e-02
1.549850918198045491e-01,-4.444510642744422535e-01,1.081297435348606978e-01
-1.492712104990047417e-01,4.273707742584014757e-01,-9.512796266818367152e-02
-7.958733794375269510e-02,1.680383007218458069e-01,-4.189431276363669854e-02
2.681272608625826295e-02,-9.438716673484810749e-02,2.930433619238676304e-02
1.330348561327614199e-02,-5.871795585575069476e-02,2.303760278969809935e-02
-2.796453180879755057e-02,3.886444361992506119e-02,-2.223634712142745495e-02
1.200811671047744417e-01,-3.374421162382824635e-01,8.335243290148296180e-02
5.683165290160144961e-02,-1.939226755156891746e-01,5.597221058676536687e-02
-1.087176250030510299e-01,3.147848839673105248e-01,-6.098107410517359522e-02
1.376402427749105484e-01,-3.534842302679798709e-01,8.665445165563707974e-02
1.086301416762963240e-01,-3.029839411709343566e-01,8.437116569651038900e-02
-1.042763735948357973e-01,2.881685917930439933e-01,-6.247095421185896308e-02
2.733932151105623529e-02,-7.949116041187344328e-02,1.823794713458965974e-02
-4.856730772236897420e-02,1.058598555891401977e-01,-3.524899532511269890e-02
1.271853399432028020e-01,-3.392377083212559929e-01,8.924650127744165884e-02
1.186323163190663305e-01,-3.508680053943180055e-01,9.524896457928824778e-02
-5.340479190582239633e-02,1.339010821798635731e-01,-2.825344948377284462e-02
1.544627298106865665e-01,-4.478655999737873872e-01,1.028069607383801931e-01
-9.054090203390505187e-02,1.872130398447003352e-01,-6.647880078634306467e-02
-1.354370203151573637e-01,4.103958685065296486e-01,-9.110148356198308206e-02
3.707798920295940492e-02,-8.040088913892579070e-02,2.607292125067546887e-02
-1.722900962116411527e-01,4.339952515182298742e-01,-1.363295517903286291e-01
-8.893251563602470877e-02,2.139021210597609191e-01,-6.378787022318925526e-02
-7.498460321691062525e-02,2.162345808418978110e-01,-6.153903234036937897e-02
1.170193322781760831e-01,-3.372336270090332544e-01,9.145851507924163126e-02
-4.041485333229163923e-02,7.369193992007583294e-02,-1.279955765628103780e-02
1.263787323206976287e-01,-3.466579157613123296e-01,8.313295498308174991e-02
-3.424221907933093501e-02,8.194874702746603179e-02,-2.115995720896588980e-02
-1.538855857367556479e-01,3.943983787410914599e-01,-1.098987511810411155e-01
1.779308105927595307e-01,-4.122815768987982965e-01,1.107830138471009168e-01
1.197124276895587952e-01,-3.042259669062653549e-01,7.907023364548265709e-02
3.907450400261658352e-02,-1.365307704248088505e-01,3.925448096816153143e-02
-1.496276197598104818e-01,4.236839399651421978e-01,-1.146197260131989609e-01
-8.032370182433513223e-03,4.907377671333278991e-03,-1.096412682912912152e-03
-1.218105612724843662e-01,3.389825980056062615e-01,-8.605111660933675855e-02
-1.240395365292248642e-01,3.514083537465176876e-01,-1.020722633555881803e-01
5.885551439759041832e-03,6.270046058883825373e-03,4.398672598179761972e-03
6.917255947160175222e-02,-2.090041332213246617e-01,5.500556906730712931e-02
8.210113379076405815e-02,-2.727304462883608505e-01,6.865581305244156107e-02
-6.606260289468025848e-02,1.454147935286002891e-01,-2.983427823632347001e-02
-1.401931196663782075e-01,3.653528665714889101e-01,-8.352403132126820506e-02
5.884719195318850044e-02,-1.707520797058294237e-01,3.597762051378777109e-02
1.019102918195061019e-01,-2.325630039889235445e-01,6.467532956004480582e-02
3.431093668668067087e-02,-9.936555137069047472e-02,1.822719903348223730e-02
1.296139544142345945e-01,-3.734324328235941182e-01,8.537354431919627618e-02
8.985361385951340374e-02,-1.967634649201885910e-01,5.286189977686412550e-02
-3.287914359486146000e-03,1.287164825914906968e-02,-1.030304474682122370e-02
1.528647367668206809e-03,-1.061483831420015692e-02,5.308350716416589121e-03
-3.132843795955291694e-02,6.188813965545690576e-02,4.226156025344985669e-03
-6.609896288102928841e-02,2.182632252602540734e-01,-6.093226283946103633e-02
5.422433457222961689e-02,-1.762705724610375835e-01,4.186984733656416713e-02
9.924024455611548529e-03,-4.040825215576385188e-02,1.704644514104723674e-02
-7.375181416840440041e-02,2.273154428232067592e-01,-4.949226548589995278e-02
-2.595713034398930766e-02,6.437624925173758561e-02,-2.444381778769971758e-02
3.233674651004080081e-02,-1.327537097038393177e-01,8.941978428781575949e-03
6.868262848835034184e-02,-1.502937417277416809e-01,2.906142965360244967e-02
6.260657934582784800e-02,-1.536672556435273729e-01,3.162645879186613829e-02
-7.943002497811044171e-02,2.109612884669876121e-01,-2.812854285720705130e-02
-1.126371390732161804e-01,3.618979862494782207e-01,-7.796936849219450461e-02
3.136519817633122431e-02,-7.389257663056304770e-02,1.754751547783435853e-02
1.536783483801369976e-01,-3.952749135115795620e-01,1.071948908795923722e-01
-1.021146681430966513e-01,2.634376368151323811e-01,-5.717183286914447743e-02
6.899630628121154741e-02,-1.866973365755421055e-01,3.695834887532917223e-02
-1.204547750040071141e-01,3.412612632572325500e-01,-8.600078341421014960e-02
1.229298701230000651e-01,-3.498113530340580257e-01,9.012640038611698101e-02
1.332013614611999019e-01,-3.459925103697280013e-01,9.565640367462362181e-02
-1.321732594222750912e-01,3.416513931830765238e-01,-7.436282729071036490e-02
2.316447903269336622e-03,3.186750041568184311e-02,-1.725951229914553936e-02
-1.427770996224008715e-01,4.465757757486151780e-01,-9.864711824789682004e-02
-1.275519205996575312e-01,3.376316636204261257e-01,-7.465875646602505855e-02
1.029106757470506367e-01,-2.780454470890932894e-01,6.459762773571506300e-02
-6.423217775811407293e-02,1.949299437313167238e-01,-5.166272826876761731e-02
3.878164921532906151e-02,-8.494768704594611586e-02,5.875358098164694051e-03
-4.907031770189863862e-02,1.193852463436789607e-01,-1.787302674535725180e-02
-1.054446233963229028e-02,3.448199688415336250e-02,-2.626783860893156398e-03
-6.079472835324590402e-02,1.719489285027267222e-01,-5.490139643893454657e-02
1.378276505374166905e-01,-3.554431224064726891e-01,7.806819703059122983e-02
-1.329643635778569033e-01,2.815029539562044492e-01,-7.836192185538529142e-02
1.264317993490204906e-01,-3.203007503628978458e-01,9.195402119259211970e-02
-8.010304455703552706e-02,2.701519329461370411e-01,-7.652141974762677323e-02
6.508460856234143943e-02,-1.673162364835636406e-01,2.271953279174018792e-02
-4.379431964059091881e-02,1.073848586845348868e-01,-4.634135186258955819e-02
9.214407449955208662e-02,-2.224008815552293850e-01,5.266652437635054723e-02
-1.020949696492454368e-03,1.237568728470506661e-02,1.320116117534659433e-02
4.960454722891929902e-02,-1.479929747453533062e-01,5.211058145805629732e-02
1.033136268369551497e-01,-3.023670177384421009e-01,8.688780635914890305e-02
1.517091068564896672e-01,-4.243906001068308287e-01,1.148020912253847337e-01
1.535147955217937288e-01,-4.644549308405715449e-01,9.998944869731549168e-02
1.903314515612650193e-01,-4.434919458492246891e-01,1.217406928978337910e-01
2.859225880879701434e-02,-3.501717437780479253e-02,1.711344682344678042e-02
-1.374624856317509802e-01,3.712078983885436778e-01,-7.710005027725728988e-02
-1.636483460944960222e-01,3.755869120441333586e-01,-8.916727103313029645e-02
-7.146304506122590217e-02,1.824867429945462027e-01,-4.597370277579383019e-02
-2.161574950135534360e-03,-1.083646318564066707e-02,-1.659591435378953567e-03
6.519642433415877292e-02,-1.488618901160647101e-01,2.694623579128371457e-02
-5.572346264441051938e-02,1.628873998264017409e-01,-5.197554244055812428e-02
7.430316183752336268e-02,-2.331917110649903424e-01,5.102915027033900347e-02
1.077470997575403905e-01,-3.103803523592478242e-01,7.137464431172878265e-02
7.669307460363507245e-02,-2.066788352348018498e-01,5.379103146585159645e-02
-2.595397322819602628e-02,6.559433063455950841e-02,-1.829304973344340543e-02
-2.770068564795183375e-02,9.410022281571986391e-02,-2.874018391603438971e-02
7.414700900013838913e-02,-1.790214274169761310e-01,4.851701509267496160e-02
-1.294004974125873286e-01,3.518819007158606182e-01,-7.403741200809500766e-02
5.059093624397704991e-02,-1.961356846655674391e-01,4.673815235482168401e-02
-1.462846883141539767e-01,4.304584286459214315e-01,-1.309553895104364485e-01
4.123590080278860537e-02,-1.479515245883308017e-01,3.357364877044773099e-02
1.022911398411337214e-01,-3.157346019853783936e-01,6.886403485656797385e-02
5.353352976242727046e-02,-1.370318840250000225e-01,1.510851694176063020e-02
-8.523805001291957784e-02,2.526765818830593591e-01,-7.514952196801300000e-02
-9.642431254950974140e-02,2.322803868632755120e-01,-5.542404503509694436e-02
1.170021235607534432e-01,-2.495429948396941378e-01,7.389649712915756508e-02
-2.092535078997117409e-02,5.743578521191676500e-02,-1.551008419660236670e-03
3.217238308170062427e-02,-1.130827698026305728e-01,1.960541978194225987e-02
-1.310178725012027257e-01,3.660557903697856941e-01,-9.313578685816159553e-02
-3.626962303034267365e-02,8.813512144303932427e-02,-2.518463951925561939e-02
3.689756757908937285e-02,-1.162811018100437660e-01,1.846754063921041480e-02
-5.914452876919714525e-02,1.788931623602599552e-01,-4.607163695028793776e-02
-6.908726039664565832e-02,2.085921340398622092e-01,-4.786530511994759041e-02
1.140767755939166156e-01,-3.563124532700202574e-01,7.501238242081538499e-02
-1.060070387707251205e-01,2.373443907594348645e-01,-4.133163654943884657e-02
-4.689382659970261352e-02,8.882702737444013452e-02,-2.301624216740438475e-02
-1.391448585249028258e-01,3.663397423382646623e-01,-6.565278031958798888e-02
-6.214195566930429820e-02,1.486531754818019579e-01,-2.612908505338123327e-02
-3.417727248669320816e-02,9.558204107819884277e-02,-3.709350625506688953e-02
-5.889320222690262036e-02,1.747589339821221666e-01,-4.127934272079534367e-02
1.033516575821829125e-01,-2.847374643339397049e-01,7.403146146943473394e-02
1.133799389729047563e-02,-5.556188008354058516e-02,9.488409371298590564e-03
1.910758135336751429e-02,-4.104826519966146142e-02,5.494105184951817529e-04
1.505256065526086873e-01,-3.817308454047356747e-01,8.980940588350956599e-02
-1.076288034234083035e-01,2.977603596704000988e-01,-9.025477264636180830e-02
1.234891912289791394e-01,-3.130223292603652729e-01,6.539948930384502368e-02
-3.574053253379827488e-02,1.150654365826138531e-01,-1.825681860938662901e-02
1.339063981367506762e-01,-3.566040329268248543e-01,7.521229464732516468e-02
-1.564765150152348100e-02,3.153255645058432224e-03,-1.014026002900341242e-02
1.326790956829523027e-01,-3.576253217833197384e-01,7.207374955105920467e-02
-1.356011277491035449e-01,3.876639730924880678e-01,-8.986340696155850627e-02
1.545859632973682063e-01,-4.090522501158410096e-01,8.842526472838618812e-02
9.047929737159216002e-02,-2.304927107437204081e-01,4.160377625437781252e-02
9.029374345703243543e-02,-2.486127887616745580e-01,8.357179942503462078e-02
1.732760659268046399e-01,-4.470630621586178521e-01,1.087086707034602279e-01
5.677021593450498615e-02,-1.425705667917022690e-01,2.781816864363911151e-02
5.998704785531894929e-02,-1.951462991403311864e-01,5.066410027589948739e-02
6.763847744022680186e-03,3.636481973401169826e-02,-7.762447863462695885e-03
-1.016745204713581374e-01,2.787442510040249455e-01,-6.927924047321794288e-02
9.216132090599170323e-02,-2.215755702236797131e-01,5.405907394895318602e-02
8.978547283554902392e-02,-2.191778967709689108e-01,3.710753079929666326e-02
5.277873269423743324e-02,-1.983042869443529255e-01,4.578617774924786943e-02
-1.522405723806746491e-01,4.474403082275570931e-01,-1.113132476050680830e-01
5.677101373698303921e-02,-2.249569794340390283e-01,3.233201700910205006e-02
3.315247315266704048e-02,-6.569990303765818607e-02,8.242952739174292526e-03
1.433864113637868705e-02,-3.341064594978648827e-02,-4.308526948097437387e-03
-4.128434160753443466e-02,1.326459914771168092e-01,-2.882686407652575861e-02
1.181429810312743800e-01,-3.251941299866821233e-01,8.507641819565756047e-02
-7.905756851728514001e-03,2.316769467848416378e-02,-8.769982970502345973e-03
9.439895400506023715e-02,-2.497315174200505916e-01,4.947871692619908862e-02
9.697876274381313222e-02,-2.308314775378027539e-01,6.139167336058735935e-02
-9.362143743403870955e-02,2.609615697235687648e-01,-6.685159601319455580e-02
-8.193215600054326760e-04,1.589467545123188913e-02,1.315275661319964887e-02
-1.378041368217415574e-01,3.875892762577045625e-01,-1.003366769801932179e-01
-1.219265845992517638e-01,3.134412003610590469e-01,-8.070806209816280830e-02
1.271328704625611095e-01,-3.260178933345452279e-01,8.625846794369597392e-02
4.342248543098340546e-02,-1.300256939978652881e-01,3.605688860366493970e-02
-1.363604385199608804e-01,3.747322949050788110e-01,-1.167417880659009644e-01
8.577536895551768348e-03,-2.248977714217998206e-02,3.558883112896288770e-03
1.123246881816413190e-01,-3.481505698657685333e-01,7.402448571454819937e-02
5.558010778056395040e-02,-1.842949408092132979e-01,5.822126267755526469e-02
2.246091224540203678e-03,-5.436436572754006769e-02,2.927804968192173132e-02
-2.912096221620295855e-02,4.653582801544878245e-02,-1.696583338103987634e-02
8.206856248738896020e-02,-1.929777067745482022e-01,5.930268725686286407e-02
-1.060523874976674642e-02,5.271980251642141568e-02,-2.428938949439539419e-02
2.637516495052858595e-02,-4.441962002314536750e-02,1.501489000447377847e-02
7.719027029520739158e-02,-2.348210246219437913e-01,5.230073194414995574e-02
-1.381154484347155709e-01,3.447638722911278708e-01,-8.779744138236940387e-02
1.041633662302431373e-01,-2.659851597685384261e-01,6.196766797757361639e-02
-4.089127996225944313e-03,-1.880405384892189918e-02,-2.861491947912252459e-03
6.505559023125238871e-02,-1.444593646960535549e-01,3.045864389103292852e-02
1.172562767186765588e-02,-2.508773442799852246e-02,8.844932965623435173e-03
-1.097250967720796028e-01,2.336511306051117787e-01,-6.048546670837268158e-02
-1.265904831836787425e-01,3.254154599883528065e-01,-8.466772133537824041e-02
-1.602239466155216951e-01,4.045009458181288986e-01,-1.101533223436016312e-01
1.564341355285989721e-01,-4.396991848530603653e-01,1.062971287760814676e-01
1.293948172262767426e-01,-3.333864305730233069e-01,8.282808189736315385e-02
1.740160068508274371e-01,-4.698821489518024141e-01,1.096134532985441473e-01
-1.622411307758837157e-02,2.992406711856938906e-02,2.900389869061254129e-03
1.676040354978467206e-01,-4.322513518973190028e-01,1.130679057619143613e-01
9.363452156921478475e-02,-2.469092684053561804e-01,4.080828947217924468e-02
6.838727664211032009e-02,-1.870561423161995473e-01,3.509635846518908281e-02
-8.078570977384189056e-02,2.196386092836725146e-01,-4.490757576833369347e-02
-2.331761113607812297e-02,4.921135158012876487e-02,-1.932680349334772035e-02
-2.250848034488214452e-02,4.932334166689208294e-02,6.116551635740565679e-03
-5.347418852992688598e-02,1.123901061701352982e-01,-3.680830434969619563e-02
8.211999700005091427e-03,-5.355149269750301283e-02,-3.216536042141490692e-03
1.270616593393416871e-01,-3.362086616504065817e-01,9.546429966621404473e-02
9.707982735125346430e-03,-2.826929097199931684e-02,1.869520788131005112e-02
1.372909629423331793e-02,-4.967701888664914633e-02,3.957731522202482567e-03
7.156117029730700574e-02,-2.250880207519176113e-01,5.883703241949021084e-02
5.304142333189367647e-02,-1.428774905998634603e-01,3.534220479235089529e-02
4.396345380502256900e-02,-1.340606358509175977e-01,2.600354746922427934e-02
1.065418296687756575e-02,-4.058825954941541747e-02,5.625775068161860230e-03
6.566347100156505467e-02,-1.998819828511714247e-01,4.721778489080744046e-02
-6.537322628780052602e-02,1.863161341402875537e-01,-5.541661353005927076e-02
6.548715401993088214e-02,-1.982440452423890609e-01,6.955270759107748391e-02
-9.972025768392117975e-03,-2.542013132466820410e-02,1.445883992471701587e-02
4.675804646364891543e-02,-1.395382725685870573e-01,3.305879608030951045e-02
-4.730632139441765666e-02,1.141204637717543741e-01,-2.521233877791620101e-02
-1.188618532462495520e-01,3.267938454373528478e-01,-8.385898946687872502e-02
9.495660358513498267e-02,-2.862212006852932755e-01,7.289703074470145483e-02
1.349080139309296322e-01,-4.098879210688228802e-01,1.025517692446000911e-01
1.012569188708080242e-01,-2.648523094763149399e-01,6.921300156187051855e-02
-8.768494322326673973e-02,2.651278692784678759e-01,-7.133175298997451730e-02
-1.066302226905360868e-02,6.103907970786213999e-02,-7.812360538470048896e-03
-6.217745044234342967e-03,2.655846749894907530e-02,-1.094541509441524126e-02
-4.663178984855929216e-02,1.641866245074551089e-01,-3.512088091936417522e-02
7.760333618330207683e-02,-2.249512523561153776e-01,5.379044155419163142e-02
8.762593692163631043e-02,-1.755416080141046775e-01,2.520143240510146210e-02
-1.539427506273823576e-01,3.866169645371029806e-01,-9.193339152878726717e-02
-1.370922293675675974e-01,4.015164633047412779e-01,-1.011203755586451702e-01
4.382430646869706070e-02,-1.007120330758601301e-01,2.645733857827325258e-02
-4.351721617514703322e-02,1.400135882612227045e-01,-3.567270933798908500e-02
1.087964682169203917e-01,-3.019510396991574863e-01,7.016764714583068052e-02
1.424073583159413958e-01,-3.795814499357435534e-01,8.931736747950129451e-02
8.956282919370625595e-02,-2.732483281556590815e-01,6.599051595107749413e-02
-1.196629534433900771e-01,3.307964304908172504e-01,-8.944280890440713117e-02
-9.293107436266557705e-03,8.727200163393331045e-02,-1.587028876027152258e-02
1.838899313686458148e-02,-2.059914114014692668e-02,1.393696182132423897e-02
6.973722114675581785e-02,-2.084169123829306414e-01,4.813113393849800109e-02
1.332138681736307062e-01,-3.285044602497424471e-01,8.721345203766095455e-02
-3.897539932396040796e-02,9.021231324562302423e-02,-8.475119688284555794e-03
-8.690703341910410717e-02,1.986792806378337994e-01,-2.879207258383982559e-02
-9.413512732014522877e-02,2.163124949384184481e-01,-5.851997487655735686e-02
-8.720903037957215831e-02,2.570208061874501015e-01,-6.030508843462187296e-02
-9.043320321877547363e-02,2.037608246570462023e-01,-3.947858828382869861e-02
9.633310926062396695e-02,-3.017282176689996542e-01,9.421527056684028678e-02
1.151866384138639995e-02,-6.159638200111224732e-03,1.775136029246758215e-02
-1.351806259663762000e-01,3.096875633857579246e-01,-7.283086308248816476e-02
-4.099255924272187518e-02,1.151346561609875446e-01,-2.349310785062908025e-02
1.105109215692599567e-01,-2.925374600149263093e-01,7.854604206536532074e-02
1.223610013875458674e-01,-3.476283278920876962e-01,8.354145399909655711e-02
1.708791073926223605e-02,-6.436860450182393945e-02,5.433170665621678622e-03
-8.599815335382635095e-02,2.200479728083595821e-01,-4.933863394995893770e-02
-1.207280916717182184e-01,3.773904837479871710e-01,-9.357930775992460981e-02
-2.536180678993710941e-02,9.661224006326817049e-02,-9.969965100684071227e-03
-9.068147575742362132e-02,2.379340970005550393e-01,-4.831063720978220899e-02
-4.952687348126789957e-02,1.013596062721296154e-01,-3.389594740668021300e-02
-1.079425317754321434e-01,2.946959656503135294e-01,-7.259890450691083852e-02
-7.870292352408636560e-02,2.133492395846829370e-01,-5.614062825865599737e-02
-6.196275693767434867e-02,1.397384831784207193e-01,-2.868005259467451898e-02
-7.325254006046010014e-02,2.133288594750033518e-01,-6.110991523136413694e-02
1.384270901991369873e-01,-3.671179969589993264e-01,8.200339222307544140e-02
-6.227928797333845412e-02,1.672754297617904673e-01,-5.385872046080453918e-02
1.354632704477758687e-01,-3.803583196725654481e-01,9.913949542549038707e-02
5.040129102131539474e-02,-1.342304546209877048e-01,3.673752110379722990e-02
-5.105118649445459372e-02,1.956732489715810319e-01,-4.215456285398026803e-02
-6.510447062951081609e-02,1.980801776700016337e-01,-3.744620491504217774e-02
1.007089094066401097e-01,-1.966702635004144717e-01,4.797041380044150122e-02
-1.022004789041544015e-01,3.293316544659462553e-01,-6.993887487288143190e-02
5.458248447029647593e-02,-1.230682751496730426e-01,2.552380908219506125e-02
4.404969495104756744e-02,-4.449027963895364063e-02,1.460265705015159621e-02
1.396880911854538609e-01,-3.514089353839354724e-01,9.242733788449715437e-02
-4.865944735556162332e-02,8.084696373089833576e-02,-1.359702901110674579e-02
1.228235125778666045e-02,-5.148410262625979783e-02,1.806760439149579858e-02
-1.327805878184667443e-01,3.022183856548067982e-01,-7.824499046164601346e-02
1.254172129521800572e-01,-3.352676243731826378e-01,9.125501128421995012e-02
-1.551979070711373421e-01,3.799623697482301665e-01,-9.376186170524704322e-02
5.094359711616668757e-02,-1.296743167062301139e-01,4.937284739785791077e-02
6.025700795512980296e-02,-1.482543170043380265e-01,2.865687250902953717e-02
4.576600809795247464e-03,4.367581218944566884e-02,5.784553289490095528e-03
-1.658969417879163910e-01,3.968946617058807247e-01,-9.339362878693480141e-02
-1.564283370636479764e-01,3.918365562871735097e-01,-9.202487987103968869e-02
7.221408956484552666e-02,-1.607890116244440337e-01,1.566559626075735359e-02
-1.105260297248230050e-01,3.227959270103499811e-01,-8.503514528220335045e-02
4.948980297554109870e-02,-1.284806934437976444e-01,4.927447081893326919e-02
-2.083626683902964002e-02,2.717428031918372316e-02,-9.266916095462281568e-04
1.601367867227799502e-01,-4.415337077535023136e-01,1.075282921376814887e-01
1.038387960621171835e-01,-2.830981977662427873e-01,7.978634560472550041e-02
1.550591981160650001e-01,-3.716228507169033191e-01,9.067558495132448104e-02
-2.062419943123667762e-02,3.754517193991178947e-02,-8.064942721854628446e-03
9.148572733530939416e-02,-2.825433603878433897e-01,5.812467929855891918e-02
3.243003995871519135e-02,-1.128530752813850929e-01,3.485600646079799192e-02
3.008590065698556193e-02,-9.012027016043544503e-02,2.299778127623658408e-02
-6.083226688763257103e-03,1.886175091855838218e-02,-6.226354364706552201e-03
2.737816734479407710e-02,-7.284479504396085270e-02,4.440022473591077184e-02
1.403895941664256297e-01,-3.881299821211295908e-01,8.950645656963471253e-02
6.774896679118064258e-02,-2.148798414842148230e-01,5.122593043937809232e-02
5.722687021255602052e-02,-1.584224340664030228e-01,4.016235303474011142e-02
-9.325587854620911998e-02,2.607277834775849068e-01,-8.052090652847937458e-02
-1.353061240051238456e-01,3.947483532746937085e-01,-9.809871878194524608e-02
9.853127786140244981e-02,-3.415903251924665707e-01,9.032886701143930108e-02
-2.674082733196813874e-02,8.917972540384602742e-02,-4.401930383305142219e-02
-9.576376295755131829e-02,2.502787021713066551e-01,-6.852071559836174497e-02
1.232120410375266012e-01,-3.803234972116980583e-01,1.032165702635776533e-01
5.740776886909951943e-02,-1.239834272071725502e-01,3.454906339796153664e-02
1.299509559705081807e-01,-3.774557944701354417e-01,9.144392842214010830e-02
-3.702945485839532341e-02,1.279899248978773607e-01,-4.152417138019403459e-02
-1.090716527559127021e-02,7.213768746954969668e-02,-1.088017398728215700e-02
-8.581528007746405673e-02,2.674788513427838188e-01,-6.701879605165300680e-02
1.217870729994492696e-01,-3.166267937285879852e-01,6.504780440267218800e-02
1.567405229999215277e-01,-4.292331364975514596e-01,9.440373038666675931e-02
-4.352763094259703980e-02,1.103503907669884238e-01,-6.212136684983376317e-02
1.007785598288137019e-01,-2.402940303179922910e-01,5.901297560803645675e-02
1.436603732027313396e-01,-3.714900813551336167e-01,9.003724953408259735e-02
-1.545041932854789857e-01,4.447525448880261245e-01,-9.644073284048773620e-02
-1.793058481684679517e-01,4.341488627306984704e-01,-1.068885108464723982e-01
5.399723191709179110e-02,-1.079044044249365120e-01,4.842820578700251372e-02
3.565657835882535265e-02,-8.637067389472520562e-02,3.239641048635061304e-02
3.986300190938205784e-02,-1.431119561171484977e-01,3.106932410728954763e-02
1.566132727668802793e-01,-4.130212092389795586e-01,1.075205153566845678e-01
3.415849618945588501e-02,-1.304066766305699843e-01,5.337558835743980851e-02
1.396903021555338520e-01,-3.566078476847494017e-01,9.061422866980876900e-02
2.877231257217652272e-02,-7.994736607563873027e-03,2.675265850817215314e-03
-1.097782066929740286e-01,3.032089500603943888e-01,-9.555039868751963317e-02
1.589881071963955839e-01,-4.472263141248576934e-01,1.217326474976566375e-01
-1.611746498690361240e-01,4.472733964864465395e-01,-1.280775750937563628e-01
1.052934663114721697e-01,-2.639205708917931603e-01,7.840705709938258772e-02
1.151306551729504718e-01,-2.722204082336719955e-01,7.074417121092339833e-02
-3.759198481790627239e-02,5.090142403320620235e-02,6.716912707900713972e-03
-1.386797369851244799e-01,3.740492985625127331e-01,-7.657564019484229545e-02
5.239405747126413965e-02,-1.161802482011407706e-01,2.036800345150299729e-02
1.198522649903975001e-01,-3.271215749251715210e-01,8.528784112463366762e-02
-9.420229566687071676e-02,2.066222608131470517e-01,-5.729756215501701638e-02
-7.985261824144458676e-02,2.679218618365662996e-01,-5.202571489912054953e-02
7.731534941252579674e-02,-2.128647757561802079e-01,5.523003414411986611e-02
8.433413575991535738e-02,-2.353406153250653665e-01,5.020110851365575111e-02
-1.901379572944827782e-03,8.507593121706069628e-03,-3.683149755393435882e-03
7.360060203391914635e-02,-1.640260785098540119e-01,4.539264900475125514e-02
-7.305276326579739077e-02,1.832252205637651399e-01,-5.221618070322116278e-02
9.039130953737760377e-02,-2.407037728614234706e-01,5.793994160548936873e-02
-5.179935019412651442e-02,1.185241974915234586e-01,-4.472770243085446434e-02
-7.510102671835913735e-02,2.047182960021882159e-01,-4.371045996335534700e-02
-1.219998926833927161e-01,3.622570736657529378e-01,-9.200276637685318726e-02
1.144856593849045284e-01,-3.567668647332808418e-01,7.628144380093204724e-02
-4.705799673283177220e-02,1.420879664565802281e-01,-3.527671791842428711e-02
-9.087164325922399144e-02,2.301806284652238022e-01,-4.955649766222132435e-02
1.191440041963733737e-01,-3.521518385604351375e-01,8.631878435056858367e-02
1.247917094568419677e-01,-3.982984640287907108e-01,8.158807043098162404e-02
1.569077733278149978e-01,-4.353025923492661042e-01,1.167290268303640549e-01
4.543880307961226800e-02,-1.511438188417971173e-01,2.941163806478232570e-02
-1.628688029622227529e-01,4.181162242630548365e-01,-1.022061678796585410e-01
-1.552553394733466041e-01,4.130051778222765257e-01,-1.124032213157779847e-01
1.139690166110202997e-02,-8.640853421089873809e-02,1.844879917689842136e-02
1.666781372612035628e-01,-4.478994089400580858e-01,1.180538878687778653e-01
1.093882120360115812e-01,-2.747489125503825846e-01,6.895733286126876083e-02
-1.599051022407803335e-02,8.060627062031856804e-02,-2.912560316469001848e-02
1.004630524533771663e-01,-2.475664640436138209e-01,6.767923047964899408e-02
1.715154060847427775e-02,-4.282156903218842237e-02,9.058014523902674364e-03
1.055865222959851552e-01,-3.226325498430835381e-01,7.908360259794308678e-02
1.279242947179693446e-01,-3.562092500065838774e-01,7.549109508537772684e-02
2.852353004006236495e-02,-1.184032120598175197e-01,4.086511239626797187e-02
1.035202489338405037e-02,5.858193502249725571e-02,-1.780358172842530506e-02
3.443997702573485531e-02,-9.308834104642826901e-02,2.856887737535004912e-02
5.305267548825273738e-02,-8.348568237820730431e-02,2.039357763748794738e-02
3.990528726961727057e-02,-7.670890081293832430e-02,6.670745588901170510e-03
-5.134468473964103746e-02,1.728845749432709189e-01,-5.155355589800744709e-02
-1.250591743398853650e-01,3.918706024410613109e-01,-9.062602854159398924e-02
-1.362888285669791033e-01,3.579916256555595866e-01,-8.422019493050057759e-02
-1.097643173277395023e-01,2.936107678156061329e-01,-5.651055020019390973e-02
-8.761427631892110268e-02,2.180422174540587454e-01,-7.256680488242936433e-02
-1.685190853187626125e-01,4.402839971339052583e-01,-1.277650309032427045e-01
1.452266617992418185e-01,-4.207134544318639757e-01,1.037038715820058077e-01
6.335299546903461199e-02,-1.667351505329311423e-01,4.518610402122379827e-02
-8.015382810307920824e-02,1.661699287989331641e-01,-5.309956099930791124e-02
1.308601074308036495e-02,-3.887482412662941061e-02,7.462105740415755743e-03
-6.457047898992215873e-02,1.551565338907170688e-01,-4.214527917598756557e-02
3.342613677102338615e-02,-1.040962443177836927e-01,3.286717700202391318e-02
-1.476876400794658456e-02,4.089343667909600688e-02,-1.880357049642471592e-02
1.364851336935101744e-01,-3.811286329956777297e-01,9.461559743059171079e-02
-1.156940477235148257e-01,3.468176644273675557e-01,-6.735863116115303750e-02
-1.706837276149719973e-01,4.105842303975742458e-01,-1.031072298267407400e-01
1.151854230364469656e-01,-3.445711490454699821e-01,9.392540698216304829e-02
9.661759352185023131e-02,-2.835748291408206057e-01,6.936625569571520933e-02
-1.989227745780493273e-02,7.052661505605002656e-02,-1.779908501757890629e-02
9.860419009036457128e-02,-2.587275369424180127e-01,7.232361214663918236e-02
2.267862048544482673e-02,-5.737644603419529699e-02,1.475910262183635635e-02
6.716573303490802616e-02,-1.710376298436025455e-01,4.335082839486131129e-02
-1.481120406421200797e-01,3.852293646177725184e-01,-1.098810806215580332e-01
1.802764917164836334e-01,-4.146727198003797299e-01,1.137999699191717118e-01
1.328877899268083584e-01,-3.636766434956473226e-01,9.341647394298283058e-02
1.046471775859454667e-01,-2.461825997588281412e-01,6.769281074892516403e-02
6.215441866284756450e-02,-1.858684370395029817e-01,5.053282316524308065e-02
1.358136984958775995e-01,-4.015391567843996090e-01,1.070278916021926152e-01
-5.907043121151302374e-03,-5.754607441396431683e-03,-4.918154702456910450e-03
1.242109468070036055e-01,-3.390676961319938898e-01,7.098598654558214982e-02
-1.103470031965037429e-01,2.908083292013468046e-01,-6.486994954512519118e-02
9.663836876180692537e-02,-2.233339526700142408e-01,6.927588981202392748e-02
1.478670682839587636e-01,-3.579974661464623287e-01,1.035571809061619497e-01
-9.169729651093126710e-02,2.199256802598024141e-01,-4.151190339334405455e-02
-1.287620194387741057e-01,3.717057397454169854e-01,-9.624869461485639766e-02
-4.378425284288757491e-02,1.255077862585820270e-01,-2.549115428349532989e-02
-1.591463450680981329e-02,3.981186921901480602e-02,7.597348751516943589e-03
-2.081083407663635032e-02,5.346545383839028387e-02,-9.761863008297070460e-03
-1.254362798948989444e-01,3.611122398342143658e-01,-8.380849406990492634e-02
1.913230044417816569e-03,-9.893855022912719042e-04,-1.930562969223342806e-02
-1.388832626934771441e-01,3.813146524603814314e-01,-9.373552883284551329e-02
1.133805576142609822e-01,-3.049368200946083740e-01,8.528128598733789034e-02
-9.845077494436282883e-02,2.454391361790486670e-01,-7.449092595459343158e-02
1.303815600577117595e-01,-3.517990248305968293e-01,8.222345201265071624e-02
-1.765468373831617366e-01,4.143135904467984965e-01,-1.190134120521209732e-01
-8.453781595495812873e-02,2.535705694136372590e-01,-5.432001409947874448e-02
-7.897626083288209267e-03,5.942536545702663958e-02,-1.451594707244759259e-02
1.766413755187908607e-01,-4.588878842070091002e-01,1.087776516929334358e-01
4.870134098371477899e-02,-1.187535462151942667e-01,1.921308127216263609e-02
-1.082626461786057315e-01,3.344350086344057282e-01,-5.565251325892892759e-02
5.845807125820073197e-02,-1.563880378533128168e-01,4.277571163035179258e-02
8.480226988602786176e-02,-1.758753908895069606e-01,5.502518880094409842e-02
7.572143249788211572e-02,-2.005079820369057575e-01,3.905616319413954263e-02
2.297314510550172578e-02,-5.616468688272185927e-02,2.102799844273003926e-02
1.211392569535285485e-01,-3.543758818808888100e-01,9.235672478051393242e-02
1.308905479770213626e-02,-5.782161161577808323e-02,2.445626376882949204e-02
-1.121277522641559860e-01,2.960204341791208282e-01,-7.197004581562725656e-02
-5.679724139473187050e-02,1.747339144652189924e-01,-4.679633629435739350e-02
6.258444826164676067e-02,-1.659586619142710551e-01,3.301177172478064054e-02
1.359556628917088505e-01,-4.022989651214741169e-01,9.135588456784742017e-02
6.149487739904842959e-02,-1.766037520720539766e-01,3.803684506856548631e-02
4.599009294195845199e-02,-1.571068828156582109e-01,4.604095595217935766e-02
1.606411544043047368e-01,-4.445933252911037914e-01,1.039365367260935286e-01
3.900678010090534442e-02,-1.087683251404603230e-01,3.962223180466005468e-02
-1.465482359178042482e-01,4.110658232442944704e-01,-1.043654442477650185e-01
3.239650748819810494e-02,-5.313590002644504734e-02,8.019682982993728282e-03
-2.752712918640101356e-02,4.810872564934158546e-02,7.884674180180038902e-05
3.855735151113696968e-02,-9.904248489683162293e-02,1.596955193620551786e-02
1.475582037422865089e-01,-3.765624966194295875e-01,7.308067659167846730e-02
8.605518468569187118e-02,-2.726952389598585880e-01,6.420150290313572650e-02
9.656872102615261799e-02,-2.023627386577984133e-01,5.078780612468450362e-02
9.876383555121004409e-02,-2.848708293085392418e-01,6.883969800230436975e-02
-1.378796837832735878e-01,3.996157269999868755e-01,-9.563640002530188200e-02
1.315620835646284237e-01,-3.689783190910050359e-01,8.273754364171725939e-02
-1.221651263915666807e-01,3.124417538933809690e-01,-6.671895465333743669e-02
-1.506246655814772739e-01,4.017316011614960880e-01,-8.834267313047428072e-02
1.381597517147089005e-01,-3.581532580404473975e-01,9.313934087291277086e-02
2.814201693317113645e-02,-5.342479028904403848e-02,-2.340476475319125610e-04
1.394072019606343305e-01,-3.731103134777237762e-01,9.585963751075367301e-02
-1.803755212380565853e-02,1.290671010314407320e-02,1.105413488101801393e-02
-7.378225279433937855e-02,2.085138686679241515e-01,-5.898942729994373357e-02
-1.499029690921438451e-01,3.870362318230798904e-01,-8.930988375136060531e-02
-1.542038860452412362e-02,4.498383774835162247e-02,-5.908265495195558605e-04
3.384160233008804558e-02,-6.401043676203752031e-02,2.147251273097631682e-02
-1.307474616375679799e-01,3.486365069838300301e-01,-8.222083014372920384e-02
7.894335712950537043e-02,-2.407885975046467342e-01,6.167616363096102561e-02
-5.165080400086494161e-02,1.448889978197039352e-01,-3.517848477938733537e-02
1.232552478560050291e-01,-3.877029536732875536e-01,7.856573162957616874e-02
1.871288069111456823e-03,1.815450074181724355e-02,7.140066328180569126e-03
-8.749151868556628853e-02,2.541938486143147657e-01,-6.400862204526651389e-02
5.828517069074661688e-02,-1.432313950251882240e-01,4.483854528604454964e-02
1.438007679819493789e-01,-3.875980806716273763e-01,1.101837461335481716e-01
-6.669339672482818560e-02,1.789532326053673850e-01,-3.749812581139722739e-02
-6.802637600242232574e-02,1.665481558583545019e-01,-3.052663100130203686e-02
-7.730634015058378272e-02,1.943893753229702370e-01,-4.158783023995777511e-02
7.418653297362855226e-02,-1.551347156219805290e-01,3.617624184215946503e-02
6.159918757314018778e-02,-1.779706400845501302e-01,3.955920460416022244e-02
-1.800365537483563372e-01,4.484014005058721275e-01,-1.126346645121686502e-01
5.713260392963592782e-02,-1.210183562465668022e-01,2.237964612936737055e-02
5.569439009580057914e-02,-1.058918652560250917e-01,2.960758065448018325e-02
1.552464111359028870e-02,-2.350442198933725899e-02,6.748068358318625934e-03
1.152577622398551216e-01,-2.860769537207551449e-01,6.855322531386222329e-02
1.179286972470788564e-01,-3.043415349528188485e-01,7.137144311235593674e-02
-1.295950382963357017e-01,3.571129106562827005e-01,-8.897167739259947972e-02
7.468178069492996396e-02,-2.331769371206615926e-01,5.923543863075769744e-02
-2.505801852652223341e-02,8.639633879107533332e-02,-1.471359397128730977e-02
-1.262775803245235751e-01,3.887750387100609717e-01,-8.930063537357044168e-02
3.103418172834821256e-02,-4.532577483799048873e-02,7.158432339965299998e-03
1.413183305093463626e-01,-3.821669586465149537e-01,7.806339041106509502e-02
-7.056933822855628036e-02,1.625047914750856193e-01,-3.683202727782139418e-02
6.740862712559925196e-02,-1.875279816127800037e-01,4.256071810664777133e-02
-1.255535208646253731e-01,2.965950914905244318e-01,-7.567145139441909529e-02
-1.143672979034481008e-02,9.119165191772270196e-03,-3.989727249352000189e-03
9.036792827619520574e-02,-2.275888239167180582e-01,3.910893255668109608e-02
-3.292509681233062729e-02,1.220358526235492819e-01,-3.316072711144982255e-02
-6.042557976990658303e-02,1.583080017546808216e-01,-3.783700295395919094e-02
-1.299499114375286118e-02,2.946830212368764870e-02,-1.327072809076663799e-02
1.571248307149182566e-02,-4.785691705541034180e-02,1.262242041213728662e-02
1.448164065903910225e-01,-4.072582266561058928e-01,7.641667920158640159e-02
1.633860905785388395e-01,-4.389514973953693722e-01,9.816224651510327415e-02
-6.893550772327691756e-02,1.449193802971257827e-01,-4.075845338119876704e-02
1.101556325728773704e-02,-1.841736998433659428e-02,2.760587136622851163e-04
-1.121143310288966466e-01,3.286873763011428640e-01,-7.772282483177535284e-02
1.671626947517038941e-01,-4.408838238558888123e-01,1.008309639265649871e-01
-4.352928564261333844e-02,1.315751730925135976e-01,-3.522780219165552729e-02
1.380360303878656880e-01,-3.507702468531469497e-01,7.920036822260720366e-02
-1.821980897487788728e-02,3.920239203527664529e-02,-8.761655572813165094e-03
7.714326059994422446e-02,-1.877143616918944824e-01,4.401980640416248980e-02
1.113137601114183584e-01,-2.407811276931818845e-01,7.849214273340596182e-02
1.450401214389370197e-01,-4.421559142387240793e-01,9.958386474463631899e-02
