7.910515518159133563e-02,4.778020311494172306e-02,4.039802959910845578e-03
-1.003955133394598687e-01,-4.652270798415789749e-02,-1.128242479927857658e-02
1.876126850685811698e-01,5.184361386042379838e-02,4.283083534069987569e-02
4.601539626658351922e-01,1.362723508270476114e-01,4.137459801884178084e-02
-1.276925964253105839e-01,-4.569727752149530670e-02,-4.532704149119364673e-03
1.606028398869395191e-01,5.580423297498206259e-02,1.023579861371654541e-02
-4.335375926351694442e-01,-1.347201517124035353e-01,-4.862653240141616429e-02
1.637632761352939351e-02,-1.489606580422224436e-02,-8.093725292223481055e-03
-4.396638551852494747e-01,-1.218746872808405407e-01,-6.465957499839550260e-02
2.482436374610735852e-01,7.670842246574675893e-02,1.141684387823397109e-02
-3.318801741799833338e-01,-9.944403144611925482e-02,-3.088551113520695071e-02
-3.900572292581284684e-01,-1.195453169638711205e-01,-4.711304595931915806e-02
3.362207958464960011e-01,1.053852316474649109e-01,3.628971708449158645e-02
-4.119623306964693699e-01,-1.336174048242766976e-01,-4.773253374637424773e-02
3.685929939156264989e-01,1.200239657665013865e-01,4.536354722949240137e-02
-3.244393555371026250e-01,-8.120152696318584662e-02,-4.807222454036607501e-02
2.490734754127193196e-01,7.555341728826719949e-02,4.289594394578397779e-02
2.152402643081659794e-01,6.591647679213188948e-02,3.894799707380609127e-02
4.579122638714287485e-01,1.463661811343205665e-01,4.628680453747750778e-02
-4.376015383182293439e-01,-1.402905174460623572e-01,-5.291943529270071167e-02
-1.855537755534069910e-01,-3.859920376750176213e-02,-2.015058705811617959e-02
9.577385374977835653e-02,3.614188202564095481e-02,2.781536562023941093e-03
5.918451816537553117e-02,2.532103207750784415e-02,-3.398581424446304403e-03
-5.247066926813760690e-02,-1.657342782534099168e-03,5.567515777355335795e-03
3.494575138241191592e-01,1.092363639347092713e-01,3.436799967121776517e-02
1.964111638273702554e-01,7.273897005467030996e-02,1.002128574706282436e-02
-3.186813839680340266e-01,-1.040507529595227770e-01,-4.736404628420875368e-02
3.726887233310912650e-01,1.049434980438453402e-01,3.866405554496924607e-02
3.173132593507442256e-01,9.771080514408457540e-02,2.198098922647800935e-02
-2.966175848511828916e-01,-9.165058560267040633e-02,-3.788796671708360292e-02
8.132445410440897193e-02,2.644959564027353494e-02,9.255152893447301382e-03
-1.188448243356779732e-01,-2.582888697098162031e-02,-4.044799456686887923e-03
3.568014390055864737e-01,1.048113820903253668e-01,3.050538873131458315e-02
3.625391988193980564e-01,1.188062819214756594e-01,2.654704566283207223e-02
-1.404314538997303574e-01,-3.860849984452705691e-02,-1.918904662920865173e-02
4.584584077052598072e-01,1.486801544594581470e-01,5.216993186675582261e-02
-2.141925200543487728e-01,-4.208437142277474813e-02,-4.034627332750275082e-03
-4.155834766357469068e-01,-1.410262166632708092e-01,-4.969321711522831087e-02
9.014774637938247071e-02,1.944423751094908476e-02,3.766023173703157180e-03
-4.691306532305933308e-01,-1.270801488557813941e-01,-1.971213460204945811e-02
-2.324364731433617992e-01,-5.932614811348328743e-02,-1.362704008650175193e-02
-2.254225625267114730e-01,-7.180453483729405673e-02,-1.399693729172413539e-02
3.501500628468577347e-01,1.117928543467029273e-01,2.611502437977594390e-02
-8.275361961160802859e-02,-1.236164581412258281e-02,-1.505719791975385947e-02
3.599362922777330498e-01,1.097360905503234341e-01,3.818689145861785955e-02
-8.809098236100383617e-02,-2.249669321206901676e-02,-8.351533818954644944e-03
-4.202681211857517973e-01,-1.172236359583341686e-01,-3.069064433999956626e-02
4.478407997226958037e-01,1.087850726527731099e-01,3.889439853076920306e-02
3.229245317970645401e-01,8.944965572537698362e-02,2.924229789858000597e-02
1.376930655331497777e-01,5.195632228247657608e-02,7.038656894980814191e-03
-4.413244453516823596e-01,-1.383576424097317792e-01,-3.352736035783571156e-02
-8.668242321525219257e-03,3.436424102467627688e-03,-1.689973837459726345e-03
-3.524812809682963399e-01,-1.088588590364024111e-01,-3.253466818800197780e-02
-3.682621371028536039e-01,-1.150097870699869906e-01,-2.116912625288297489e-02
1.033621982916237256e-04,-8.340918019763058494e-03,-4.870309723221720975e-03
2.145366420109681427e-01,7.191335235378470969e-02,1.719541519608934824e-02
2.742382511037738668e-01,1.002699311847011776e-01,2.398824086980904172e-02
-1.568823497410498646e-01,-3.546026533950712850e-02,-2.302849881878307400e-02
-3.820620612207196176e-01,-1.099438968761789481e-01,-4.532121619514478672e-02
1.737281316378284368e-01,5.662604806550432940e-02,2.292773125688616492e-02
2.542144877133764580e-01,6.019625885810455518e-02,2.013855289992259184e-02
1.002618241947786232e-01,3.282075235918127665e-02,1.591693387048886271e-02
3.826266879096827944e-01,1.233032759976865900e-01,4.396954583083224899e-02
2.165759200557403896e-01,4.797537844534455892e-02,1.942028357330503538e-02
-1.488209484573907969e-02,-5.406563228994514837e-03,5.651085546236377447e-03
1.056286211108784651e-02,5.310769458049553055e-03,-1.847109722069568841e-03
-6.316296591353109946e-02,-1.203330957608962463e-02,-2.636498525320185582e-02
-2.216281089555713069e-01,-8.010410261793987630e-02,-1.360011449382868970e-02
1.771069084614387001e-01,6.380603347551282167e-02,1.807236450726613583e-02
4.155710506742026772e-02,1.684576018725541385e-02,-3.334932946098874244e-03
-2.291469414846989960e-01,-7.909649796914701436e-02,-2.822318548982176434e-02
-7.118030823980160682e-02,-1.865303028959373541e-02,1.001244903752184293e-03
1.211982514843088221e-01,5.418784884914285699e-02,3.352361059694126955e-02
1.618066209108732778e-01,3.627609337906128467e-02,2.554880487740542397e-02
1.616642892472831827e-01,4.323146522028813166e-02,2.300304604155743032e-02
-2.132516234914509645e-01,-6.411320526502468919e-02,-4.492494865717475139e-02
-3.617927324363918173e-01,-1.297199496097552474e-01,-4.489157384799695449e-02
7.921888115358483029e-02,1.984969622676305626e-02,9.064340332778170195e-03
4.199348572417211933e-01,1.178371779490709897e-01,3.345372639176977941e-02
-2.750940495619098591e-01,-7.836464966279173272e-02,-3.574434211439801723e-02
1.918667395594688130e-01,5.812698931172625288e-02,2.811961380986533268e-02
-3.533944142893947205e-01,-1.113095316584329225e-01,-3.297443676671356350e-02
3.625711676979738729e-01,1.145892910158639172e-01,3.184252604841552453e-02
3.674079661237755201e-01,1.042502465425737684e-01,2.732837381970117802e-02
-3.566892455237696824e-01,-1.018439963074481980e-01,-4.610702329066149879e-02
-2.815743721355408111e-02,-2.149897342669542660e-02,7.984181210331058043e-03
-4.494125868039594573e-01,-1.571193922714209101e-01,-5.374291576673066728e-02
-3.511026868884596364e-01,-1.031292950842971901e-01,-4.392965285466444297e-02
2.889154461886723202e-01,8.672131760498390241e-02,3.286349593738113056e-02
-2.000436188935439952e-01,-6.730682297374417089e-02,-1.564721176351771895e-02
8.803040204572325222e-02,2.022755536666005424e-02,2.441597842920766731e-02
-1.236866413908982720e-01,-3.304788951295731247e-02,-2.428229703148214805e-02
-3.281516358426702501e-02,-1.237012320597952360e-02,-8.788565264547841885e-03
-1.818518407007566895e-01,-5.633974992423187306e-02,-5.686558884551697057e-03
3.714986731603362458e-01,1.057209710866650332e-01,4.735747057156223377e-02
-3.132739093367949978e-01,-6.519031510733928891e-02,-2.595585501674588236e-02
3.430218415848085844e-01,9.411451948468782525e-02,2.261826697797210059e-02
-2.736869526194837254e-01,-1.005457001774916898e-01,-1.549536846000885634e-02
1.704684245127577880e-01,4.919329425427172719e-02,3.560115837388995452e-02
-1.208155669824901857e-01,-3.088071513942421825e-02,6.852109683102710139e-03
2.370824232259259867e-01,6.154325614480705281e-02,2.703326824903853898e-02
-5.623422439045616152e-03,-6.235914152252966698e-03,-1.606116823854436895e-02
1.565147884070333673e-01,5.080488752373939210e-02,-1.696857782751951980e-04
3.145970203052395608e-01,1.016604979708428391e-01,1.851668889231685919e-02
4.431136619103436258e-01,1.371247021524069909e-01,3.390653919188223175e-02
4.694590979306269563e-01,1.593225702194506488e-01,5.922448029186547919e-02
4.819560137845984582e-01,1.179490468230389860e-01,3.922227586705054336e-02
4.829186906293401332e-02,-1.304623133088742264e-03,-1.668283028387606507e-03
-3.828125684134656148e-01,-1.154562234694619938e-01,-5.253622047416097590e-02
-4.050861277764992163e-01,-9.751936403516579810e-02,-4.682215952971128387e-02
-1.930344573001077368e-01,-5.388885333698236607e-02,-1.885866660120722252e-02
6.355116137998688061e-03,8.189221072004534280e-03,4.171899025332188350e-03
1.580399011294520706e-01,3.813928092964070926e-02,2.655787264389659896e-02
-1.711814726855713231e-01,-5.486158357553137799e-02,-5.096702861980123393e-03
2.343724135304603717e-01,8.223129499632274297e-02,2.847620137796808004e-02
3.181665909377640045e-01,1.024820750583863987e-01,3.615501611404412646e-02
2.167341343684691946e-01,6.447311884572103080e-02,1.899935888889968394e-02
-7.010957806626887112e-02,-1.920848828577307807e-02,-5.151858637533663493e-03
-9.588832910296174461e-02,-3.524371791616456862e-02,-3.389215270556096300e-03
1.927998838605606557e-01,4.973670929253066336e-02,1.596294783822016852e-02
-3.626673289405595857e-01,-1.101962099370819570e-01,-4.874528688510038760e-02
1.914976514813117037e-01,7.878544647032655057e-02,1.829227750798033056e-02
-4.497518023690914579e-01,-1.455735296654263045e-01,-1.935578972344325840e-02
1.456820144605418532e-01,5.692618233493208085e-02,1.591865139635905910e-02
3.182321102660526924e-01,1.099845036923761954e-01,3.906154657392385543e-02
1.386174187412705094e-01,4.000434555999034941e-02,3.250702832110849427e-02
-2.630835808997207259e-01,-8.590421400315866041e-02,-1.288123952156229775e-02
-2.478566938079000415e-01,-6.413989802572017673e-02,-2.787084060300335994e-02
2.786364722684694928e-01,5.861003118790399091e-02,1.866751309586642607e-02
-5.568638138267787557e-02,-1.783691625134256262e-02,-1.788901067292930983e-02
1.097727764168132669e-01,4.281073981339857115e-02,1.800904380000291696e-02
-3.804005168572396900e-01,-1.179755296231372597e-01,-3.484279777176393228e-02
-9.520238740744216277e-02,-2.471100600426111640e-02,-6.589603056176800491e-03
1.145309598767514925e-01,4.092448645542495766e-02,2.077548619748283837e-02
-1.832671357921999422e-01,-6.157339318513328774e-02,-1.566233520443820540e-02
-2.118755683195036876e-01,-7.152627416218643175e-02,-2.382332933085765797e-02
3.574752641832342759e-01,1.251280078282512864e-01,4.640419976372531230e-02
-2.526381715932148886e-01,-5.911727065409901061e-02,-4.424091814381293092e-02
-1.011467319564723077e-01,-1.657639497831515582e-02,-1.065743463032012804e-02
-3.764357303757092099e-01,-1.108544267709341558e-01,-6.232032570411831507e-02
-1.558589964160599084e-01,-4.043020572033664134e-02,-2.674864524692595683e-02
-1.034279570801299869e-01,-3.120310057494391984e-02,2.994152023457472868e-03
-1.784727799377206769e-01,-5.915087473078595864e-02,-1.901891822507936758e-02
2.972363634437015789e-01,9.066408944493228872e-02,2.584981894504881361e-02
5.131259726373168378e-02,2.460087097385347740e-02,8.216875671931207076e-03
4.201141135697992329e-02,9.414075574008994030e-03,1.402776139933221110e-02
4.023418913343891345e-01,1.117126282035844215e-01,4.564446432929455955e-02
-3.147113855179023423e-01,-9.554346685667934602e-02,-1.480894558218242944e-02
3.272976088837817876e-01,9.131989484141918301e-02,4.523940972522524223e-02
-1.128833061868906723e-01,-4.111227720578110312e-02,-2.044239796977760995e-02
3.691890291655766099e-01,1.094679240567605211e-01,4.970395732969695030e-02
-1.465729935336043677e-02,1.031081144239668311e-02,6.038843862640312816e-03
3.682362794543044826e-01,1.109706816157779857e-01,5.274266680401024782e-02
-3.982111424621864182e-01,-1.272014672748592312e-01,-4.465564391545474160e-02
4.247496462293601227e-01,1.248437939119831364e-01,5.514849014604753658e-02
2.386308731337267175e-01,6.741308623264716249e-02,3.943411403207384286e-02
2.656626160317532848e-01,7.966881607053016845e-02,4.666764571400899148e-03
4.706035588474475340e-01,1.333404251825811848e-01,4.960013173439563328e-02
1.487402823461050350e-01,4.111608493507682566e-02,2.255815609609997802e-02
1.974370135252626890e-01,7.079902834420147284e-02,1.592163028940657421e-02
-2.590794939197033769e-02,-2.747763697363232727e-02,-1.470704617807851080e-03
-2.902372786939391713e-01,-8.826485494871032234e-02,-2.841330988535614374e-02
2.369217641468605862e-01,6.107412455005997720e-02,2.549225080857946829e-02
2.282855525226497317e-01,6.103847675315030030e-02,4.046432097975980607e-02
1.940800132318067084e-01,7.831294117870757354e-02,2.016409249348385599e-02
-4.596012469710982207e-01,-1.504472431368875651e-01,-4.362317289097356054e-02
2.120541468227818138e-01,9.074564350453055706e-02,4.089274900149163228e-02
7.109735230528081706e-02,1.322900493306529944e-02,1.592701883015062991e-02
3.196136866369372886e-02,8.493700666649379658e-03,1.570857278721188299e-02
-1.326874317415758786e-01,-4.755364015393466481e-02,-1.621853184897335126e-02
3.397001342630904808e-01,1.034760864512962869e-01,2.904309542930551963e-02
-2.478010916596848703e-02,-7.858972220476297468e-03,5.817342842596587640e-04
2.578747398554355197e-01,7.606982847055129837e-02,3.793595233793133764e-02
2.490128357385374136e-01,6.300002274402584368e-02,2.192244911781973324e-02
-2.714607036991437683e-01,-8.394344315461249595e-02,-2.444657456229913997e-02
-8.164952459972984675e-03,-8.512651724395156258e-03,-1.694624778499015036e-02
-4.028023175643970499e-01,-1.257013243364433208e-01,-3.510478553415484482e-02
-3.316480267773477264e-01,-9.326513457480813118e-02,-3.060180404642049920e-02
3.458818539285659077e-01,9.682373747742077652e-02,2.969619171174241179e-02
1.342840458784795021e-01,4.448154845049417938e-02,9.026595502199223284e-03
-3.976070404893797261e-01,-1.196071504814558706e-01,-1.580753067337920675e-02
2.297788932537187315e-02,6.763439325832349379e-03,4.278125143971031955e-03
3.500185888544585788e-01,1.215951719613783399e-01,4.479822507959427963e-02
1.891862566215813668e-01,6.801971884859406292e-02,5.036583148406960191e-03
5.155432419123275739e-02,3.172015257657451875e-02,-1.239826429900057862e-02
-5.719752286062963070e-02,-5.189291019415079309e-03,-1.722750451377975034e-03
2.113229476682859098e-01,5.210734499488816479e-02,1.094940011899513468e-02
-5.352927670058750531e-02,-2.390918845250715463e-02,6.692559433797508166e-03
5.339673005429122765e-02,6.054604075738159556e-03,2.515925279069725247e-03
2.376700116057777479e-01,8.094080092847028007e-02,2.821649026735542978e-02
-3.667837681262579586e-01,-9.935780854390746653e-02,-3.527164253677458200e-02
2.797342661995484425e-01,7.839810894688735432e-02,3.225803440139562994e-02
1.083870195114855668e-02,1.448114558099245462e-02,7.163833315126134915e-03
1.557858613068637543e-01,3.570885270740212225e-02,2.200250239414718381e-02
2.844777794235772705e-02,5.963198527719313843e-03,5.308442867115332467e-04
-2.581850308687443918e-01,-5.448522032507430168e-02,-2.574470778728082943e-02
-3.446039059602098997e-01,-9.684880914019454445e-02,-3.094270888798706515e-02
-4.315890924495929815e-01,-1.182373432932059959e-01,-3.431134782617860368e-02
4.545887293347435354e-01,1.423002990284363001e-01,4.696598304417230058e-02
3.516119715588212902e-01,9.934410149509326216e-02,3.535241039434787458e-02
4.884549989466710485e-01,1.464856583296490489e-01,5.513238245931447595e-02
-3.088448912672807356e-02,-4.933646052077461132e-03,-1.374377559033210759e-02
4.576187793197235010e-01,1.290992941029572016e-01,4.043662104643364757e-02
2.525190761791372696e-01,7.473266369144961063e-02,4.523352834817240958e-02
1.911846298524996768e-01,5.877493515418895365e-02,2.987505092955376057e-02
-2.259590703684380975e-01,-6.873170210277938785e-02,-3.166372684009009786e-02
-5.662250937203216344e-02,-1.150151771968267213e-02,7.745768295194780826e-04
-4.803531036735608079e-02,-1.147512649809837200e-02,-2.318978987188139579e-02
-1.270792104067351991e-01,-2.587779862808440093e-02,-5.204795244133036611e-03
4.390419053567426455e-02,2.552069013644540224e-02,1.914841616637641061e-02
3.564609535118542505e-01,1.032711461378307966e-01,2.377016933855709280e-02
3.285002101428503851e-02,9.773047032768164902e-03,-8.262699899353952507e-03
4.648888407674170442e-02,1.899414131482216050e-02,1.224598637654387111e-02
2.292252510970834156e-01,7.978005520264773442e-02,1.839406468428164340e-02
1.492476665481304032e-01,4.449811858987787888e-02,1.488263486990596893e-02
1.343834482861769597e-01,4.618122337116665338e-02,1.973847184717453240e-02
3.843024911311549580e-02,1.603842963861116730e-02,7.645423525951460485e-03
2.031533852692082032e-01,6.900938685765492520e-02,2.145749942735871579e-02
-1.954444259153725050e-01,-6.132917611033388006e-02,-9.928249978504008824e-03
2.090244279782476344e-01,6.881578850259613411e-02,-1.539807741654022075e-04
1.800054133549771479e-02,2.365957413601135415e-02,-8.419470873461457755e-03
1.423822307577347901e-01,4.744498923346872343e-02,1.504665344482693581e-02
-1.210836447087813572e-01,-3.150739510422595480e-02,-1.559055354336263792e-02
-3.409230280291937198e-01,-1.038275290750500790e-01,-3.075745198885449644e-02
2.931454092235210585e-01,9.822901146142772044e-02,2.588705730735725227e-02
4.185896072189870809e-01,1.414766853812793601e-01,3.862944029995522832e-02
2.795447805313146517e-01,8.025006142850116264e-02,2.459252646174302573e-02
-2.726116422311074539e-01,-9.131935123113368857e-02,-2.033036968709887871e-02
-5.449545758597375278e-02,-2.838210590723267562e-02,-1.118943427712453496e-02
-2.705449282304206449e-02,-1.130795583976869009e-02,1.999803423013093821e-03
-1.614810301997976760e-01,-6.241490241756634388e-02,-1.983695062256584513e-02
2.309780369199137817e-01,7.472425314070972602e-02,2.416997681306929172e-02
1.904380734756753735e-01,3.620004601751922180e-02,3.938489558249238381e-02
-4.086651891580301288e-01,-1.119802377022633688e-01,-4.556298663574730873e-02
-4.131015606881630053e-01,-1.346604813622218622e-01,-3.806225593862663098e-02
1.094106047923477792e-01,2.626927687206113970e-02,1.013503132567903503e-02
-1.417139255894655503e-01,-5.039556339711360328e-02,-1.214683814172469456e-02
3.120533091468123410e-01,9.654422128545957216e-02,3.516455836161629794e-02
3.958898053136954420e-01,1.168922700550735772e-01,4.412464415007427698e-02
2.780687337083213584e-01,9.454271089846734422e-02,2.793479118147558157e-02
-3.461906963930564407e-01,-1.057547851468389338e-01,-2.671037376016801093e-02
-7.600062827023897072e-02,-4.547195719855100932e-02,-1.052785787383876855e-02
3.056064539800797467e-02,-1.908594726085902559e-03,-4.372963313036904234e-03
2.122043872884168125e-01,7.090950322042109677e-02,2.363547764044647559e-02
3.515620551447968811e-01,9.348761546645678600e-02,3.052029539247833045e-02
-9.293326067562997228e-02,-2.331145494270025695e-02,-2.343407766414539600e-02
-2.085539206251455779e-01,-5.078022400352818350e-02,-4.221259880866684577e-02
-2.355464086450234917e-01,-5.646495352560294140e-02,-2.016689166429129834e-02
-2.626944875376592825e-01,-8.650797523172980286e-02,-2.845680802079628841e-02
-2.178480064538185490e-01,-5.132720533226928228e-02,-3.410221281805667082e-02
3.124565522984233401e-01,1.070662815590348732e-01,1.020866124511829454e-02
1.698889724913916696e-02,-4.984673346057866619e-03,-1.312486013530882352e-02
-3.339295079496515384e-01,-8.019265930115684893e-02,-3.930323503888023817e-02
-1.176512781870737573e-01,-3.711053887801540191e-02,-1.641004948771535368e-02
3.086754503489148038e-01,8.976250231433259563e-02,2.494933971811558182e-02
3.584806961268501846e-01,1.135406122643104893e-01,3.737597384616821866e-02
5.993160962006615494e-02,2.518074483408467429e-02,1.545851028966590580e-02
-2.306999462680419388e-01,-6.494252699722929956e-02,-2.847975590698657508e-02
-3.831225856423021159e-01,-1.330185615335921223e-01,-3.576426766134094271e-02
-9.037326748965611445e-02,-3.807544852290109527e-02,-2.143546409165168060e-02
-2.464973983462261375e-01,-7.191754171890375746e-02,-3.516506832469659671e-02
-1.155827195713915317e-01,-2.231916080116620044e-02,-4.255141440637939809e-03
-3.068978054904500374e-01,-9.293816385618799969e-02,-3.072682795946851675e-02
-2.236586667883297408e-01,-6.694354518128493858e-02,-1.895206777387017580e-02
-1.498849517115513896e-01,-3.529148781351567482e-02,-2.185828180554803130e-02
-2.221040818822882512e-01,-7.142993068448152960e-02,-1.330790980715947786e-02
3.818790047616925087e-01,1.123709912437172442e-01,4.694065804186298152e-02
-1.788623652469958081e-01,-5.231556435598146149e-02,-5.645963735114772376e-03
3.956377268092126087e-01,1.231920666044914459e-01,3.385103231393339629e-02
1.416833610233602936e-01,4.145253880152154763e-02,1.073605035647720064e-02
-1.899376460775870357e-01,-7.800661274913460452e-02,-2.258119006846056806e-02
-1.983272180621881986e-01,-6.808917889358526154e-02,-3.011221409292519705e-02
2.211858629949981780e-01,3.910524882142837888e-02,2.588882201172898467e-02
-3.287354708375553880e-01,-1.182574908386683360e-01,-4.175977506828248281e-02
1.320965214342006144e-01,3.107979187883847666e-02,1.900179862755076513e-02
6.350496224021290326e-02,-8.034400405995720251e-03,5.963755657490373181e-03
3.741725977739046582e-01,1.022286017806504632e-01,3.298477721953709668e-02
-9.313538185923354862e-02,-1.009740660358491963e-02,-1.768320064918603787e-02
5.156184078036499252e-02,2.164601539615131423e-02,-8.566778323109942384e-04
-3.286839364384716022e-01,-7.777984480123968647e-02,-3.171878515271236987e-02
3.534490966721676730e-01,1.038970060735265599e-01,2.721180869768352606e-02
-4.049818985689113138e-01,-1.070325545755243107e-01,-4.222290358257548698e-02
1.426496913216260543e-01,3.864943878552540291e-02,-2.375501619210555575e-03
1.552881359709153974e-01,4.176989900893695457e-02,2.392354956079456238e-02
-2.828943382397517553e-02,-2.972884497361658399e-02,-1.666993139135556148e-02
-4.237435795117582837e-01,-1.086479745129751012e-01,-4.905643831334186716e-02
-4.140464575621430332e-01,-1.131332676779601143e-01,-4.733587138224432111e-02
1.674025333692870099e-01,3.937101821920038769e-02,4.170979073285218525e-02
-3.334955606205535217e-01,-1.081188866335864723e-01,-2.711470217180176126e-02
1.408837554366971223e-01,3.909080923375171657e-02,-2.859851105605408159e-03
-3.271260262298324173e-02,2.916108632977722258e-04,-1.016124385728549816e-02
4.584974724289923587e-01,1.404804178482582100e-01,4.694101758486918935e-02
2.981421749767304563e-01,8.945742950339652388e-02,2.003890959785125520e-02
3.976451706227032146e-01,1.020430953947536329e-01,4.283088563546436772e-02
-4.267900404143372406e-02,-6.316404081404262960e-03,-6.216630340905154699e-03
2.836195474205668865e-01,9.836238040687730888e-02,3.825783044725872967e-02
1.146667887109867612e-01,4.291049076427156522e-02,3.561267704667908564e-03
9.242319940052685923e-02,3.078002869376285366e-02,8.140301096585823501e-03
-1.967627871607591228e-02,-6.653861640421808096e-03,-3.300977021142749305e-04
8.479330010242512594e-02,2.318630366005126897e-02,-1.731472636455911110e-02
4.012061374497838395e-01,1.236457573492925899e-01,4.594441099153346447e-02
2.169088279415235798e-01,7.647087383710435282e-02,2.213889208063448896e-02
1.648861989245727633e-01,5.063435406075102868e-02,1.530687702284057490e-02
-2.754824800969961074e-01,-8.449260381672937803e-02,-1.138663289147148934e-02
-4.060159173174149871e-01,-1.319330645355736020e-01,-3.875705871427442134e-02
3.423998433352258841e-01,1.291469208685691594e-01,2.520093870963004828e-02
-9.656775835088526883e-02,-3.349862276740118300e-02,1.258191953647735083e-02
-2.652128877062421286e-01,-7.586215920689588776e-02,-2.030449500576261140e-02
3.898643750885342207e-01,1.330767444426283197e-01,2.787793195923587986e-02
1.373226470311879610e-01,2.963513562361041326e-02,1.119952138078036258e-02
3.877993414153997898e-01,1.256279170401745915e-01,3.938803168391106363e-02
-1.308334786363528068e-01,-4.852458780418032747e-02,-2.196237152804190063e-03
-6.395860019873975122e-02,-3.494449997993430423e-02,-1.137408350449213221e-02
-2.719082643595578941e-01,-9.410000342950010366e-02,-2.473463891352656319e-02
3.289093710775577994e-01,9.483503142415861120e-02,4.626853084302049585e-02
4.430718286785114701e-01,1.354214534887340504e-01,5.539969219419421664e-02
-1.279771159384381907e-01,-3.333448042011245144e-02,2.101422918867811365e-02
2.575407992855828221e-01,6.558056395432174113e-02,2.742255918992474173e-02
3.907690209561839878e-01,1.110508190777170362e-01,4.143884072664334728e-02
-4.540919910030729589e-01,-1.465914928010449703e-01,-5.734618403354287824e-02
-4.637960363369079131e-01,-1.207115030466509031e-01,-4.881542439783696091e-02
1.277598719844290631e-01,2.310287068076328360e-02,-6.930017430493515089e-03
9.584984363567219945e-02,2.435040316761991064e-02,-8.231903058827549002e-04
1.404493802863963359e-01,5.504241357239536558e-02,1.672417683117586804e-02
4.350560056570574874e-01,1.261642783726590333e-01,3.851940439546958778e-02
1.348149328152615234e-01,5.261481499686928437e-02,-8.847188091123477441e-03
3.774926620381664488e-01,1.052976774118637993e-01,3.612707050237946860e-02
2.345055946544566047e-02,-1.810387389891460891e-02,4.608670324257663729e-03
-3.217490168324319555e-01,-9.725401572342125267e-02,-1.166307608772046769e-02
4.666900594975592065e-01,1.452314037087411303e-01,3.486630874268886737e-02
-4.700318854507946065e-01,-1.436975026923733856e-01,-2.925198431511373889e-02
2.841368557912636872e-01,7.673304833139958647e-02,1.633201964077527976e-02
2.935679268455408386e-01,7.363828718047750466e-02,2.755052029485139872e-02
-5.772114404211120542e-02,-3.561961295272701787e-04,-2.678379850339892079e-02
-3.854785126889567759e-01,-1.161757101128180480e-01,-5.402125981049783754e-02
1.240007192040332024e-01,2.853965085241969360e-02,2.161371927933115542e-02
3.422007685069575200e-01,1.032747939214994914e-01,2.966575504303372093e-02
-2.279152552901272943e-01,-5.055371214994107409e-02,-1.867619862953233401e-02
-2.639689232676111219e-01,-9.869340340048833593e-02,-3.801656711115662668e-02
2.222014359877737266e-01,6.773446341773771417e-02,1.944214480331119335e-02
2.415009871191475255e-01,7.548496229128633106e-02,3.157367036491786488e-02
-8.671454315010191857e-03,-3.699675101575746437e-03,8.235662274757575996e-04
1.802184991069166742e-01,4.107292041993354514e-02,1.471065676891269124e-02
-1.965183355960667400e-01,-5.324415122003470918e-02,-1.342837793816621141e-02
2.515149023821838803e-01,7.409348641833936322e-02,2.676454918187782389e-02
-1.332732328567326485e-01,-3.113155434473024313e-02,8.928405695892285355e-04
-2.110936644978011756e-01,-6.427381365653035694e-02,-2.772527600105563830e-02
-3.719847458618352753e-01,-1.228643515627937943e-01,-3.332221808025336018e-02
3.584613824447251407e-01,1.251112963962216218e-01,4.539847414439732165e-02
-1.451847323814907109e-01,-4.880177427699926296e-02,-1.369935787185990600e-02
-2.411872771698809481e-01,-6.714347046679446096e-02,-3.189162013564916104e-02
3.609183140325467609e-01,1.189091122689961144e-01,3.543638362620164101e-02
3.972963230833742587e-01,1.419853240689909202e-01,5.354483959225469353e-02
4.549247146961967192e-01,1.395838224132550376e-01,3.597113315614405837e-02
1.491593953557983354e-01,5.536557013752974737e-02,2.145487528470942096e-02
-4.407735906425142569e-01,-1.240735684106765296e-01,-4.602082286239400633e-02
-4.358357731572705118e-01,-1.273814653296198307e-01,-3.366188693524457126e-02
7.739651183314788518e-02,4.334753766734959074e-02,8.212994414799100820e-03
4.704418810726430644e-01,1.393855521103858075e-01,3.985356704697884389e-02
2.915800670514940296e-01,7.969288052160956870e-02,2.894769296174993720e-02
-7.913093153610915864e-02,-3.650235969733445912e-02,2.690994426489231456e-03
2.656139194846509066e-01,7.045406055195786721e-02,2.116431887323124220e-02
4.495915625479277034e-02,1.228958862553344335e-02,6.127807683840918659e-03
3.286063857167147439e-01,1.117935905313916373e-01,3.185166386512678499e-02
3.655342638578463754e-01,1.140177028465529235e-01,4.830347596218988876e-02
1.185199389679935933e-01,4.954062692694515685e-02,-1.272852660908188084e-03
-4.375881681083802072e-02,-4.398450031448128406e-02,2.550438420148060797e-03
9.895806454371831873e-02,2.924703517354228927e-02,4.432201046425388903e-03
9.984070857513854813e-02,8.370901043566301644e-03,1.273202554215497467e-02
8.274870492792917032e-02,1.440308392060095539e-02,2.159604753278630829e-02
-1.760274679104850970e-01,-6.435378007957248681e-02,-7.486224719490924828e-03
-3.955388238157205860e-01,-1.381725910695941195e-01,-4.327605717838696464e-02
-3.745090049252741693e-01,-1.086603900953429097e-01,-4.197159658638340701e-02
-3.019450299668680060e-01,-9.036285706256297345e-02,-4.596393761875833261e-02
-2.376160881226013211e-01,-6.312201229323688434e-02,-6.230361737530278401e-03
-4.689168268865585021e-01,-1.336219109178588271e-01,-2.889252076037514619e-02
4.330371857626217902e-01,1.397711766399982736e-01,4.228357773296378963e-02
1.762789135821689057e-01,5.088095946134601338e-02,1.388773002829054616e-02
-1.880909225332933199e-01,-3.735003533760435784e-02,-9.133701100543749687e-03
3.913770804618848381e-02,1.311969734303233479e-02,5.855937213125871413e-03
-1.673065955357224133e-01,-4.286332004219656905e-02,-1.379710868253079120e-02
1.080247682541611576e-01,3.679567522965786208e-02,3.211503170411435064e-03
-4.528067416625175534e-02,-1.331810791024626642e-02,4.031422317798425380e-03
3.953462796477896224e-01,1.227069719612712689e-01,3.851825653355390316e-02
-3.488104272504219394e-01,-1.179088123003287636e-01,-5.131849620471398005e-02
-4.399137012740337305e-01,-1.133314230599034717e-01,-4.444513409645572261e-02
3.553976546391403035e-01,1.177381289550097493e-01,2.547902232303152562e-02
2.909772987328239080e-01,9.520943898350892054e-02,2.878706098296386282e-02
-7.015943147577222150e-02,-2.699994937927671299e-02,-5.930469601850531930e-03
2.744201346622008875e-01,7.877984736397493359e-02,1.951294162582468961e-02
6.091176031904839416e-02,1.678482548980349265e-02,5.677550964218945964e-03
1.811152638632133882e-01,5.036672530864961389e-02,1.746009784039209006e-02
-4.100500561199832417e-01,-1.163265023555985073e-01,-2.719904688143569976e-02
4.519611457406909616e-01,1.084355875095498606e-01,3.709928932031926474e-02
3.797825832474263086e-01,1.150604678404948678e-01,3.424589817875653419e-02
2.669911103423033283e-01,6.628048224096180774e-02,2.149105627695226464e-02
1.916779627304256439e-01,6.348951632068725037e-02,1.387277134363155105e-02
4.142866505873197824e-01,1.358673115364128492e-01,3.225940966716355635e-02
-6.702755734377327523e-04,8.033294237655036127e-03,5.216687192455212591e-03
3.490706805632580179e-01,1.065542242386821048e-01,4.722424611146782553e-02
-3.028724731645349166e-01,-8.845677446130752186e-02,-3.738609169750983091e-02
2.457297644680079829e-01,5.899665670748124174e-02,1.234726663030226435e-02
3.874231435771478549e-01,9.997695695562272555e-02,2.566829301114768522e-02
-2.313693436339823162e-01,-6.008858466454348318e-02,-3.683104625015455602e-02
-3.843461405867661940e-01,-1.232627512807836223e-01,-3.306000888463581089e-02
-1.276932218884418990e-01,-4.117080492553854693e-02,-1.784572948290906111e-02
-3.661545014295878447e-02,-1.098498702166970410e-02,-2.084752026529063801e-02
-5.528715119807812994e-02,-1.578179372261918206e-02,-9.011405983565279679e-03
-3.704635514605695290e-01,-1.191929859148945503e-01,-4.135169764512184459e-02
-4.379909634824178007e-03,-1.495498845622395077e-03,1.886601562286453065e-02
-3.965844980297835720e-01,-1.208773686357742377e-01,-3.981421702226214943e-02
3.218113005221182044e-01,9.511567900208774129e-02,2.247236743694689537e-02
-2.650533425730607351e-01,-7.098158790640771154e-02,-1.378994105022011800e-02
3.658104201250227394e-01,1.096007889736076713e-01,4.114613857988824730e-02
-4.512228320474417353e-01,-1.113509284465199756e-01,-3.142699222620753269e-02
-2.566341526441360821e-01,-8.639486523220488157e-02,-3.271358875289615692e-02
-5.385153259372808809e-02,-2.981671101923254186e-02,-3.928798565073851265e-03
4.814440406869880951e-01,1.377585395719217176e-01,5.335788401897137434e-02
1.234317918080682364e-01,3.300209336460944304e-02,2.277767435166213467e-02
-3.314545956852030795e-01,-1.160652964282614524e-01,-5.771893756907371664e-02
1.649111691855958683e-01,4.850451722827468781e-02,1.248775682870525983e-02
1.986784947707615212e-01,3.952376969979965599e-02,1.077389647624313156e-02
2.067891744985584646e-01,6.111320408263642978e-02,3.108027799826526549e-02
6.219328350685017492e-02,1.600384018452673945e-02,-5.354933844305720695e-04
3.656853960086062227e-01,1.188270443023542178e-01,3.067693815701725418e-02
5.884540058919070921e-02,2.499505997671096560e-02,-5.023621117479821693e-03
-3.101019410051450431e-01,-9.037222826883915816e-02,-3.240469590471477257e-02
-1.790249210335996266e-01,-6.097069108080552940e-02,-1.343194189262654839e-02
1.713269604692069792e-01,5.067428678842100104e-02,2.506106493879974723e-02
4.098851164162886085e-01,1.357545614253627686e-01,4.732005545136024754e-02
1.803119688688293032e-01,5.808658110267920366e-02,2.304017694093868016e-02
1.593169535285593186e-01,5.899154757169661895e-02,7.452283900159291374e-03
4.599271868887661596e-01,1.418112881042334350e-01,5.126548912443454342e-02
1.169278745307645445e-01,3.534105707800911517e-02,-9.383726392961044783e-04
-4.267686363509405334e-01,-1.329382362052750344e-01,-3.923772196436080273e-02
6.115622223204653790e-02,6.277793253462583649e-03,1.256099830317138587e-02
-5.196325792876861638e-02,-6.911788391441609468e-03,-1.800681949477248370e-02
1.017389775358329140e-01,2.916869335887772516e-02,1.869431830355711144e-02
3.913562495871835689e-01,1.104913701279831434e-01,5.954381310682663880e-02
2.750546376206441379e-01,9.696048643585662707e-02,2.887267793576513142e-02
2.239819336230617908e-01,4.591474434187998305e-02,2.407336268916353966e-02
2.930177224827209548e-01,9.425823223195226030e-02,3.000980826856967584e-02
-4.103598998462779646e-01,-1.327299173472202554e-01,-4.286466044255896057e-02
3.795553378944027667e-01,1.189942287956460842e-01,4.557633056916782222e-02
-3.265239648973545794e-01,-9.206719757378692415e-02,-4.360410612424077403e-02
-4.169430770777396988e-01,-1.236075643598403412e-01,-5.253701227823062703e-02
3.785850298700736416e-01,1.075223230211571346e-01,3.389889773292491248e-02
5.625908391471101666e-02,9.610030835428525278e-03,1.971798410629641701e-02
3.914114619150338981e-01,1.155913165460609043e-01,3.564350019731186286e-02
-1.652335857579800490e-02,6.976466063566335966e-03,-1.710081556279864634e-02
-2.181104002863655245e-01,-6.805217349727375742e-02,-1.408409587676181206e-02
-4.058053188125902988e-01,-1.153830487707865615e-01,-4.746572976264918503e-02
-4.285428871533245032e-02,-1.472537620108260899e-02,-1.443455415784283997e-02
7.449231129840820642e-02,1.204823431007973761e-02,3.065040480487656385e-03
-3.636459928413405263e-01,-1.074083239799745182e-01,-4.034379092655947935e-02
2.461845000800823025e-01,8.339843016857277636e-02,2.128485962138558854e-02
-1.499035675359948472e-01,-4.681280764548866741e-02,-1.535039135772835704e-02
3.874806530577358799e-01,1.367589016914010358e-01,5.323304341890872093e-02
-1.024969014650806143e-02,-1.219469361234204637e-02,-1.141496662258542280e-02
-2.619290725946416543e-01,-8.469155412723905485e-02,-2.422568472967474851e-02
1.555983799447538118e-01,4.079794692548546764e-02,6.896410074304290538e-03
4.094410070076524577e-01,1.212025648253975130e-01,2.682146500202404332e-02
-1.848988720632662452e-01,-5.532962537248075491e-02,-2.508819905545758497e-02
-1.741050543986105703e-01,-4.660884287039871593e-02,-2.850959577529400130e-02
-2.039251597621364320e-01,-5.624457868667743360e-02,-2.727863036050725068e-02
1.709083150638133763e-01,3.499471618170386239e-02,2.109170028690779755e-02
1.818893150506253609e-01,5.886877739167494655e-02,2.199280403934363373e-02
-4.767713990504983679e-01,-1.288580305779088164e-01,-4.741503257400743465e-02
1.310134360229263106e-01,2.771953202395015942e-02,2.185252084124660391e-02
1.211578939416637080e-01,1.999049185988421504e-02,1.061630908439498318e-02
2.877266016789421788e-02,1.916053679482743969e-03,2.733409315739945052e-03
3.033385107864042252e-01,8.179822498435428135e-02,3.344724459375791187e-02
3.195004319623933609e-01,9.072010982650388633e-02,3.625142856057440854e-02
-3.715229878222772730e-01,-1.136180482945397252e-01,-3.608424736406830313e-02
2.372259008157701077e-01,8.215864756325168272e-02,2.077301555481659082e-02
-8.405750641864524753e-02,-3.231825254585565105e-02,-1.409211352464239189e-02
-3.934895134587924614e-01,-1.353008469479685671e-01,-4.389014818697312831e-02
5.422916616840486176e-02,2.648617487727544795e-03,1.099871882818412999e-02
3.935741828867275749e-01,1.189883210982672496e-01,5.529457250767574883e-02
-1.745683725189667856e-01,-4.233146549888634064e-02,-2.187161010459548471e-02
1.933818551769991290e-01,6.005733844031068552e-02,2.277401616410410987e-02
-3.194660280713380596e-01,-8.009984767467127897e-02,-3.136837204465498657e-02
-1.472595592495268627e-02,3.541372341536937716e-03,-6.933899706235140559e-04
2.355818374900358614e-01,6.568479257602294341e-02,4.097864941054848303e-02
-1.213001273615064296e-01,-4.798284059274214586e-02,-7.769894397728072978e-03
-1.658942395834796246e-01,-4.794264550061203001e-02,-1.802545195131042416e-02
-3.389573048848128212e-02,-7.709792356981309998e-03,2.236382213013915401e-03
4.905974397087563971e-02,1.656817681816831478e-02,3.889623351318658665e-03
4.138987073451422249e-01,1.312211356660002715e-01,6.433845871306809183e-02
4.554113501414553955e-01,1.360608269066540255e-01,5.565259962375128377e-02
-1.616891940018965190e-01,-3.318531275452629020e-02,-1.305075067563675993e-02
2.026693998918798617e-02,2.273553833546234412e-03,6.685839952411287701e-03
-3.364765028953836112e-01,-1.101770318572168061e-01,-3.592264901206101285e-02
4.598997322876484106e-01,1.342824428467505882e-01,5.430706883694323694e-02
-1.352416359393711354e-01,-4.530306346743315227e-02,-1.025452480829150935e-02
3.684753749079297536e-01,1.027799070586094682e-01,4.503996981280379563e-02
-4.276199923636418709e-02,-9.253120245318909379e-03,-5.598819141571572712e-03
1.996036419469065792e-01,5.243515290510771670e-02,2.311814133089705459e-02
2.702608894359567193e-01,5.802365423305873987e-02,1.093747251206265980e-02
4.477005935985641227e-01,1.526832879948624710e-01,5.203294628745056688e-02
