7.453250466406338703e-02,-8.412929156078956250e-02,-1.071653793796484982e-01
1.239482826543956001e-01,-1.295968816578745020e-01,-1.960123308722465929e-01
2.561041919648635729e-02,-2.115888575836344723e-02,-3.913881464005950633e-02
-7.506321044330276082e-02,9.134662906505283675e-02,1.390186939309755731e-01
-6.533009144946082258e-02,7.072119613543824401e-02,9.754324921010452953e-02
-2.045873315360441924e-01,2.162294097773397594e-01,3.086144999328708782e-01
-7.069320922234950677e-02,7.337248930583335771e-02,9.774434901062524494e-02
-2.146274490134747193e-01,2.541438609616270550e-01,3.429618411738182826e-01
1.657503603451175311e-01,-1.635921607110579490e-01,-2.219197321960632296e-01
-1.545277949199077572e-01,1.947544222014613580e-01,2.557573501427883311e-01
8.159329592775378670e-02,-9.543133025197532426e-02,-1.257696381492703908e-01
1.724193819306560002e-02,-3.437560781388367820e-02,-1.886598701121007526e-02
-7.703240767487724849e-02,9.799224990493576870e-02,1.164066772990525467e-01
1.189775545922048122e-01,-1.490135054622641619e-01,-2.194855132352930005e-01
8.910403595218913120e-02,-9.298593426778384297e-02,-1.279720962212147484e-01
1.186205232997759873e-01,-1.270393787568646904e-01,-2.043793876305070867e-01
2.394069329629724407e-01,-2.535019448041730961e-01,-3.449731488531943002e-01
1.532037011419949968e-01,-1.649825152185661892e-01,-2.421357769680285432e-01
-2.242001602216802530e-02,1.214943530149423939e-02,4.592811103119831539e-02
-1.222585739132504290e-01,1.254932992341062092e-01,1.832421898815121963e-01
-1.131959274641354402e-01,1.108832061244786615e-01,1.789955738098578386e-01
-5.283173851624187178e-02,4.755688644660090864e-02,3.164119324319874388e-02
-8.254203340688505419e-02,9.461660431493665313e-02,1.390857033396192544e-01
1.652985927427581825e-01,-2.198279342107725132e-01,-3.035578920571502248e-01
2.006543488046157453e-01,-2.278332388816067255e-01,-3.212110176556775554e-01
1.834052450811140267e-01,-1.903134148728480579e-01,-2.862816731785463031e-01
-8.155872880585601781e-02,1.199597165938459664e-01,1.657738243547665358e-01
-9.125230925978769503e-02,8.340525854281530260e-02,1.382052421492107608e-01
-1.654626353064544420e-01,2.033220556946987168e-01,2.502050980063871277e-01
1.593618817450365155e-01,-1.729790858710331947e-01,-2.527703842908570198e-01
3.638700344576587670e-03,-1.375107853497409618e-02,-3.644418479843329617e-02
2.075351191529332603e-02,-1.245263091199623126e-02,-2.727026997123199042e-02
2.139024389121444991e-01,-2.330115688117841422e-01,-2.837806838395446896e-01
1.410573889400420101e-03,1.220141461417439954e-02,-5.094822920340846438e-04
-5.208601172664170664e-02,5.527434897761768218e-02,7.490898918030751419e-02
1.872597048242340134e-01,-2.040655728040703665e-01,-2.833683070035994400e-01
-1.438268592430697601e-01,1.777801023894908239e-01,2.481144296133442895e-01
6.092089258091482745e-02,-5.154420066671069889e-02,-9.013492423270413889e-02
-1.908744096843765781e-01,2.427790618446841187e-01,3.422241908085356665e-01
-3.592635250130660207e-02,6.563615781902419621e-02,8.948353963233336705e-02
-2.399568403985375548e-02,2.207198841783163112e-02,2.477783772923147082e-02
-7.454131147187033346e-02,9.331226996453580169e-02,1.170416179006413815e-01
-6.870389207055523084e-02,7.505529062682526897e-02,1.029750259123550504e-01
-2.027593679181947661e-01,2.358527610727796930e-01,3.457040426168262459e-01
-1.890428556548791883e-01,2.245130136072504834e-01,3.293028518146834394e-01
-1.479870321405721278e-01,1.436798596090205493e-01,1.957595571577461502e-01
1.908267850692503265e-01,-1.954624886353178159e-01,-2.718431943440673404e-01
1.224897862728329262e-01,-1.265388680605233074e-01,-2.000607387464577169e-01
1.831565654676502175e-01,-1.894868372428613890e-01,-2.696492538794307281e-01
-2.249591280800598281e-01,2.332986749787213376e-01,3.508251194187603228e-01
2.062377696373575708e-01,-2.541965109942764256e-01,-3.293061316339201960e-01
1.125411053728495314e-01,-1.050324500025073687e-01,-1.675260818583180766e-01
6.945758952233796468e-02,-8.661274243423498775e-02,-1.225871424948854899e-01
-1.246193311044098279e-01,1.288542842677324329e-01,2.009932706447792872e-01
-1.191764048570243817e-01,1.293776733140235280e-01,1.725335219289758082e-01
-9.136457457292756351e-03,-5.480589643059065319e-03,8.832373823810742847e-03
-2.098214161956991342e-01,2.522894895713662100e-01,3.342694979848341297e-01
5.231119804445692571e-03,-2.994126128525525371e-02,-2.504988561479981266e-02
2.342855203638622152e-01,-2.464452244148914450e-01,-3.435626732335767541e-01
2.480353355374319974e-02,-3.819700574902857443e-02,-6.113589022445308635e-02
-5.976592988858557554e-02,9.218415494460495407e-02,7.906897175532537347e-02
-2.840792544307280815e-02,3.204828987663096290e-02,3.863156892743515453e-02
-2.088145738382986560e-01,2.040852665263094001e-01,3.029672924548095225e-01
-2.095909048274940956e-01,2.435931153714429864e-01,3.418799930192960579e-01
1.537038704740337387e-02,-3.353896757067865303e-02,-2.955727273122334131e-02
2.195813578284990519e-01,-2.293125840838622365e-01,-3.159620359874894535e-01
-1.841507190501504854e-01,1.856684052844530530e-01,2.631681525985949399e-01
-6.065717515313533148e-02,6.898326024583591176e-02,9.509417451016276279e-02
-1.173319235020612167e-01,1.477078816186447596e-01,2.148059870343699274e-01
-6.979027113889681166e-02,7.131847149523851126e-02,1.276121933600931624e-01
1.680621170226770655e-01,-1.621943469024703655e-01,-2.301976365738376551e-01
-2.021946594315844059e-01,2.464719223182525176e-01,3.404139643278188965e-01
6.709266407954618539e-02,-5.429424849508184686e-02,-9.907461270618195259e-02
-7.656483974982275509e-02,9.094832384300365058e-02,1.304006365880901741e-01
-1.696247665478933797e-01,1.882172988937249325e-01,2.566210498570921650e-01
-1.127419487100179973e-01,1.194899513458652085e-01,1.709021132922171615e-01
-2.011697983663244052e-02,8.524624930068445613e-03,3.057742340593522928e-02
1.083167237096970825e-01,-1.103071030778879497e-01,-1.787225564404283373e-01
-1.096699977284385785e-01,1.075670111835023146e-01,1.517766022764205358e-01
1.981264685357506383e-01,-2.215085920454648027e-01,-3.169645756845410056e-01
1.030557339759719249e-01,-1.008854687205728989e-01,-1.501585284192051006e-01
2.114715599914442357e-01,-2.464326816901522554e-01,-3.413794234400764349e-01
1.636632695842545338e-01,-1.955573975329385483e-01,-2.685878089741572383e-01
-9.942625580715935916e-04,1.573783798339167470e-02,3.004044340024400982e-03
-4.154191629483254544e-02,4.868334982399928623e-02,5.101447421657932108e-02
1.625120349398090705e-02,-1.491308833340250321e-02,-2.165140804000816738e-02
-3.914932057118469810e-02,6.279331737562449112e-02,9.586701271096084720e-02
-4.848302417519594065e-02,6.131808049269311250e-02,6.204350323477807877e-02
8.466305267010471036e-02,-8.467221724870432897e-02,-1.087747958963733441e-01
1.407434239678714560e-01,-1.527526570586283383e-01,-2.426273079840849667e-01
-2.200837338467114337e-02,-9.171600849692464197e-03,1.590704733451501346e-02
4.275550486747123347e-02,-2.862796398083974209e-02,-5.964349496090753933e-02
1.814985566683822160e-01,-2.149852907501522969e-01,-2.845874385842245280e-01
2.393112482412773634e-01,-2.721640168423437034e-01,-3.811285182471499389e-01
-5.363599932872214343e-02,5.647237420614913128e-02,7.460035265928477433e-02
-1.720161442142467134e-01,1.926167944144538957e-01,2.726634201332311935e-01
1.786053913221265221e-01,-1.911689783544180954e-01,-2.594563009269177378e-01
-3.597560892119214260e-02,2.988527244114435807e-02,5.904543952191917272e-02
-9.770159709446776808e-02,1.146594353566580682e-01,1.561570461533272614e-01
-1.589723898887733244e-01,1.450548562883517134e-01,2.256974067194442712e-01
7.300504118963729860e-02,-9.953808218440811373e-02,-1.416361491794096983e-01
1.924493749405510601e-01,-2.061984707854798426e-01,-3.091654948675556236e-01
1.411568837044653857e-01,-1.689660155222531546e-01,-2.232260944637377564e-01
1.783363442547250544e-01,-1.934457380652263303e-01,-2.782907867721909345e-01
-5.459266200696607368e-02,8.866729322987783324e-02,1.008987802207028800e-01
6.082248470421405817e-02,-6.803216617681473455e-02,-1.002394241570240679e-01
1.486436925370163663e-02,-9.210160493942430148e-04,-8.157969975080427150e-03
1.825570165695162284e-01,-2.044345535403779002e-01,-2.991936856852447368e-01
-1.007957698245281059e-01,1.079790064033848557e-01,1.731447840111700609e-01
-1.350306940665950972e-01,1.564146214517242173e-01,1.775460525791270339e-01
1.348642820566262335e-01,-1.464985082135758787e-01,-2.161067957613571622e-01
4.896514688462698557e-03,-1.520872867472690057e-02,-3.866931342120459580e-02
-6.275595161108982190e-02,7.818684198089827231e-02,8.640540346418090767e-02
-2.063367981181007949e-01,2.128156982317314927e-01,3.286809118595206414e-01
1.990363374474841685e-01,-2.252751630682109929e-01,-3.000456305034716054e-01
9.169087349064820869e-02,-1.030574632362507015e-01,-1.541796402960484424e-01
-1.419436831907824603e-01,1.624382931481927750e-01,2.232662396904967206e-01
3.439572640995715302e-02,-5.916344069526720956e-02,-9.167196160653906523e-02
-2.016283161926364989e-02,2.398300388818985426e-02,3.207699807445212048e-02
1.010072209588956660e-01,-1.101138949497138947e-01,-1.676522114717140244e-01
-1.050184147055864825e-01,1.510645472346390239e-01,1.809504153023769324e-01
-1.489118964190390693e-01,1.645938932445731306e-01,2.125287136659402554e-01
1.211049146701775603e-01,-1.408456409769502371e-01,-2.188503047469003426e-01
3.994097367392147185e-02,-4.031476954746991692e-02,-8.884701125008644118e-02
5.122045722772870097e-02,-6.963366632880800544e-02,-9.078102729187671749e-02
2.337552958662983682e-01,-2.590382619299031464e-01,-3.625260465667821674e-01
-8.507658086638739126e-02,1.089984322391018279e-01,1.542255003389882417e-01
-1.911594002740860387e-01,2.178309616907339319e-01,2.909106713549069467e-01
6.441128145290536677e-02,-7.415864243707202819e-02,-1.038672508135552730e-01
-2.185302469904712996e-01,2.588071349729022530e-01,3.593015879890758546e-01
2.450950011406750617e-01,-2.398681382577572963e-01,-3.283709622083941793e-01
2.148934711524463914e-01,-2.224024736044368789e-01,-3.012416949007243883e-01
2.267133083920283912e-02,-3.695645356588963398e-02,-5.630460686495197126e-02
-1.626584060083625660e-01,1.902138546304327771e-01,2.642953960212908737e-01
-6.019741316529105685e-02,7.365234690661866257e-02,9.838682154883537923e-02
-1.562391673931569913e-01,1.755063561217869439e-01,2.380689916790314220e-01
6.684061311311396969e-02,-6.866821189806224246e-02,-1.182810323747378739e-01
4.692309805468285883e-02,-4.715764519309487146e-02,-7.695065204296114292e-02
-1.391353043783037369e-01,1.672212382251707652e-01,2.340075460934356311e-01
-1.608544141505171277e-01,1.580396571106682524e-01,2.443910795842883510e-01
-2.256640271231334649e-01,2.374288616330049173e-01,3.320780779949046302e-01
1.787079467507053099e-01,-1.962782164553627529e-01,-2.683180496153588224e-01
1.332204024395698683e-01,-1.589478123353223471e-01,-2.325320919177021051e-01
-1.533742585822893689e-01,1.557150200859518663e-01,2.196398679782425589e-01
-6.157358858265302853e-02,5.713861316191811562e-02,7.897150508660437385e-02
9.993810010625914231e-02,-1.035319385789018887e-01,-1.505183287453099039e-01
-1.779098295669984953e-01,2.048601293307495408e-01,2.687347316908261230e-01
6.598269981739458834e-02,-6.419306632279843383e-02,-9.411205093439677094e-02
1.312224204545359152e-01,-1.390195453854131957e-01,-1.605946412208276164e-01
-5.669124808672746513e-02,5.958379749699767997e-02,9.620962022957520177e-02
-7.500332420696199931e-02,1.082217885316962280e-01,1.173777408174630360e-01
-1.895200841547960147e-02,1.215858538175577583e-02,4.251865218337506913e-02
4.198251879765936556e-02,-4.557004327832459012e-02,-6.535675880431694729e-02
-1.579872175528735101e-01,1.563928456312635440e-01,2.380591011122976663e-01
-1.177298189487731711e-01,1.416916383947675051e-01,1.780243218762381507e-01
4.023825250232685585e-02,-4.630353965198683724e-02,-7.086059748610731845e-02
-6.307728782131485912e-02,5.488216198636072102e-02,7.140703752290798734e-02
-8.214717951471421642e-02,8.651080627563095815e-02,1.212237866642194017e-01
-1.753862656415214674e-02,4.807063985032131691e-03,3.107715498262510288e-03
-1.155992820234070934e-01,1.211708109261620120e-01,1.734040204338237467e-01
-1.326840633545965653e-01,1.479637880772715908e-01,2.142728636386858065e-01
4.548905163996471573e-02,-8.108541781668793247e-02,-8.951372065114271415e-02
2.140131135878331758e-01,-2.585793752007018442e-01,-3.476403175417262514e-01
6.570233264190797340e-02,-8.811611610000841255e-02,-1.295103624880289683e-01
1.244712872504690621e-01,-1.257009441508950831e-01,-1.911254749827631383e-01
-2.423983384244923489e-01,2.444016731884814109e-01,3.651010123822309161e-01
3.962621029011460100e-02,-7.588980119754623610e-02,-7.596392300353133065e-02
-1.066194925575615349e-01,1.243705035624275701e-01,1.550433929033229741e-01
1.650665057776387612e-02,-2.483934522356779154e-02,-1.917967179332288191e-02
1.993359780661261432e-02,-1.847474303629854583e-02,-1.371827636427471256e-02
1.489540346141164373e-01,-1.555173638139847048e-01,-2.353034532245743271e-01
-1.728196655425746631e-01,2.225175285536343528e-01,3.115473974812313362e-01
2.153473229903540564e-01,-2.357750476352061808e-01,-3.242550492073844604e-01
1.188025986688263508e-01,-1.221482965184530894e-01,-1.628246584693030241e-01
1.337470435857283750e-02,9.785666106802370923e-03,-1.108515527993028313e-02
-4.849977819604044116e-02,5.449524828854716840e-02,1.134198566989024354e-01
-1.257313673136119525e-01,1.441273047636882909e-01,1.993481494268609377e-01
1.452671452476907987e-01,-1.651564193130464486e-01,-2.414249577427076687e-01
1.102424777404366479e-01,-1.307760357535347195e-01,-1.626816296696269593e-01
1.572352964955025800e-01,-1.484783913896968732e-01,-2.251081064008345067e-01
1.507890093435209321e-02,-4.160202138814592804e-02,-5.827025285460369491e-02
4.022711395188135336e-02,-5.416690503398000761e-02,-5.889976093698915532e-02
-1.984220783039087332e-01,2.214970108172533980e-01,3.113434143787671138e-01
-7.203425806996163749e-02,1.019440893146187493e-01,1.281480986103097908e-01
-1.229274310035654433e-01,1.528666904307228180e-01,1.935505499487095160e-01
1.962335141929136828e-01,-2.382312343964936296e-01,-3.258443942542250671e-01
1.705504443847520035e-01,-1.853965328018024605e-01,-2.604505393619453990e-01
-9.564300824798077638e-02,1.436363747795648405e-01,1.586733354352725389e-01
-1.061818904773828426e-01,9.767992185249815829e-02,1.297285597401416080e-01
-1.418768411093377091e-01,1.493158924230808260e-01,1.969455626991764574e-01
4.401084799279770393e-03,1.228244626004684585e-02,8.479711889821901077e-03
1.058328935240187563e-01,-1.098445107389051656e-01,-1.873859449366074570e-01
8.429079858674209946e-02,-8.722590396806277624e-02,-1.327464538074749900e-01
-7.858340258057887329e-02,1.027928492828584645e-01,1.323807805835792717e-01
-1.174659107990990853e-01,9.580904103625796642e-02,1.570690716362517503e-01
-1.919205074405274042e-03,1.115988750073408642e-02,2.183563272576923009e-02
1.132678631537689523e-01,-1.007277008910737737e-01,-1.681741663828361932e-01
-1.142308463309524985e-02,1.822938556593516404e-02,4.923905283877724054e-02
-1.016424458142688343e-02,-2.153869182965165250e-03,1.129463381344281842e-02
-2.155253189879922926e-01,2.299710327946836996e-01,3.168337842300466556e-01
-9.755150078608081088e-02,1.096966606292410634e-01,1.581529685466322166e-01
-1.479446724092001175e-01,1.781831415971869836e-01,2.374782510793391754e-01
-1.558097736821500989e-01,1.731016576219251146e-01,2.249697652398895964e-01
-1.954811573134802583e-01,1.812712921513425779e-01,2.794681594026930394e-01
7.225543778843296350e-02,-6.673709543535143174e-02,-1.073294352021613857e-01
-2.302199994356719237e-01,2.535135026271024272e-01,3.539510286588300469e-01
6.693576377881788921e-03,-1.101005413784995196e-02,-3.875754006187322187e-02
-9.002489499867709355e-02,1.062000537832090835e-01,1.489634003321615441e-01
2.975311016082041096e-03,-9.726334418450272370e-03,-1.242131824957248484e-02
1.593872352970600037e-01,-1.624740175574669598e-01,-2.385090686499796164e-01
-9.188220358846409253e-02,1.063659861035529813e-01,1.492546606046612767e-01
1.072563266132067067e-01,-1.426765537292360442e-01,-1.657271277371127338e-01
1.607796209092428041e-01,-1.592642806551028967e-01,-2.433163432164513751e-01
-5.457070186051194045e-03,5.377445269624883846e-03,1.183619987596089100e-02
-9.851438892976471101e-03,-1.242333694073207741e-02,7.767406405655825040e-04
-1.361027826575628152e-01,1.402097172811623549e-01,2.054650944335020546e-01
-1.636356167886204582e-01,2.022452907291005519e-01,2.800412695417001108e-01
-9.756102604259024591e-02,1.302170761153647605e-01,1.912593556936743600e-01
1.853420741958224371e-01,-2.025580551259215378e-01,-2.869540228425144224e-01
-1.171550614293125486e-01,1.240938738699683686e-01,2.022519005859438612e-01
4.226042083913299913e-02,-5.037103783091660680e-02,-5.348710172847188221e-02
5.400499074086690526e-02,-5.201200971880747675e-02,-8.430947485372670969e-02
1.486218953299711931e-01,-1.571650550387836687e-01,-2.075581069925626632e-01
-1.161075767991541358e-01,1.270648691469204727e-01,1.817228689279160314e-01
3.002182855669080150e-02,-7.220124302177390388e-03,-4.710502730200544219e-02
-2.494256127983634011e-02,2.779198627479887579e-02,1.418556478238600614e-02
-2.099241205707896296e-01,2.295694164521919212e-01,3.193381453873346265e-01
-1.018319709509238336e-01,1.223875801738354835e-01,1.509196311045619965e-01
-5.269331715072458899e-02,5.886466275895572975e-02,7.508612540038224481e-02
-9.354133639138621781e-02,7.773180935643576872e-02,1.181404543097913512e-01
4.733937731069867705e-02,-3.236319710019961576e-02,-3.374537987042847825e-02
-1.131279935444455265e-01,1.270470080404210722e-01,1.593921244484381994e-01
-1.002275428968144311e-01,1.094868252857143648e-01,1.578101375530655270e-01
1.920073122318997072e-01,-2.014812755613505646e-01,-2.754820059149679090e-01
9.329082399726637900e-03,-5.601543338313914704e-03,2.253645550889379987e-03
-6.053024117041194002e-02,5.680060323259631533e-02,9.722218243188433806e-02
2.096470184934580774e-02,-2.672139494971570786e-02,-6.265230420705839021e-02
1.215959173126021503e-01,-1.415146367052822485e-01,-1.778377568745839188e-01
-2.813871830077996697e-02,4.786400682443667232e-03,3.889328769692611265e-02
2.349969549942211300e-01,-2.492075740225791203e-01,-3.605842668444323995e-01
-8.322981408397943370e-02,1.095618401486311982e-01,1.692633017932379247e-01
-7.310566196159355712e-02,8.752148586471139580e-02,1.357965674550457025e-01
-1.573466612181586843e-01,1.733853490088939076e-01,2.481723909445045506e-01
-2.152743635179608372e-01,2.648871645311751677e-01,3.438847466161022992e-01
1.405324855768427250e-01,-1.527579807482779273e-01,-2.277718313985996612e-01
1.824681098340101282e-01,-1.686920656603844992e-01,-2.586043341541713336e-01
-6.585241809939849922e-02,7.194188614896009082e-02,1.154531631076441689e-01
5.276282585248278506e-02,-3.831685646844045640e-02,-6.717759078763871350e-02
1.167308567435214189e-01,-1.271124544779255738e-01,-1.854822036018966835e-01
-1.857123761656135075e-01,1.888224648143639606e-01,2.711272130584195250e-01
-7.572194709771949694e-02,8.823647349310456689e-02,1.485339877022308908e-01
-1.454962890023304978e-01,1.574215466217185611e-01,2.060749348201645625e-01
-1.465574331519972073e-01,1.732438635996904064e-01,2.119892220043521069e-01
-1.953345415843095734e-01,1.993180969184259743e-01,2.989119402999694808e-01
1.376486317231906120e-01,-1.510818995053560265e-01,-2.105671713837447556e-01
3.206672184349229626e-02,-3.944022856040087233e-02,-4.641666759859580660e-02
-1.154305205127396788e-01,1.126011164061975767e-01,1.851077223147842565e-01
2.423547044575340148e-02,-3.739115648879826753e-02,-3.948426899301784448e-02
-1.007852432439500373e-01,9.332075657090585508e-02,1.568447746516873909e-01
1.663333345498905491e-01,-1.586100405578886596e-01,-2.297442724272367731e-01
1.798121722106366116e-01,-1.982668593578905958e-01,-2.868440728293842334e-01
1.238350367769425059e-01,-1.440983906957734040e-01,-1.999763407163990259e-01
1.568297843647089088e-02,-4.229259674565672561e-02,-2.741277828283939996e-02
2.172132764252527881e-01,-2.492591837701815249e-01,-3.441108854825750685e-01
1.744364961643330436e-01,-2.001706498877919294e-01,-2.506593641085034241e-01
1.335703607436395657e-01,-1.469664506217944200e-01,-2.085048320879526740e-01
2.182882460457500132e-02,-1.716757101502992822e-02,-1.790457538779408530e-03
-4.642858855001758683e-02,5.140955731732404360e-02,9.056959508745748844e-02
7.738098785822158932e-02,-7.840540724695786723e-02,-1.133891079330785479e-01
1.628412786286885794e-01,-1.786253801649357875e-01,-2.486187278365533659e-01
-1.496123801787791752e-01,1.710464926485951720e-01,2.206148167910076396e-01
-1.457419368822663319e-01,1.986308762962998020e-01,2.546474985764741739e-01
1.879459757652820334e-02,-9.396464069292453924e-03,-3.254494750176345486e-02
-1.719614460287893776e-01,1.884791511761109428e-01,2.844673719349756769e-01
2.303517952449884443e-01,-2.583645799879848992e-01,-3.502067003799049782e-01
-1.835450995355660531e-01,2.016984308272114224e-01,3.071139706244021550e-01
8.153349052957756249e-02,-1.044348182968966726e-01,-1.569869182826356402e-01
-1.246411598373047686e-01,1.397407046248232143e-01,2.089225956501184756e-01
-9.235967585881759215e-03,7.388579379827678144e-03,3.113200695005736637e-02
-1.288173816993857801e-01,1.477325414692590988e-01,2.249078454427117513e-01
-1.606397750129188728e-01,2.015944289495504305e-01,2.693520132461417749e-01
1.249146340149047962e-01,-1.185103566442653467e-01,-2.172592920995636279e-01
-8.063874174002530482e-02,9.358426678832504342e-02,1.330496928514865729e-01
-2.035166629847452169e-01,2.138222059803852049e-01,2.951725145501741809e-01
-6.399982022051277364e-02,6.074107280091322475e-02,1.118439803013460548e-01
1.752869794224284627e-01,-1.914163435865933460e-01,-2.620680531172649985e-01
-1.879963994169911445e-01,1.749930986384874987e-01,2.649886188695232958e-01
-2.253936485509786813e-01,2.465168320615475916e-01,3.272471501967085805e-01
1.373608776854511049e-01,-1.435114893811662573e-01,-2.022165129478726286e-01
7.097500831767378227e-02,-7.440647761658816806e-02,-9.302382593913798015e-02
1.177469338957087275e-01,-1.195742838734414198e-01,-2.043941769411194154e-01
-1.526962806419377393e-02,3.703550043218380161e-02,4.201653336545436296e-02
2.055605653821398204e-01,-2.377386763502515876e-01,-3.466640620249145655e-01
8.158899710197378696e-02,-9.376551992868920049e-02,-1.162925832113812369e-01
-1.501263416220197933e-01,1.869445031480577168e-01,2.296595308149923798e-01
-1.262650007416520337e-01,1.317911809768331222e-01,1.946542844268787376e-01
1.505132789396435855e-01,-1.732606753722457094e-01,-2.283347478136034392e-01
3.109705543280233409e-02,-4.368846891359873946e-02,-4.890746368451764220e-02
-1.046692917724576094e-01,1.008517557071269555e-01,1.628410278390440835e-01
5.520386928193053017e-02,-4.844162299639019620e-02,-9.645839632057820467e-02
8.313112591393152003e-04,2.076547641292450161e-02,9.014111600437024752e-03
-1.113764855094604433e-01,7.411042031454677381e-02,1.272436688376530900e-01
2.361242011878983416e-01,-2.369705393686343253e-01,-3.431492805730311790e-01
7.165851044429721872e-02,-7.805962348014533481e-02,-1.168249692130838568e-01
1.968702071413116761e-01,-2.412373028394168284e-01,-3.023546214660598475e-01
-9.223443476790389728e-02,1.201860139113080927e-01,1.474501771430482278e-01
1.820482330787564218e-01,-1.992523029659455935e-01,-2.783472039012890309e-01
-1.423861067452888984e-01,1.653264670685010707e-01,2.216843119322389755e-01
-1.557756252248020667e-01,1.947660112003676003e-01,2.547920769293131604e-01
-5.058505861867628600e-02,8.109330075073138688e-02,9.636889871846113231e-02
8.959193167496941335e-02,-6.755406371790424747e-02,-1.144687642967170821e-01
-4.540672903563054003e-02,6.935507217762465482e-02,8.758941271035022846e-02
1.224953514640941821e-01,-1.454124944520998053e-01,-2.067933840673731594e-01
2.135513947962728032e-01,-2.195333885046273914e-01,-2.995169214984207962e-01
2.148005665825319585e-02,-2.079447316710083052e-02,-3.745157139699072102e-02
-6.384590827741092565e-03,-3.814102346765762142e-03,2.246175798391048580e-03
-2.224283566291235248e-01,2.547902852125487061e-01,3.677721217259203312e-01
-1.621091024905459421e-01,1.667663815241447189e-01,2.616371125177622270e-01
-1.108059589667534650e-01,1.215986015024013572e-01,1.812223612109741810e-01
4.665292430000881826e-03,3.110990631695387081e-03,2.496146890550226746e-02
2.302222872888949612e-01,-2.684365583927816878e-01,-3.632650120618591272e-01
1.154491184182572239e-01,-9.662838290334914426e-02,-1.481305391974917784e-01
1.104065494983508672e-01,-1.065371111798705389e-01,-1.851687455138256444e-01
-9.062064936833105766e-02,9.626088853192830974e-02,1.203667672171455649e-01
-1.698839630567196834e-01,1.852293133691244598e-01,2.690178107871133983e-01
3.657348312810144303e-02,-3.196433255924360090e-02,-3.058090919568379543e-02
-1.002865178789659056e-01,1.056067178401050577e-01,1.440973762183574147e-01
-1.389010297247873227e-01,1.294538206081698173e-01,1.741712653993802429e-01
-1.240393046163878743e-01,1.308110245141835826e-01,2.032899751733358573e-01
-5.291571519389363931e-02,7.444089702209974457e-02,9.754710121911129572e-02
-1.567224404484184319e-01,1.600637000409431687e-01,2.507516713081252013e-01
7.235951266625428868e-02,-6.402594108321522925e-02,-1.087084526002837365e-01
-1.672991929741419748e-01,1.973572707582437746e-01,2.562476169718385655e-01
9.421406896891006133e-02,-1.438293944882535480e-01,-1.919592266960320204e-01
1.505313117047263061e-01,-1.879055792767811983e-01,-2.448406060101814830e-01
-1.339569112802764528e-01,1.683979232080562993e-01,2.304834295515603426e-01
1.501336100903128135e-01,-1.538937152846715506e-01,-2.501593852455506473e-01
-1.365450874321901681e-02,1.456759620841239361e-02,5.005662526462351103e-02
2.197266672282386091e-01,-2.266453975425894718e-01,-3.266564910643414699e-01
8.120206819420050298e-04,1.255566193810986331e-02,2.400301044522517094e-02
1.220412716715381547e-02,-1.147019392542204981e-02,5.242777907961446160e-03
2.272801098669486597e-01,-2.306323527057485279e-01,-3.324326587427668400e-01
1.784493724578136709e-01,-1.896208859854654483e-01,-2.469155328161594942e-01
-4.349058326276302594e-02,7.267976513153812101e-02,1.129056786542981250e-01
-1.325666969897064916e-02,7.703521771889475581e-03,3.329640585344297021e-02
2.145574815809807023e-01,-2.342599278489297943e-01,-3.334073728101356049e-01
1.917164099053549342e-01,-2.223932535330762350e-01,-3.009981410525248147e-01
2.104459320022522562e-02,-8.932015766973356100e-03,-4.502620975671329032e-03
1.173062643950734257e-01,-1.245659519589107506e-01,-2.042001606342796760e-01
2.032515623168650032e-01,-2.231900118075415274e-01,-2.917745612557076651e-01
-2.003986931817519634e-01,2.287514975839074205e-01,3.225396310371493880e-01
8.219014867690313531e-02,-8.284308237263982022e-02,-1.303928670385462174e-01
1.458638075581663099e-02,6.424619800613524598e-03,3.101989167605051024e-04
-1.229378541664704616e-01,9.563497458129696649e-02,1.556437844784195612e-01
-2.589387535926251233e-02,4.389910880028369267e-02,5.146189197880220167e-02
-6.695172134523134921e-02,7.421238650749233112e-02,1.039968023148389459e-01
2.327570293832778234e-02,-3.669866144679036213e-02,-5.190280546234524173e-02
1.518000756600791090e-01,-1.703635502585909844e-01,-2.301351196409671118e-01
2.191231606226416440e-01,-2.530582297369411982e-01,-3.489809192037888197e-01
-6.642854036137514975e-03,-2.030725429837306611e-02,-4.322838744571489387e-03
-1.547217783459168550e-01,1.770152317367185146e-01,2.575626250996255195e-01
-1.690986260727229129e-01,2.259182094154070508e-01,3.044817014788419596e-01
1.592516760379385776e-01,-1.740356840101695279e-01,-2.205590276197056387e-01
3.440621441354866500e-02,-4.366273235055096597e-02,-6.214426696703504588e-02
-1.665392167811410515e-02,2.283585823981103616e-02,2.844666321520985044e-02
-7.537840570831683129e-02,9.198104557762025457e-02,1.013489825975925074e-01
-8.353178984323485212e-02,1.036653722162430014e-01,1.452507441845203584e-01
-1.651436716777285874e-01,1.775365310819091436e-01,2.618168213581975046e-01
-1.952027364041871715e-01,1.958431933694515237e-01,2.810992146062493147e-01
8.901743673941560353e-02,-1.017571846556951931e-01,-1.552511827644902642e-01
-1.404120488474279727e-01,1.610570096706399612e-01,2.360590396687047288e-01
5.751220104607499689e-02,-7.194911715511143058e-02,-6.932006996804782051e-02
2.144589758333582119e-01,-2.430740306478151591e-01,-3.466290526896639856e-01
1.374124175555853280e-03,4.440923879259306255e-03,-4.918303995642366901e-03
-5.696661288001653167e-02,4.123210187990773018e-02,7.543805541756801181e-02
1.259526396425509343e-01,-1.331365372414836934e-01,-1.995174667733097540e-01
-1.817203798672712145e-01,1.741389740821858989e-01,2.581636464874790815e-01
1.401290418617552047e-01,-1.593039099998331265e-01,-2.326339044924475297e-01
-1.132243952614274685e-01,1.069769837258311290e-01,1.769261722142382864e-01
1.288143986791256135e-01,-1.242859725782353569e-01,-1.860619512853768920e-01
-2.029952272264113067e-01,2.348028132261119894e-01,3.354343994305087895e-01
5.317753725941370968e-02,-5.156469111301768132e-02,-7.115624102475284762e-02
-1.864066389049427730e-02,1.686757910722167311e-02,2.239234836032447107e-02
3.823098897562466486e-02,-1.426063952244964982e-02,-4.045151080978180019e-02
-2.098204271279631161e-01,2.229799074249225188e-01,3.259428856846043887e-01
2.169436641528864618e-01,-2.503376549572540188e-01,-3.265915706475844282e-01
-1.785543328501056071e-01,1.856945769427628123e-01,2.771204279547607729e-01
2.160503245873263145e-01,-2.406175346971396733e-01,-3.301305353444426438e-01
6.569366070062436502e-02,-6.787438540669164799e-02,-9.623467624613735172e-02
2.796227031918628939e-02,-3.870451018046933145e-02,-8.451076318569036849e-02
1.486553424387299094e-01,-1.862083458851689355e-01,-2.544116977212376729e-01
1.000511192552656914e-01,-9.455026212518623241e-02,-1.426033933207718485e-01
5.251334661292943878e-02,-8.115496679223552223e-02,-9.858595497323822954e-02
-1.982708872506154241e-01,2.013870706836568547e-01,2.961517929527173187e-01
5.157173046203952088e-02,-6.877663122392595196e-02,-8.038776001022043816e-02
-1.021087641598868584e-01,1.201266175703946393e-01,1.813932467231921530e-01
2.055709652865274906e-01,-2.093935721041230158e-01,-3.224422194799255736e-01
1.366190133368861692e-01,-1.502579598453470666e-01,-2.302965831583779488e-01
-2.147957795529909508e-01,2.427695397856355630e-01,3.281524595047695669e-01
-1.005636191014180475e-01,1.090533309205266171e-01,1.652316769338312841e-01
2.322070663483843111e-01,-2.280802274282580089e-01,-3.531458203697182552e-01
-1.064703121840122058e-01,1.153756900689574677e-01,1.578778667470175645e-01
1.199572880434253835e-01,-1.554111548402219989e-01,-2.173493013975879018e-01
2.166875081984413476e-01,-2.537866966252547707e-01,-3.315603975222355393e-01
1.275502436267387518e-01,-1.296181499881648991e-01,-1.962439836468822807e-01
-1.946233577954016858e-01,1.862846563965169788e-01,2.933608135364081382e-01
-2.603370986105333924e-03,3.950514837114090308e-03,1.830440690167393220e-02
-3.372973100286591475e-02,3.417379998343256231e-02,4.022965189755755427e-02
-1.178865439952760455e-02,-5.219110261519463966e-04,1.598947470169958737e-02
-1.147371087348895285e-01,1.376013337389713764e-01,1.544050269880332116e-01
1.350506811175034572e-01,-1.388977591884398288e-01,-2.090455357810723225e-01
3.431850586647856860e-02,-7.187256653555608443e-02,-7.918333240567773657e-02
1.184020686665648719e-01,-1.497601102519861005e-01,-1.841024989873169815e-01
1.303500530452219863e-01,-1.666390623795784565e-01,-2.237650484760087821e-01
2.002809110172432960e-01,-2.355925461580372915e-01,-3.071899205147963219e-01
1.964918208232212526e-01,-2.168698593263761742e-01,-3.082415672522308969e-01
-1.263200850703491140e-01,1.563770176693621561e-01,2.337706986765022144e-01
2.406029577808179408e-03,1.805673550991294951e-02,1.971398023481859066e-02
1.655967482531721102e-01,-1.610516774060240797e-01,-2.370262540803404760e-01
1.158492952245503554e-01,-1.280009429413559718e-01,-1.919994233855155386e-01
1.379373940090095341e-01,-1.836163828580663904e-01,-2.427639988121639558e-01
4.237573546984819972e-02,-4.367668114900027238e-02,-5.098461708204857917e-02
-2.037731652242001090e-01,2.314139945027234024e-01,3.163172740963761109e-01
1.943974723578554276e-01,-2.199142152238991454e-01,-3.295329721647111687e-01
-1.367933226786492429e-01,1.773855820763721725e-01,2.431587940174730622e-01
-1.528957833981157977e-01,1.608607768190820353e-01,2.294891967226977414e-01
9.495080174616724045e-02,-9.306475196381108761e-02,-1.392666935148574314e-01
3.893924733646206282e-02,-6.365994434633553967e-02,-6.777366557536941560e-02
2.304135641104529952e-01,-2.552421070396120872e-01,-3.525408719149092929e-01
-1.783633119216046226e-01,1.867500241673930028e-01,2.662123460618136539e-01
2.065112593563621646e-01,-2.317190765700182231e-01,-3.261021057958695124e-01
5.835277213221357062e-02,-9.686810856344837961e-02,-1.239141969640120411e-01
-2.393400187517613908e-01,2.463437555058906325e-01,3.740475120078320392e-01
-1.761492127870603330e-01,2.268224445043300619e-01,2.991453221295870546e-01
9.456975489231354837e-02,-1.172173225401524771e-01,-1.692859506401349357e-01
-1.994647818497897462e-01,2.226692980014391698e-01,3.155104418379605646e-01
-1.963033569948713711e-02,-1.054087278143634072e-02,3.272298794040320348e-03
1.928504080801652087e-01,-2.274071611993527531e-01,-3.015717044111030920e-01
1.346097173442220019e-01,-1.581946929322130824e-01,-1.986028299818142495e-01
5.647841266479686206e-02,-6.129920349730678258e-02,-7.823548010820223497e-02
5.394049889544399318e-02,-3.496093350992222210e-02,-5.333063390138517018e-02
-3.798165592034499598e-03,2.173644115986623007e-02,1.135858162314160556e-02
-5.079231458997596899e-02,6.850298699948645376e-02,9.343613493617373977e-02
6.389330047930559531e-02,-1.015384448227541758e-01,-1.081439372817147304e-01
9.426180004575003546e-02,-1.128065002600782823e-01,-1.481304860380355526e-01
-1.485647106187173438e-01,1.612511712430085564e-01,2.259490270640402421e-01
-6.990060246258590626e-02,6.238109258062384671e-02,1.157268962806703716e-01
-2.068972859436902789e-01,2.220273161002711548e-01,3.561294072105171127e-01
-7.055748473881275074e-02,8.730796685777840460e-02,1.088671815092424611e-01
1.229195423238216428e-01,-1.307157573218808433e-01,-1.708477903583718316e-01
2.580231690191908678e-02,-3.085803870794390572e-02,-1.710388610112965890e-02
1.643679231372378591e-01,-1.876985714877766886e-01,-2.570787376118667256e-01
-9.473276392673816992e-02,1.166261058160390218e-01,1.621420355014828452e-01
-5.368422395916370993e-02,7.156363702706233787e-02,6.835638121365555930e-02
2.255615530496753729e-01,-2.640943755099961487e-01,-3.534374742215756759e-01
-1.258230721997441182e-01,1.678157354276697821e-01,1.972959068260300153e-01
1.650909033473126342e-01,-2.234178673818606742e-01,-2.914963987383926702e-01
1.411361338963195433e-01,-1.515280936448268889e-01,-2.172251391549979427e-01
1.487336529032105836e-01,-1.592728012892720701e-01,-2.046304260452303236e-01
-3.238492222679537763e-02,3.365763630125837014e-02,6.523032823079658038e-02
-1.195652995578757316e-01,1.374436756941738724e-01,1.916928637228721422e-01
1.435637442913486883e-01,-1.705719584009853518e-01,-2.292807294695040632e-01
-1.014234029355309541e-01,1.227620733936524849e-01,1.447314853129389733e-01
7.250323248181593516e-02,-9.002569421694425755e-02,-1.313156169334985246e-01
2.023802081783031004e-01,-2.480651748425272973e-01,-3.406253334710574454e-01
1.156881817643573146e-01,-1.626664025564187877e-01,-2.193179081731110591e-01
1.830212516259598077e-01,-2.028428370523872315e-01,-2.826086641242184783e-01
-2.226264317651489577e-01,2.461515292125214249e-01,3.289865026859737918e-01
-9.990968901300105454e-02,9.049309741204920876e-02,1.148200983929763552e-01
-1.490263396729678558e-01,1.783609191372401703e-01,2.456396029326456953e-01
3.457666282590644152e-02,-2.635178898168063708e-02,-2.333501053181259374e-02
-1.615127897320293993e-01,1.860535101042334327e-01,2.440927553215688217e-01
-6.060697424691587759e-02,5.460536533044418189e-02,6.964456608555295858e-02
-1.546131672552311931e-01,1.597040337263606891e-01,2.396030761971364442e-01
1.020337289961159716e-01,-1.019743603811992666e-01,-1.717805410527548371e-01
1.227646886906781643e-01,-1.212535770683356717e-01,-1.743712221131221429e-01
3.678476431077700587e-02,-3.312240595921558256e-02,-3.886645396696828542e-02
8.574045736996424583e-02,-9.908861835039325938e-02,-1.377748337984622262e-01
-1.565662199568876034e-01,1.903697974555257633e-01,2.613789796001945165e-01
2.017997924507302365e-01,-2.308232584452897529e-01,-3.235360406203889316e-01
4.649286975416428574e-02,-7.443555341506075118e-02,-8.418784104138085644e-02
1.388613620136760485e-01,-1.259397878363021361e-01,-1.854482139230840265e-01
2.204101599332308203e-01,-2.368743191456905983e-01,-3.221465368088034520e-01
-5.721654571777306554e-03,7.337063044315447584e-03,-8.731345232944595419e-04
-8.816788211360224170e-02,9.535801325171501530e-02,1.549643122874354573e-01
-1.762705598126932394e-01,2.004552907961091313e-01,2.819331069315456628e-01
1.535310269853936427e-01,-1.375380511548361662e-01,-2.208164817384147272e-01
-1.924771332186485107e-01,1.752723886774684436e-01,2.705445662445192800e-01
-1.728012278085374331e-01,1.713971921810771015e-01,2.414912455261682134e-01
1.143379146140418579e-01,-1.296127801285086589e-01,-1.694276051838097819e-01
1.243350017622984610e-01,-1.496883408283756212e-01,-2.044785668325265482e-01
-5.781969277200631196e-02,5.905172818183420519e-02,9.504513651314594469e-02
-1.188990222481231540e-01,1.454620052123295482e-01,1.960720122535080656e-01
-2.032310580905718755e-01,2.205401364437147849e-01,2.962641477069871132e-01
1.011721426683368230e-01,-1.048946675807274215e-01,-1.219850850639144363e-01
2.349121987546743118e-01,-2.246938605414147139e-01,-3.432270570871253090e-01
1.937130585179738518e-01,-2.274527918450883479e-01,-3.168013484751353026e-01
7.665540434114481716e-02,-6.606791510112546006e-02,-1.342277203490881143e-01
-5.610834740581770695e-03,1.895721975105956261e-02,-2.380654809773861090e-03
1.539823608189885562e-01,-1.762027296745476979e-01,-2.537242015190643851e-01
