-8.586621305374711466e-02,1.040931525141359018e-02,3.279531987599499515e-02
1.024083707249491410e-01,6.058073887059260438e-04,-4.339439098654850752e-02
-1.774082304484756734e-01,-3.998238932787785693e-02,8.153826503861884289e-02
-4.174887565045793947e-01,-4.743747296327018720e-02,2.355345084469378236e-01
1.182328653652067740e-01,2.996453145009226899e-03,-6.652966689906010533e-02
-1.493227468656799783e-01,-8.062799724174821506e-03,8.154670256995366628e-02
4.008313812793791731e-01,4.716382139468912327e-02,-2.134916412691887089e-01
9.895375845001979937e-04,-8.317211714958614582e-03,2.203247776154010351e-02
4.029005461892942175e-01,6.849317959410324008e-02,-2.128812810572836278e-01
-2.232259875761619106e-01,-1.582257420208547233e-02,1.325112620024995191e-01
3.022158758664520439e-01,3.416183054284704923e-02,-1.687780018554281003e-01
3.608240271027379764e-01,4.590456403908738797e-02,-1.906676597376426308e-01
-3.109014611663279415e-01,-3.497316311333150546e-02,1.660860424045441652e-01
3.849441946834705752e-01,4.210631015455529313e-02,-1.997247936220069853e-01
-3.456882727595061988e-01,-3.920999968407969105e-02,1.768801654809535329e-01
2.919836665305488022e-01,5.668038076676167047e-02,-1.603071897646984323e-01
-2.346120718895599866e-01,-3.879005153009668083e-02,1.141861841515241366e-01
-2.038230312237793163e-01,-3.441146724425389603e-02,9.727447061303369502e-02
-4.240528326976448770e-01,-4.352641460835832837e-02,2.270106054140135221e-01
4.086872342231296362e-01,4.738246549589246459e-02,-2.114394684112748390e-01
1.593994354817533932e-01,3.257368316603176384e-02,-9.928203989389682016e-02
-8.961934864165449488e-02,-5.567837519366971915e-04,4.954458582917330850e-02
-5.537270727572209811e-02,5.244224365494933385e-03,3.258640224691859710e-02
3.515993147724394419e-02,7.582476346672445411e-03,-3.864195157395473174e-02
-3.217274346893117531e-01,-3.421034681966021729e-02,1.748010483776477331e-01
-1.845090420901857875e-01,-5.087840115911197898e-03,9.949500730477664479e-02
3.020370597734305385e-01,3.940064977238388888e-02,-1.478138690399954103e-01
-3.366302640465289597e-01,-4.567906235481195704e-02,1.897324960605617783e-01
-2.878293897851607053e-01,-2.561506143082237230e-02,1.649738794260161845e-01
2.756068676235223225e-01,3.584694331602737011e-02,-1.434335061269288447e-01
-7.597477470028062008e-02,-8.146132243382646007e-03,3.950164475955535159e-02
9.953754860660672665e-02,1.392690002224898117e-02,-6.859957688893129901e-02
-3.226078153442172303e-01,-3.625715178236766506e-02,1.839371845420380569e-01
-3.338591000741595316e-01,-2.543416115848193271e-02,1.847851554694730225e-01
1.279532226928875582e-01,2.106982525264586986e-02,-6.902075254227653389e-02
-4.280315289463409445e-01,-4.620716948493618775e-02,2.228575990016060659e-01
1.754104851931881925e-01,2.583748946324262302e-02,-1.273946388413734476e-01
3.927892619467217572e-01,3.935017409425514701e-02,-1.980797696999185842e-01
-7.566589780478059912e-02,-1.115119934512333148e-02,5.166430240282311043e-02
4.099917680640162709e-01,4.065568862363399399e-02,-2.586027211508419854e-01
2.022767154621278596e-01,2.529207079797508861e-02,-1.271866488882791579e-01
2.053774572145367905e-01,1.545549046434947955e-02,-1.172534223613763277e-01
-3.207782041754422830e-01,-2.688795398458368111e-02,1.793406951851669318e-01
7.028064539482262174e-02,2.203928466855709090e-02,-4.245694135752926812e-02
-3.306615638669530011e-01,-3.905525623195676282e-02,1.794212916264395219e-01
7.783663332625236075e-02,1.180316449329892221e-02,-4.623866689592655982e-02
3.741768843435220315e-01,4.324612483627258280e-02,-2.223286352945078315e-01
-3.909128350368601956e-01,-6.128096335688119206e-02,2.394580278439216448e-01
-2.891943982774648481e-01,-3.760289444938411108e-02,1.675984142708236424e-01
-1.299559352034635740e-01,-2.926868146520514476e-03,6.936332431601135995e-02
4.029385107976912184e-01,3.603235909244929813e-02,-2.266636556333748997e-01
4.445857929545939460e-03,5.576875861756657587e-03,-6.239891827656082572e-03
3.229036974268360005e-01,3.390963567696426983e-02,-1.781436163722849297e-01
3.334597618108979256e-01,2.560984579573886283e-02,-1.934970483058924551e-01
6.926902619556441279e-03,-2.245581184655294927e-03,6.346408370003935907e-03
-1.991147067997890707e-01,-1.500464267792278247e-02,1.078024932457951196e-01
-2.604759343555047568e-01,-1.495731332500969610e-02,1.332842059960350767e-01
1.387309579377216107e-01,2.982118232088741550e-02,-7.914690284991909852e-02
3.486556836406093929e-01,4.920734535371745766e-02,-1.900814119010354741e-01
-1.635339235635499544e-01,-1.952380578496726304e-02,8.239618167158802020e-02
-2.202168735986550496e-01,-3.447917440430606217e-02,1.377311575919581421e-01
-9.545047051050355169e-02,-1.304819739902147654e-02,4.584687758271629998e-02
-3.568995296867626954e-01,-3.939252072683383649e-02,1.860407378861382022e-01
-1.863735942323346551e-01,-3.318562415667324766e-02,1.172497813272380951e-01
1.156551932497275163e-02,-4.021781189244010533e-03,-1.151982984280131711e-02
-9.922732552631598549e-03,2.336218653309403252e-03,6.266705963474386229e-03
6.071689222017168791e-02,2.545943238684268695e-02,-2.224296633574967402e-02
2.078042743611661636e-01,8.672846679310232745e-03,-1.116369756729356788e-01
-1.685710620261019199e-01,-1.210242440167408340e-02,8.486463139921168741e-02
-3.794938252719856631e-02,3.715480402961129913e-03,2.383136518971734272e-02
2.177155657462517546e-01,2.137101284437306278e-02,-1.081865852301634456e-01
6.035139802047707197e-02,3.803670446748853504e-03,-4.193823028647544054e-02
-1.296878514574495989e-01,-1.596609587998524746e-02,4.093063107146385077e-02
-1.435584395298149518e-01,-3.221321051641022615e-02,8.064342787912134880e-02
-1.468747294034761508e-01,-2.571183127653303702e-02,7.937353290092992453e-02
2.035156545726742594e-01,3.932520495596283222e-02,-9.295114642634602631e-02
3.468886610512080804e-01,3.071231652764960449e-02,-1.687053953514934534e-01
-7.032848035033864575e-02,-1.195691468742079988e-02,4.077671982833801917e-02
-3.753432501239337138e-01,-4.468270697125837493e-02,2.201611612597550727e-01
2.516825106608157059e-01,3.814208129694003635e-02,-1.352645847076747454e-01
-1.788763820314153985e-01,-2.649063397469461276e-02,9.101533705597338042e-02
3.252259640639719174e-01,3.278382388728067615e-02,-1.775331815718792228e-01
-3.331860009186735083e-01,-3.198383147075149063e-02,1.832119729788611873e-01
-3.284031520133678939e-01,-3.696088484058533685e-02,1.933619151500934052e-01
3.263932624449785158e-01,4.912919686102579925e-02,-1.754395488458267149e-01
2.991854006777142083e-02,-1.331502488238670012e-02,-1.569666687647344391e-02
4.276481142482876363e-01,3.944645182170334469e-02,-2.123853700687469148e-01
3.225482573093909622e-01,4.540137619014872339e-02,-1.724526004197290963e-01
-2.653760742737414358e-01,-3.381218478437686414e-02,1.431956937269246721e-01
1.856790921143497974e-01,1.355136922291742471e-02,-1.006584733571484064e-01
-8.226368521086108165e-02,-2.454017270774897994e-02,3.721708884505497278e-02
1.148031503654775298e-01,2.435886975920055486e-02,-5.663091328207844888e-02
3.356962351175383358e-02,5.673202085953401100e-03,-1.216507065222282614e-02
1.626357611020693983e-01,9.622047569215929491e-03,-9.865911894524606596e-02
-3.394818402676118563e-01,-5.094220683643603531e-02,1.832699909900242785e-01
2.661756798184664041e-01,4.934590973686230064e-02,-1.725674202450209471e-01
-3.035342615856151949e-01,-3.465272310825811414e-02,1.835735640227420529e-01
2.571559702370304623e-01,8.706435728372386926e-03,-1.380184670628978316e-01
-1.612859240265049343e-01,-3.260546692912322242e-02,7.530365642027159190e-02
1.000600372779401476e-01,3.382049140211792516e-03,-7.465602375885370401e-02
-2.117775444474244706e-01,-3.427703320120500941e-02,1.212509877673148967e-01
1.365935976631633096e-02,8.364856198135523987e-03,8.480666364614836139e-03
-1.395671259930766073e-01,-3.183477202361004350e-03,8.711444882794304456e-02
-2.871564071339237079e-01,-1.988073967565653216e-02,1.636916730687147659e-01
-4.035400224075544884e-01,-3.755768325395727331e-02,2.281390485117731903e-01
-4.448506353627012522e-01,-4.659998308121791194e-02,2.218544993261181708e-01
-4.202739859337579209e-01,-6.351725006769982917e-02,2.589735497787046259e-01
-3.185739601414085131e-02,-1.130047284031785587e-02,3.455423939485865320e-02
3.552623932096605208e-01,5.071137986322323682e-02,-1.839908814538557258e-01
3.573088806241780935e-01,6.415571054025302755e-02,-2.097892288321290266e-01
1.736384089629863792e-01,2.315865012230215736e-02,-9.917327957879018552e-02
-1.102751879556743142e-02,1.081650680328122369e-03,-1.442028221060470423e-03
-1.424966445196225173e-01,-3.075832293043002236e-02,7.671484582114594664e-02
1.541413620374714744e-01,7.646420917414270546e-03,-9.230839116605928096e-02
-2.233691854183037784e-01,-2.068818123880302243e-02,1.103698976550119837e-01
-2.965940370964195716e-01,-3.250457098517671450e-02,1.549682887282275157e-01
-1.966399905122341030e-01,-2.180777214673675427e-02,1.111241598288952165e-01
6.221550658044115029e-02,7.470575453113278801e-03,-3.720593836492352285e-02
8.935956189037164155e-02,1.614231098518946732e-03,-4.960283306005483506e-02
-1.698203284654548895e-01,-2.387868747412042608e-02,1.024266347000592908e-01
3.367007678066406551e-01,4.677588547765667432e-02,-1.746181796236806194e-01
-1.879327853053186781e-01,-5.610512475295538828e-03,8.867296584622134936e-02
4.080636403402913004e-01,2.329020786455859165e-02,-2.382952255484153681e-01
-1.418227000607837907e-01,-7.696353058438628464e-03,6.741165278984841136e-02
-3.023935955438928902e-01,-2.949296779344747280e-02,1.502742483007700469e-01
-1.324559829885653683e-01,-2.899688576067198029e-02,5.904605422177361396e-02
2.397384301139043605e-01,1.420673632541482809e-02,-1.381379188479143760e-01
2.211334183999643654e-01,3.569662268093415358e-02,-1.270803420516810611e-01
-2.355187044870079294e-01,-4.038032550356016742e-02,1.559559701590066960e-01
5.608507877784823376e-02,1.383228747044031384e-02,-2.005684714825088991e-02
-1.090164472051479982e-01,-1.005690075850450629e-02,4.713194808319905171e-02
3.486905260775479132e-01,3.607455714368616728e-02,-1.922247193321624803e-01
8.347635142268731989e-02,1.078580485380542346e-02,-5.131195202941458283e-02
-1.121307713945806778e-01,-1.440259839542504250e-02,4.942702150229673352e-02
1.705382082029268109e-01,1.340199076783269751e-02,-9.143599258638784866e-02
1.994675908646357243e-01,1.925706673371168492e-02,-1.020620445715013230e-01
-3.415971528676922664e-01,-3.382870826132176878e-02,1.666311383016651770e-01
2.272887482377582424e-01,5.166508994286293788e-02,-1.222648750846664772e-01
8.397970980711887135e-02,2.053743975123151211e-02,-5.607709940811627519e-02
3.515765700688777140e-01,5.911837106454093105e-02,-1.754289588846499603e-01
1.424953116298578459e-01,2.882393461876094423e-02,-7.420502191603413344e-02
8.969129273613742070e-02,1.687998617887978862e-03,-6.027075082977950693e-02
1.669497218156949236e-01,1.622956996815689418e-02,-8.704866371678676717e-02
-2.710051739845352747e-01,-2.825118284145559239e-02,1.516433722563476638e-01
-5.375370234909186695e-02,-1.466590437290102820e-03,2.034922928969482708e-02
-3.998032157423359045e-02,-1.353222974123597516e-02,1.639555543573961022e-02
-3.638571199361335107e-01,-5.310638764469484407e-02,2.030513083181379186e-01
2.820531293577702714e-01,2.144186282600333768e-02,-1.684559106736446821e-01
-2.992398243273012293e-01,-4.856608957961339179e-02,1.600203569758750777e-01
1.109904685959972465e-01,1.364801141055956013e-02,-4.843138912793285011e-02
-3.410918376933784191e-01,-4.950124070979323998e-02,1.787742555708041192e-01
1.444630777522695015e-03,6.249115247195244707e-03,-1.778984240166093383e-02
-3.424880313627220452e-01,-5.038227824280483436e-02,1.756639205943256732e-01
3.703287248329752979e-01,4.098294852672197675e-02,-1.947395370361633404e-01
-3.909915149464312512e-01,-5.626934438204631711e-02,2.073619708104702530e-01
-2.210581103457691654e-01,-3.935407868569845008e-02,1.123780917199935780e-01
-2.346083252209835157e-01,-1.329080722962942655e-02,1.474035707934840123e-01
-4.258727707005655061e-01,-5.766705482267381333e-02,2.387769788311389918e-01
-1.364819017573535020e-01,-2.372634070609614190e-02,7.164374144779059317e-02
-1.861658451413647497e-01,-1.076344584847390047e-02,9.733345453439291861e-02
3.556988134301179022e-02,-1.128046510401824881e-02,-5.994997556759564840e-03
2.656210338335115995e-01,2.998008411066997725e-02,-1.462270142051564914e-01
-2.108088594976079144e-01,-3.347826861152262967e-02,1.222728757958892742e-01
-2.103210126363885546e-01,-4.188901901075033074e-02,1.071808384796016506e-01
-1.901032537655844845e-01,-7.856173710344518599e-03,8.947397588446837080e-02
4.267915890473479301e-01,3.931975577556490881e-02,-2.281963118066187013e-01
-2.178587593129576172e-01,-1.826723488466185791e-02,8.412977499658272351e-02
-6.310768546327857886e-02,-1.926556508416807367e-02,3.361202229280229464e-02
-3.309423093070323896e-02,-1.291558079277070788e-02,8.853866317774128358e-03
1.271182093673449975e-01,1.110652711355762830e-02,-6.203184595122960415e-02
-3.094506020637573518e-01,-3.203283576589144310e-02,1.736698171615526920e-01
2.177810833585542075e-02,2.409186987261781668e-04,-1.420604184526308086e-02
-2.391832661404701688e-01,-3.708874357052320547e-02,1.230484743406860815e-01
-2.190379192385662199e-01,-3.258719032466825954e-02,1.319752020873702081e-01
2.485249628269849409e-01,2.561740985517952165e-02,-1.375286932733441048e-01
1.715844288231565748e-02,8.058063783491536264e-03,8.183058594452539275e-03
3.690553893882818071e-01,3.642402645325477917e-02,-2.043386546960227756e-01
2.980898993198560776e-01,3.807338598019519710e-02,-1.712252861201935261e-01
-3.097926391197866614e-01,-3.845680601773585755e-02,1.801126082106711546e-01
-1.236628828312171108e-01,-8.536678252777405579e-03,6.875252061334767573e-02
3.545937935272512331e-01,2.580576933520271204e-02,-2.150451370758664771e-01
-2.163220007674284198e-02,-3.941923370109726675e-03,1.041820637608418913e-02
-3.336611198834129599e-01,-3.329944508690943494e-02,1.639105957322966323e-01
-1.747530117052600862e-01,-3.053780165064119787e-03,9.947637077811048723e-02
-5.081531466170235295e-02,1.767551979807139781e-02,3.038277761535196700e-02
4.329704004751262769e-02,1.142815493238819036e-02,-3.600301139848684912e-02
-1.822313988384667294e-01,-2.322245070942230080e-02,1.172385944858577167e-01
4.938536551304673755e-02,-7.950281070258320010e-03,-3.130018869539188953e-02
-4.150894040623620551e-02,-1.048698662751593180e-02,3.257652327736169917e-02
-2.247402135886464314e-01,-2.216790391286369011e-02,1.132918285971241390e-01
3.278259543563191714e-01,4.565808489561343220e-02,-1.899786261157286327e-01
-2.536239829692880088e-01,-3.679745973443845214e-02,1.405664475469738939e-01
-1.914683511332826438e-02,2.157548567481192697e-03,-2.691697310735317959e-03
-1.377546065191297964e-01,-2.867381599894788108e-02,7.893001656672189725e-02
-2.352878033352564027e-02,-3.176086614062361563e-03,1.677577336614006001e-02
2.214383826500599117e-01,4.319801933296605473e-02,-1.392476685357900978e-01
3.093843171713536178e-01,3.900404981335477833e-02,-1.784629470080733027e-01
3.839401025434225900e-01,4.780815698059008578e-02,-2.274441919355452701e-01
-4.194697461569444341e-01,-4.594443173466323388e-02,2.259210763887959939e-01
-3.173901309145314986e-01,-4.208367490798833876e-02,1.795619421546071348e-01
-4.484200859098750325e-01,-5.695287503269773344e-02,2.424081481014890571e-01
2.940683439032910906e-02,1.368467423319715513e-02,-1.072621469739441953e-02
-4.109143094939032848e-01,-5.100963742516546884e-02,2.372006374116862881e-01
-2.373305334169779068e-01,-4.180295548062137184e-02,1.154281497933109663e-01
-1.794545478282514872e-01,-2.711643581064101735e-02,8.921512503463226162e-02
2.103009120140308108e-01,2.999687550866960914e-02,-1.079715417084615575e-01
4.593087537527183739e-02,5.290366413288933797e-03,-3.466064276930343191e-02
4.877797458178355361e-02,1.998821033254682619e-02,-1.407183598320938846e-02
1.056686046009850943e-01,1.667986546743429818e-02,-7.349696703019306665e-02
-5.322857149902444213e-02,-6.705287769663697238e-03,8.203883556782056580e-03
-3.189422115101510080e-01,-3.250890300377427822e-02,1.884499904380218804e-01
-2.572166912993010396e-02,4.478815969544616173e-03,2.369059904797268801e-02
-4.840120929674846667e-02,-6.903522478918399340e-03,1.678160437258850030e-02
-2.145947358841562291e-01,-1.406284982002352531e-02,1.140120614234156060e-01
-1.361326583747631824e-01,-1.620637228691338208e-02,7.537701353787965020e-02
-1.287192926992551945e-01,-1.489749770663978574e-02,6.156810932038612322e-02
-3.931359091057400751e-02,-3.748901497837458553e-03,1.526286605901763620e-02
-1.910158700976931079e-01,-1.720849035190791243e-02,9.854350781818899119e-02
1.766771638345367990e-01,1.248269654809948739e-02,-1.033814474539308109e-01
-1.870214696805446442e-01,-3.650890611165557784e-03,1.159158696004171235e-01
-2.410902833124115019e-02,1.751252071240021538e-02,8.169993737978642132e-03
-1.333027891664106956e-01,-1.268716689415798002e-02,6.942283929267645259e-02
1.088609933609311631e-01,1.870123440939046658e-02,-6.079949241598147508e-02
3.111413746118291690e-01,3.328688034921537670e-02,-1.733139241046429968e-01
-2.729275264593924999e-01,-2.219586881111157081e-02,1.458465566478237829e-01
-3.910882253992287172e-01,-3.203912856579224644e-02,2.067574415370189989e-01
-2.518417568913119964e-01,-3.014877838436635232e-02,1.444192843327311848e-01
2.524199448774226417e-01,1.804578050030198125e-02,-1.379426567637597745e-01
5.940015956416391796e-02,1.757637367778741317e-03,-1.921025838741836217e-02
2.498172888929074340e-02,-2.529091448353758872e-03,-1.527519489449246336e-02
1.575784024576715181e-01,1.052387742068490971e-02,-7.364470687773098934e-02
-2.147594541789230038e-01,-2.192646600966816420e-02,1.136501749011243761e-01
-1.683150288149763141e-01,-4.879904596152393609e-02,9.174408618052626307e-02
3.683527309058832189e-01,5.438617317850238247e-02,-2.073190922654477852e-01
3.828375043510787168e-01,3.492128069266958040e-02,-2.060364759644767729e-01
-9.554232920313039668e-02,-1.562086006424220387e-02,5.823337762550643421e-02
1.336236882470782650e-01,8.512059121549222715e-03,-6.958699578002498776e-02
-2.883062660004071520e-01,-3.434890620361072400e-02,1.537343494648396314e-01
-3.620906245146605640e-01,-4.700490927203997138e-02,1.975359286667237035e-01
-2.609826051706644612e-01,-2.249414535576875485e-02,1.357313177994666498e-01
3.144934839070715471e-01,3.042438989206718361e-02,-1.786441210805979896e-01
8.466141205720129070e-02,-5.065850256455932225e-03,-2.759370671021903892e-02
-1.826783052181438563e-02,-5.564140004782457821e-03,2.433198107721281506e-02
-1.992398800880386955e-01,-1.962052371400024864e-02,1.026450226090075551e-01
-3.119244291294068216e-01,-4.264430880592824658e-02,1.848023666862515790e-01
8.721058145181814769e-02,2.295159871023072506e-02,-3.995884716554843480e-02
1.909503395212129584e-01,4.529168764721155926e-02,-9.665352204110516654e-02
2.050284788750229847e-01,3.253547849813176462e-02,-1.264194233917717292e-01
2.455555561054734992e-01,2.458668782192708485e-02,-1.280616145914858506e-01
1.947257928634239799e-01,4.148730059588678909e-02,-1.077769285384834047e-01
-2.860152994989436648e-01,-9.919362225381025619e-03,1.652070131413456711e-01
-3.783850237389793647e-03,1.731979421808660293e-03,2.164288050014515769e-02
2.946804439721351643e-01,5.351182565242252470e-02,-1.725817013056116234e-01
1.102977627377837166e-01,1.467288928074751871e-02,-5.574419193290607727e-02
-2.779958178632934152e-01,-3.097445379802022183e-02,1.603721250237670759e-01
-3.317390944777183215e-01,-3.557478009265898494e-02,1.774273140369244939e-01
-6.271044190303090571e-02,-8.202226993850137565e-03,2.156286694980368013e-02
2.100332917267486998e-01,3.146458985472443820e-02,-1.146607581916554708e-01
3.603067121594428213e-01,2.723024078772540504e-02,-1.875993692488229780e-01
9.394169104778055113e-02,1.098827596422531812e-02,-3.362681745599616773e-02
2.277309160494276619e-01,3.522266834750982512e-02,-1.186072330779147782e-01
9.517260311373834658e-02,1.565722300598135913e-02,-6.762132219472566375e-02
2.808727585434221963e-01,3.244298501471646473e-02,-1.543562421925588346e-01
2.029393481744547201e-01,2.177068379581508298e-02,-1.149150844470269162e-01
1.333738053387457934e-01,2.743866564647492665e-02,-7.514865282997207352e-02
2.026036162003246877e-01,1.443052366704964881e-02,-1.155555854947989958e-01
-3.506399976882369485e-01,-4.865848838807190768e-02,1.880058053818031982e-01
1.580452064376934584e-01,1.158930571027574040e-02,-9.822393596956620343e-02
-3.620895157724927649e-01,-3.552085158270598675e-02,2.011985094583124134e-01
-1.274959442528730280e-01,-1.354806304319439506e-02,7.395258432313400743e-02
1.879425322244876184e-01,8.757295450737308598e-03,-8.527699298422770913e-02
1.902860396869484327e-01,2.271668404175486086e-02,-9.028700078456350364e-02
-1.863773007352376443e-01,-4.478996197248961975e-02,1.199166321096978849e-01
3.157925130523245860e-01,2.832067504844867564e-02,-1.525409807392689721e-01
-1.174342397214299116e-01,-2.401467412920747779e-02,6.640035810782819736e-02
-4.093328175442596112e-02,-2.481862415325783791e-02,4.291270838002520654e-02
-3.338748314712519649e-01,-4.389803335044641791e-02,1.953058500227984051e-01
7.698318835788298120e-02,2.789092201618693229e-02,-4.883172881154659861e-02
-4.875345354202789694e-02,2.819962664239018899e-03,2.725905138474428099e-02
2.867775046388574833e-01,4.858174029066372052e-02,-1.746063945134850026e-01
-3.185187790759246851e-01,-3.376853032267625176e-02,1.840293674331407170e-01
3.614976099485312511e-01,5.450467531442806934e-02,-2.088008569540709680e-01
-1.216049920639890175e-01,-6.510505149628486449e-03,8.377467271406068006e-02
-1.419039037151413607e-01,-2.581035956871723450e-02,7.502381828102012984e-02
4.418836131727842120e-02,-1.609289084587208407e-03,2.604191789170138584e-03
3.779426729673977525e-01,6.269059597383412619e-02,-2.167919805018277413e-01
3.734320452073502383e-01,5.613841307138740105e-02,-2.094547115365291978e-01
-1.552722016097295987e-01,-4.275865822371082564e-02,7.331870464776066298e-02
3.073694281468062339e-01,2.606723848504863619e-02,-1.687860284290081114e-01
-1.204862286610872135e-01,-5.450927811084531512e-03,8.269134628163600509e-02
2.608799581340359025e-02,1.514325255770811521e-02,-1.623418185204691944e-02
-4.210171366799007053e-01,-4.809164482327227957e-02,2.293248862957285861e-01
-2.687457797964592499e-01,-2.522275072885065209e-02,1.563088761982014963e-01
-3.535451549842965058e-01,-5.653271815598547023e-02,2.053748644957445468e-01
3.564178316868503449e-02,1.032419226041597984e-02,-2.287171147968962426e-02
-2.709788575352402029e-01,-2.846209269155912727e-02,1.316785297510519315e-01
-1.071572615681007923e-01,-1.071340220373311449e-03,5.931811529324634846e-02
-8.592246125564259596e-02,-7.110887047784696102e-03,4.607047202848846973e-02
1.784132048395582759e-02,4.657628574395933840e-04,-1.063057532238626327e-02
-6.658896446946745151e-02,7.382102889275726602e-03,5.948716278804819235e-02
-3.706428250361084031e-01,-4.499883091581956956e-02,1.973943474486446192e-01
-2.054099028858031306e-01,-1.595465074665366328e-02,1.045924741218556275e-01
-1.509020118491745388e-01,-1.611810159427615186e-02,8.339296440350243977e-02
2.468540967974643396e-01,1.708908730746245760e-02,-1.480887245472586877e-01
3.765037687181881365e-01,3.554528179276284644e-02,-2.018385823283192493e-01
-3.259483753949699025e-01,-1.269090170960946763e-02,1.677744461735547199e-01
8.288421257584055457e-02,-8.202967106191181093e-03,-6.056990189679715975e-02
2.376497904308711162e-01,2.667287012254891676e-02,-1.389832746413897646e-01
-3.620996393658160173e-01,-2.329952646177983755e-02,1.970325181353284050e-01
-1.172740092098005366e-01,-2.079215832880192821e-02,7.533706157085115485e-02
-3.602386768790463711e-01,-3.586601061831194009e-02,1.914780529062395931e-01
1.213085747799074465e-01,2.118833656335270942e-04,-6.900031160504215000e-02
7.009180977149481739e-02,-2.669126194972427923e-04,-2.298384986043811723e-02
2.552871698061853212e-01,1.907908191883381233e-02,-1.336606404298738837e-01
-3.029249084182289997e-01,-4.730199095830105865e-02,1.591064298682353662e-01
-4.103231360222722723e-01,-5.370992893299471327e-02,2.155711226198757380e-01
1.013397220554261569e-01,-6.446863846764042290e-03,-8.729047082851519590e-02
-2.285441739021088214e-01,-3.673571068865571360e-02,1.334095894355076251e-01
-3.539258788802595035e-01,-4.783809426759404876e-02,1.979845415009342524e-01
4.256135105573678468e-01,5.018348642778427265e-02,-2.175130897186842993e-01
4.129997813068101431e-01,6.399926417203326279e-02,-2.395751464044513224e-01
-9.995631210324604221e-02,-1.023707889102837276e-02,8.251236605051423534e-02
-8.098066573461545903e-02,-6.006029837012799751e-03,5.645238422302053388e-02
-1.373339963500476713e-01,-8.273543774508781284e-03,6.408054092565243498e-02
-3.928262992797198483e-01,-4.623563363196440262e-02,2.241085953001356046e-01
-1.225621817482473730e-01,9.304646490384690938e-03,7.689988792616372915e-02
-3.392329339835644664e-01,-4.482066153028970573e-02,1.944366240834476678e-01
-6.536261537830858649e-03,-2.105026218529509191e-02,2.032443304467079770e-02
2.868199643398102183e-01,1.977965888037077832e-02,-1.745275734704466730e-01
-4.252082456197652793e-01,-3.841961764854794070e-02,2.404772600041176767e-01
4.244953311894035797e-01,3.633357326754332872e-02,-2.468161450530248491e-01
-2.497813059464877028e-01,-2.785109949460993703e-02,1.540196865576911600e-01
-2.584583683941365506e-01,-4.003682597967225115e-02,1.547904407652312686e-01
4.982114525548576173e-02,3.231837393206005160e-02,-2.286056428224914061e-02
3.580937610973732865e-01,5.190334360189786944e-02,-1.846176510052650044e-01
-1.112238860487933662e-01,-2.560926830321792400e-02,6.025989913831645423e-02
-3.112764838156732439e-01,-3.320345520564884495e-02,1.750759470467350143e-01
1.955278592965035978e-01,3.364826048738633196e-02,-1.244447371585171436e-01
2.575535457935312911e-01,2.335575546671777789e-02,-1.182620794528358305e-01
-2.026089269687225414e-01,-2.123021445157354317e-02,1.133063695958596573e-01
-2.252008614712734946e-01,-2.911020024809199760e-02,1.159947033534908523e-01
7.987228219373899984e-03,-9.889129948496896017e-04,-4.978575457479949597e-03
-1.552747996279709719e-01,-2.582592862189750718e-02,9.800435524023819178e-02
1.736466214741576031e-01,2.063580187187596948e-02,-1.051462397347417144e-01
-2.294706506172116411e-01,-2.909140790217677741e-02,1.263441428576569381e-01
1.109868898137885002e-01,1.036468690596004105e-02,-7.941164266711703279e-02
1.958255986006406379e-01,2.668434513974181008e-02,-1.019834785617908385e-01
3.453885504801781359e-01,2.969746710940677006e-02,-1.854817508573689266e-01
-3.418978046284261163e-01,-3.337401678991108039e-02,1.679300057712605210e-01
1.355886508154905412e-01,1.150373674292056239e-02,-7.163291077677985674e-02
2.198874672562229071e-01,3.488036480721522226e-02,-1.188675129056795260e-01
-3.360638586578222342e-01,-3.118560348560943385e-02,1.781731874005003657e-01
-3.821961746513196090e-01,-3.700663718062963126e-02,1.828328288901770182e-01
-4.139741851257068284e-01,-4.017586661920129892e-02,2.339772119937141015e-01
-1.452728262162103490e-01,-1.345006116979450585e-02,6.700063485316426481e-02
3.982092920596872476e-01,5.425696702698559054e-02,-2.242299399485731815e-01
3.923443987389549359e-01,4.220894279919020636e-02,-2.271481002145973316e-01
-8.344734686668253687e-02,4.915839732098174590e-03,3.080677139296338074e-02
-4.259679376963130260e-01,-4.674453830045650904e-02,2.422776642707270833e-01
-2.613846044709938754e-01,-3.645424856907397010e-02,1.501899994746629385e-01
7.636835822455971534e-02,-7.502096926895479405e-03,-4.138792630748932416e-02
-2.348610592289157861e-01,-3.101552909449512702e-02,1.408572933095253443e-01
-4.091420923879530991e-02,-6.782449213297290710e-03,2.213448919155287103e-02
-3.080324080232522133e-01,-2.572595593541434841e-02,1.610860108987915429e-01
-3.409033887268736462e-01,-4.457888498520604093e-02,1.753458382013733663e-01
-1.121854654248957972e-01,5.850711189878254372e-03,6.231420647942345625e-02
5.671692311215129068e-02,-2.093451839918708882e-02,-1.417432978374883086e-02
-8.810942014368389197e-02,-7.121910351312679861e-03,5.342041263120988343e-02
-7.871113743159494081e-02,-2.720494624824915456e-02,5.713835219296634071e-02
-7.394949315521179289e-02,-2.522960954708214701e-02,3.763144332736658576e-02
1.642899678702355870e-01,4.079229061894121960e-03,-9.041730131736464005e-02
3.748386066570185693e-01,3.198202019640704330e-02,-1.894429004658068072e-01
3.414201350199796425e-01,4.592057285148495177e-02,-1.874814189666048347e-01
2.814334074179132283e-01,4.363470566394715006e-02,-1.426190038893368206e-01
2.055085566876031222e-01,1.880888692249484476e-02,-1.337799315253632437e-01
4.172975071439222194e-01,4.260729275294106166e-02,-2.502398699374684399e-01
-4.013190517155638681e-01,-3.920779290212760698e-02,2.150601188605296421e-01
-1.583882763455503051e-01,-1.769388942102215548e-02,9.195692822293385915e-02
1.563300188614061836e-01,2.632866516907067175e-02,-1.082791363474380070e-01
-3.732110589125932354e-02,-4.636222700762063567e-03,1.799497552784876803e-02
1.471598011955879137e-01,2.088292099270456365e-02,-8.903380170294122875e-02
-9.862925424416058018e-02,-3.355672117435213979e-03,5.739856876670570984e-02
3.805564378590323149e-02,-9.305128622393045706e-04,-2.819336693297413640e-02
-3.632958257370229593e-01,-3.903824033295028029e-02,1.983216999710286088e-01
3.329137922946862060e-01,4.004943793189487400e-02,-1.605280026995886122e-01
3.903250150036640664e-01,6.019166262989410904e-02,-2.288379172656775651e-01
-3.278779103896550806e-01,-2.369475216125588660e-02,1.809794880915946702e-01
-2.706086280015039813e-01,-2.573709980436277370e-02,1.437702774367716763e-01
6.740510980113009754e-02,2.773906000006439321e-03,-3.369525455292303462e-02
-2.455292682055806308e-01,-2.636203706356246221e-02,1.446162197192829291e-01
-5.455387975606467571e-02,-7.264911512841034161e-03,3.154841931240116165e-02
-1.627093755064429048e-01,-2.169638884669209886e-02,9.327018104662893050e-02
3.652939973323842682e-01,3.896030600349750100e-02,-2.178418736023655100e-01
-3.928764130769432095e-01,-6.125115825764407967e-02,2.435157712053661050e-01
-3.462238787738148860e-01,-3.747449327295614835e-02,1.933162990039422324e-01
-2.333213813583411567e-01,-3.438776509987857832e-02,1.432404811506882980e-01
-1.768770221305655532e-01,-1.287811123635560981e-02,9.753198017615269388e-02
-3.822820590230868176e-01,-3.033845810919247321e-02,2.099381576076453093e-01
-6.470830387715782554e-03,1.932253575519422362e-03,-6.825808459832546221e-03
-3.244957856089485948e-01,-4.490641115867795991e-02,1.676907019237473262e-01
2.777377705177096479e-01,3.915012645169062278e-02,-1.492750958063130684e-01
-2.107639113230254935e-01,-2.780958061070894910e-02,1.371910294132934471e-01
-3.389189047031537783e-01,-4.348413841265685864e-02,2.097475890415320954e-01
2.105212660280737502e-01,4.073122619440269765e-02,-1.118959378669584365e-01
3.540613138533409421e-01,3.221151320056169637e-02,-1.939371812584654020e-01
1.202828928500920963e-01,1.534789830821127986e-02,-6.012929286445042182e-02
3.974234925535603119e-02,1.594254556304487008e-02,-7.896907425378421608e-03
5.127205268996161414e-02,8.920485091202506184e-03,-2.604882141668838497e-02
3.449879180862266415e-01,3.741650648566138826e-02,-1.809516929104541261e-01
-2.960273065326373462e-03,-1.313619831335666351e-02,-1.400084811500791442e-02
3.634806100050427813e-01,4.147401946460168437e-02,-1.990917528747786214e-01
-2.894876125949702450e-01,-2.878697623689433285e-02,1.687683174863913449e-01
2.321019483112481963e-01,2.537403029981322167e-02,-1.447987116016669906e-01
-3.357100865676049817e-01,-4.262299374110849193e-02,1.816717350526352581e-01
3.921110153833712308e-01,5.514628697523218243e-02,-2.453498887610691681e-01
2.428678646243916106e-01,2.618249969925726117e-02,-1.213466809321324114e-01
5.719223743774769914e-02,-4.435900676230473960e-03,-2.266781945661332578e-02
-4.374829063042184329e-01,-5.991449739981990347e-02,2.421400483561662320e-01
-1.140474819199216172e-01,-2.327754320001919341e-02,5.739943984538057459e-02
3.221449303169985900e-01,4.159918444582234864e-02,-1.454542179327324436e-01
-1.485548928991833606e-01,-1.559060092162211676e-02,8.598082892677863520e-02
-1.655870190885305182e-01,-2.854923269885467629e-02,1.136539921103539713e-01
-1.921128328819165232e-01,-3.012592644178640686e-02,9.822249274784064510e-02
-5.267212806365662026e-02,-3.758745828276717146e-03,3.655041617032907253e-02
-3.375539992802532585e-01,-2.905995016553063540e-02,1.843897142266290312e-01
-5.433971120108364861e-02,6.241008576659095620e-03,3.348158540754286872e-02
2.820922372532911893e-01,3.611360607755983304e-02,-1.565253810460728590e-01
1.664202740731105523e-01,1.123244612763058502e-02,-9.014371368201523627e-02
-1.589407235465424006e-01,-2.445026574977266290e-02,8.178568703792964134e-02
-3.846971468771411273e-01,-3.987905948858914279e-02,1.977171288841707009e-01
-1.690257872047419840e-01,-2.019736958505307517e-02,8.625344223092559770e-02
-1.494085810826930871e-01,-3.661165532271835627e-03,8.112399563418384862e-02
-4.244191500814760154e-01,-5.055833743793070045e-02,2.271207797802603512e-01
-1.023355664294631068e-01,-3.573453528382586255e-03,6.660826506016293003e-02
3.916115728664257833e-01,4.018248921449080885e-02,-2.153355195985438009e-01
-5.067770140841193482e-02,-1.921520289635981690e-02,3.161992159719134721e-02
4.673361644663380499e-02,2.038637537015110593e-02,-2.173852190797099376e-02
-9.520373682936676685e-02,-1.780474116595668135e-02,4.658700940040716443e-02
-3.606158151891859509e-01,-6.100337068920463901e-02,1.874789194629625233e-01
-2.607600902647302377e-01,-2.079623683393917039e-02,1.321427750441192539e-01
-1.918952784947805801e-01,-3.960206670410816587e-02,1.202641905674495526e-01
-2.718685113360708727e-01,-2.772204214774004818e-02,1.447880849650185764e-01
3.815011293513541069e-01,3.891968343833355354e-02,-2.019703047985133559e-01
-3.526782074537606060e-01,-4.268294990766378916e-02,1.846492098367521484e-01
2.985744087397038671e-01,4.673434572376355955e-02,-1.602024031273613647e-01
3.838812920028974451e-01,5.340550612986935675e-02,-2.041163950160488350e-01
-3.405597480990681380e-01,-4.202653386842907651e-02,1.956773836773249564e-01
-5.200799932081014848e-02,-2.079338909868326882e-02,2.256189462864127693e-02
-3.550828209455356155e-01,-4.088296465062574159e-02,2.001986951914720425e-01
1.329476526976870569e-02,2.061323750649578929e-02,-3.531855913806992292e-03
1.980242940362507142e-01,1.629162943642199074e-02,-1.136774760856270605e-01
3.692057790571663389e-01,5.273521697066931718e-02,-2.028553421134821622e-01
4.403006339077158993e-02,1.043806503026591809e-02,-1.463159032794302677e-02
-5.999608387441099366e-02,-1.189135625824716547e-02,4.430264587799077891e-02
3.325539054185442378e-01,4.302124293778025743e-02,-1.815479283358526486e-01
-2.296045349234295818e-01,-1.771185068660346279e-02,1.224058796431591184e-01
1.382028954622759320e-01,1.513006723909793294e-02,-7.462703119976787924e-02
-3.720499810951898301e-01,-3.795715802872306338e-02,1.783706150658751766e-01
1.886966624928252192e-02,2.212152508272238315e-03,4.807311131380239896e-03
2.423421222876477876e-01,2.267191364503295600e-02,-1.308535911168992039e-01
-1.352703487508375713e-01,-1.464570631511349919e-02,8.608324356132200650e-02
-3.677835432264041082e-01,-3.526327569572191428e-02,2.157386327100208889e-01
1.712145663427893372e-01,2.458709474522477109e-02,-8.921561023729734918e-02
1.595782113667461033e-01,3.026644450642602957e-02,-8.316542578536391395e-02
1.857026466832658873e-01,3.006526997425205960e-02,-1.005169321368562518e-01
-1.473973162416384874e-01,-3.214723444520378032e-02,9.010953679755524803e-02
-1.702180109206889169e-01,-1.931685982162500634e-02,8.766770782634339398e-02
4.265214263436771791e-01,6.064222044875070688e-02,-2.461006669633007127e-01
-1.156321725969004788e-01,-2.801147329433048214e-02,6.523023505767049091e-02
-9.989084618435396801e-02,-2.300828329168183584e-02,6.843974573519677473e-02
-2.203027366074461826e-02,-7.520975847431258902e-03,1.723690012914785852e-02
-2.724537179939631182e-01,-4.099924515980009343e-02,1.546349034183804594e-01
-2.901970948911172798e-01,-4.082114207568932757e-02,1.604497145530759117e-01
3.403032559283241665e-01,3.774939364448133550e-02,-1.871072996185322301e-01
-2.224675240742963467e-01,-1.604070909078173998e-02,1.170836707087461737e-01
8.329915674410434678e-02,8.224425815516264379e-03,-3.608782069141769355e-02
3.718562747187366679e-01,3.385527149347335868e-02,-1.887945789453605305e-01
-4.306249521445791595e-02,-1.890847766410760217e-02,2.927252008469630878e-02
-3.658981356450733968e-01,-5.283906728663186059e-02,1.882629412318968798e-01
1.547914466673749878e-01,2.862418423127228648e-02,-8.924517409634540044e-02
-1.791681888243945309e-01,-2.181865112613983956e-02,9.457689041672205643e-02
2.817459069148833817e-01,4.456136097059153200e-02,-1.676067793947276230e-01
8.190203892880849185e-03,6.404849283760083792e-03,-1.103514166024934483e-02
-2.184424074276230532e-01,-4.086659005114758048e-02,1.100244531604919057e-01
1.164418568016170469e-01,2.183303005625014063e-03,-5.927033255175281901e-02
1.509106491202140687e-01,2.007360286313197156e-02,-8.347058974774396178e-02
2.736125065366938613e-02,1.372683318828996600e-03,-2.151372938640571872e-02
-4.559448788522790091e-02,-3.318427393122514238e-03,2.462971468575029382e-02
-3.908665824832970315e-01,-5.578639097315832990e-02,1.917857057683015620e-01
-4.193202130289094831e-01,-5.641611233379585644e-02,2.236001778076169288e-01
1.369655467912221369e-01,2.553812982175040699e-02,-8.946074809761681013e-02
-1.783976153854218219e-02,-8.000221548642567210e-03,8.851989767799387648e-03
3.139382092144684666e-01,3.154775707276046698e-02,-1.646007043742756526e-01
-4.208091015380678868e-01,-5.775193787947196372e-02,2.281955513911077538e-01
1.252863506301150065e-01,9.070381924302711382e-03,-6.832921372056544040e-02
-3.347105482106657037e-01,-5.058064150139916781e-02,1.837848136029649193e-01
3.730811826826870709e-02,7.932776757331271369e-03,-2.215244801245202372e-02
-1.788184353507465685e-01,-2.869020732976692092e-02,1.016186340162674173e-01
-2.265466945422781875e-01,-3.336630110902186891e-02,1.552114888031614903e-01
-4.230688058362425119e-01,-4.083175606880837250e-02,2.140116554429094542e-01
