-1.081371425995086427e-01,5.811684948924281807e-02,9.511067596995195772e-02
-1.748028000738749144e-01,9.211521477092549093e-02,1.775897819595185501e-01
-3.034380014595455463e-02,1.882128462204365332e-02,3.688430380612545134e-02
1.237962051594661134e-01,-5.275735743674601907e-02,-1.232722608305898415e-01
9.287193991929884596e-02,-4.994065931897561511e-02,-8.754957007603612895e-02
2.866633410340546084e-01,-1.552938666917760835e-01,-2.784995284046674069e-01
9.532279858444783760e-02,-5.535991772485448353e-02,-8.822614895894845266e-02
3.322424678426295630e-01,-1.613731197681349538e-01,-3.030685190084716485e-01
-2.133949096632615505e-01,1.305454826937255397e-01,2.022484462652111292e-01
2.529496139215773320e-01,-1.154084705777799341e-01,-2.234218526861633525e-01
-1.239025626567581417e-01,6.218665478187351131e-02,1.111916433386169745e-01
-3.772610910330310291e-02,1.595483570742460902e-02,1.253300525051120710e-02
1.239260744120203178e-01,-5.987534598075785336e-02,-1.007187093738625000e-01
-2.000464094380656199e-01,8.416689494358495227e-02,1.934733617156290109e-01
-1.219420827894989873e-01,6.884678374810403179e-02,1.155552656453796845e-01
-1.747911475769839962e-01,8.498852953955461642e-02,1.849480223373290155e-01
-3.314711247104898950e-01,1.850670321291381371e-01,3.105840886169135007e-01
-2.206336379540868309e-01,1.143041454144727714e-01,2.181185434656416622e-01
2.363671428204775632e-02,-1.353835576189216759e-02,-4.491854784704005926e-02
1.674038880551856900e-01,-9.271829595562171289e-02,-1.662909590435613649e-01
1.524536963215128160e-01,-8.347562101368288801e-02,-1.641265061247501045e-01
5.288632666595326909e-02,-4.919566731077357896e-02,-2.892815104058085035e-02
1.267447034760255942e-01,-6.032081385492094744e-02,-1.241269572702219937e-01
-2.898547717172563765e-01,1.183327987863763142e-01,2.641531739283338731e-01
-3.013842725681853407e-01,1.498978483440006337e-01,2.864346794773084959e-01
-2.562302273742522729e-01,1.369429117380790428e-01,2.596277830013037358e-01
1.584532062242151318e-01,-5.612035961465576539e-02,-1.423594301930717620e-01
1.154783922318982220e-01,-6.801599465281470136e-02,-1.281509869422937375e-01
2.593506664482760904e-01,-1.279512539731558207e-01,-2.183713385552067399e-01
-2.310615617201309813e-01,1.188335368140620157e-01,2.273763090129662379e-01
-2.311010759927032213e-02,-2.697192572012128801e-03,3.145089801062339596e-02
-1.885819204205965369e-02,1.575083648986199195e-02,2.693925835146419867e-02
-2.957180587646326964e-01,1.709118522811227392e-01,2.528242266149449691e-01
1.162879175918261551e-02,2.075494833914236920e-04,3.981448847323494633e-03
7.219323428963667078e-02,-4.030376736418426337e-02,-6.740405174437284763e-02
-2.685403020771787719e-01,1.424951164022086880e-01,2.541413001277387229e-01
2.348420032731103890e-01,-1.050560094089097174e-01,-2.183235415923951706e-01
-7.253214667307707197e-02,4.548286894420647264e-02,8.463368521611353001e-02
3.217927102996466782e-01,-1.373731085207895442e-01,-3.001169614840925592e-01
8.661117328996456588e-02,-2.247409418284106869e-02,-7.483001827087769342e-02
2.732859959625752108e-02,-2.025976297505342402e-02,-2.279465762181131019e-02
1.196726679582205272e-01,-5.690876111751810157e-02,-1.019910418346204606e-01
9.843169215900679503e-02,-5.249860059832420905e-02,-9.226308206591657401e-02
3.157507971885388232e-01,-1.476466591156810892e-01,-3.078166164985836062e-01
3.007430072531771525e-01,-1.366340662708654119e-01,-2.923498559757615189e-01
1.875855560236611430e-01,-1.168330739214636649e-01,-1.789624540706658273e-01
-2.570080591163854677e-01,1.475771399628256486e-01,2.463473441792809193e-01
-1.730152945477124726e-01,8.959963511045627993e-02,1.818728822546743229e-01
-2.508808703539894269e-01,1.400256157889858133e-01,2.441596299417290450e-01
3.140678615616980807e-01,-1.680233804018979593e-01,-3.181865293203602341e-01
-3.287866352498484135e-01,1.559867682022085533e-01,2.883745633464668834e-01
-1.437026073119132275e-01,8.466976218000347998e-02,1.547349219763000105e-01
-1.148987466559311804e-01,5.023522069084179059e-02,1.078352076936500842e-01
1.754360400229097172e-01,-9.168738903621212466e-02,-1.826124794649805483e-01
1.682883142065128845e-01,-9.223902633354993941e-02,-1.545329069764127261e-01
-3.105868527235160822e-03,-6.626450930060230095e-03,-1.174590455567803109e-02
3.282127973381136488e-01,-1.583008807954623676e-01,-2.943268613777096920e-01
-3.550199048029913790e-02,2.594272900666914645e-03,1.685879388119324376e-02
-3.244470532338414315e-01,1.797463915857620831e-01,3.099767870151700633e-01
-5.277763155504130305e-02,1.502696740669867519e-02,5.292008556755829762e-02
1.085941720280214906e-01,-5.016005797149144380e-02,-6.334872910002058155e-02
4.059217463698738121e-02,-2.260189177212522382e-02,-3.417500660354553382e-02
2.733207059844716680e-01,-1.595102676289525401e-01,-2.773008632494191605e-01
3.219475581904062134e-01,-1.557634910048258381e-01,-3.037027947103405623e-01
-3.990761582486609949e-02,1.187334497306283612e-02,2.238636623767866971e-02
-3.008273440685153011e-01,1.695533098433344155e-01,2.852837645086707119e-01
2.454045364609191426e-01,-1.419858372991323059e-01,-2.392871832768786455e-01
9.066279124690404534e-02,-4.573315201882417053e-02,-8.467362167296006714e-02
1.975547987247021908e-01,-8.340434362717941141e-02,-1.890550914303363028e-01
1.015662461139962974e-01,-4.819983319802666893e-02,-1.166316935752251954e-01
-2.142558788841221473e-01,1.309868531608144593e-01,2.109021002552207424e-01
3.245233695513913830e-01,-1.491023643329323634e-01,-2.999430337057876761e-01
-7.745169788790645660e-02,4.991430655438591768e-02,9.367425671598217374e-02
1.210068147783035647e-01,-5.594703486299066469e-02,-1.156087297118851415e-01
2.464727243274198454e-01,-1.293821126310680525e-01,-2.292687099295816211e-01
1.585198158826376935e-01,-8.543644729664433279e-02,-1.541694173472085427e-01
1.600769729220079957e-02,-1.411225206945663189e-02,-3.093442902367911362e-02
-1.519640567239639306e-01,7.872379971165353874e-02,1.629460359388840429e-01
1.419009566127829303e-01,-8.530821006135935747e-02,-1.386395870730516844e-01
-2.942121563909608772e-01,1.477490549088436855e-01,2.835420955142593513e-01
-1.352231087306402513e-01,7.860710897722160417e-02,1.374102581497534115e-01
-3.244861537908941274e-01,1.579469831418533199e-01,3.029037546034602513e-01
-2.569803014955250320e-01,1.217651487241239866e-01,2.372807321926151403e-01
1.592327158927724778e-02,-1.727892434522032257e-03,1.075264828560401316e-03
5.960443592464818863e-02,-3.432891275949737087e-02,-4.435214657693729856e-02
-1.981039291536284760e-02,1.272313958368752329e-02,2.002386926721503799e-02
8.553758003924560871e-02,-2.406488686276818389e-02,-8.228218370738978049e-02
7.457656555991699909e-02,-3.994547920258339352e-02,-5.293960221505564223e-02
-1.088118244806483281e-01,6.771302180292862460e-02,9.871224146497273311e-02
-2.093677656138969445e-01,1.009884123855911003e-01,2.190355576018585548e-01
-5.080066945664129738e-03,-1.741011374609504128e-02,-2.219463392947234812e-02
-4.265881094567985921e-02,3.200122905069760493e-02,5.797488419357085809e-02
-2.795351610321512581e-01,1.375808186968005553e-01,2.511613497037524234e-01
-3.593289955856080464e-01,1.792158479955482109e-01,3.396563348128524562e-01
7.321599813465587414e-02,-4.198253448373540780e-02,-6.714198764430284738e-02
2.550335872432150652e-01,-1.288206110051177966e-01,-2.437196003560506419e-01
-2.498317497643442464e-01,1.378166944942261496e-01,2.331387820879496087e-01
4.389649850694431199e-02,-2.562240906986637187e-02,-5.559071367373207700e-02
1.502608383041998674e-01,-7.336228792214602445e-02,-1.382644800279413944e-01
1.968055696429532875e-01,-1.215490590628904577e-01,-2.091550751908818340e-01
-1.324466100973323845e-01,5.093010131725977940e-02,1.231356359952776036e-01
-2.775182585414796566e-01,1.424719643150769988e-01,2.789681523871276325e-01
-2.196193913806851472e-01,1.067678226548299247e-01,1.966535645323523596e-01
-2.571937920267917121e-01,1.339058406486006991e-01,2.501828260354735378e-01
1.113484963351252799e-01,-4.035054907053762380e-02,-8.364303340600708070e-02
-9.115509356120818363e-02,4.476047870230533132e-02,8.979388008001283616e-02
-2.699371645032782284e-03,1.290717611025988566e-02,1.069899133417144023e-02
-2.733695159262667929e-01,1.347096368484830831e-01,2.678802606321072366e-01
1.484106361141767083e-01,-7.232697333125284733e-02,-1.566571456575852617e-01
1.952001280355878665e-01,-1.090306928745556070e-01,-1.556619444713677747e-01
-1.962495975060565556e-01,1.001277556320042117e-01,1.944552974040609783e-01
-2.508571119764600732e-02,-1.798199439916337190e-03,3.343756356174485550e-02
9.706659753780569333e-02,-5.035661382693912280e-02,-7.456321181176052415e-02
2.888359244046342922e-01,-1.526033916542138824e-01,-2.986344774490151677e-01
-2.931662683440219297e-01,1.524203372884351537e-01,2.668582451232570096e-01
-1.387375825666982421e-01,6.689408061937968109e-02,1.381176442516474367e-01
2.133333552434674707e-01,-1.069576787031982085e-01,-1.985722955781740184e-01
-8.103325951239319369e-02,1.997039681985482776e-02,7.824270802200335162e-02
3.127672199288477478e-02,-1.519834747675290892e-02,-2.830962654702087397e-02
-1.489502333220520114e-01,7.384114575514440226e-02,1.509837929880750718e-01
1.918462854978189025e-01,-7.860609654754435738e-02,-1.536505840627728492e-01
2.122617821492935042e-01,-1.161329915979833483e-01,-1.894529514743129861e-01
-1.919603946318783616e-01,8.565878899958920267e-02,1.954817883772999587e-01
-6.198257670594158747e-02,2.431092282751685235e-02,8.174039788211255597e-02
-9.037383142041426065e-02,3.746976724060162300e-02,7.837196423790528110e-02
-3.417681849658492643e-01,1.764539438009951333e-01,3.243855844373650377e-01
1.446492308313158393e-01,-6.095353421586244269e-02,-1.351497483675522804e-01
2.837295862936995983e-01,-1.459569573371243545e-01,-2.584866560558124471e-01
-9.793682405135106794e-02,4.805277328789190477e-02,9.239065262329330952e-02
3.410953853104439215e-01,-1.622475516595215106e-01,-3.180627346837111569e-01
-3.136502505754201198e-01,1.928155052173211037e-01,2.998023906155888874e-01
-2.902812392294866206e-01,1.673867422850465747e-01,2.722261993537242741e-01
-5.032080839809502382e-02,1.382666511127118858e-02,4.823501871532869661e-02
2.506952501650824838e-01,-1.211962630705169935e-01,-2.344237216217857356e-01
9.606704959981489378e-02,-4.501939264189660367e-02,-8.644500956370754219e-02
2.295475386524843397e-01,-1.190119496474377203e-01,-2.122123620471416394e-01
-9.654344296686039051e-02,4.699870616969893666e-02,1.079068058313600309e-01
-6.509830601160784824e-02,3.414513870608678475e-02,7.030891506918053591e-02
2.209569760258488502e-01,-1.024424608696494765e-01,-2.067961895760092872e-01
2.143605767960216069e-01,-1.206978633925595706e-01,-2.237392331261677803e-01
3.128759235760932289e-01,-1.728999076206152452e-01,-2.996445323208055678e-01
-2.571705574577984876e-01,1.365520728926968574e-01,2.401522017423411148e-01
-2.127681573663566528e-01,9.625534401029789411e-02,2.062713659341814942e-01
2.055504604422007942e-01,-1.182573670723944675e-01,-1.994409828160687570e-01
7.482917443653429312e-02,-4.888716582169901764e-02,-7.282352787200815913e-02
-1.379544778132411609e-01,7.572456063194178688e-02,1.363693749175770575e-01
2.655567597615813846e-01,-1.364369601595251391e-01,-2.381228659962502381e-01
-8.563722097373277498e-02,5.070867504239238294e-02,8.617680215426429258e-02
-1.739385837063250062e-01,1.072633838832950104e-01,1.434445258422327174e-01
8.204669512255763353e-02,-4.081896967230027456e-02,-8.730732553956226105e-02
1.340831464303787746e-01,-5.859041425527702907e-02,-9.850817933161683249e-02
2.280917326502117717e-02,-1.085414378073162357e-02,-4.094844054063754429e-02
-6.053306281064309291e-02,3.155762329665786486e-02,5.874122376167212334e-02
2.111225777332395581e-01,-1.190520259455816743e-01,-2.175883521392244224e-01
1.816720660421000944e-01,-9.078059562209089828e-02,-1.561525975406498068e-01
-6.279739847501956962e-02,2.879668159135211417e-02,6.333716838419718720e-02
7.054259958954622878e-02,-5.170166601545405499e-02,-6.663662900660206889e-02
1.140652943819675802e-01,-6.287751110664936693e-02,-1.093755565585056988e-01
4.973385020913307850e-03,-1.688497702046483362e-02,-5.525592636382719268e-03
1.607403183749357700e-01,-8.785794297298479827e-02,-1.567100687024446382e-01
1.972171729712090815e-01,-9.850431396913574000e-02,-1.918684188632911458e-01
-1.011972725341434287e-01,3.313871738506871806e-02,7.292285257821370936e-02
-3.378067165803396721e-01,1.602052227976277499e-01,3.061692428524278586e-01
-1.183497092360666497e-01,4.529071152319096016e-02,1.131206355904188082e-01
-1.697026557707521643e-01,9.328366497356792297e-02,1.741319682627368581e-01
3.281590977424913014e-01,-1.830791685984704820e-01,-3.325379770265959878e-01
-9.265371702365061968e-02,2.973691991533077353e-02,6.025794869970594464e-02
1.590358672823252717e-01,-8.313157861277029048e-02,-1.366415953788791826e-01
-2.866656978132199607e-02,1.434245393454545124e-02,1.516061300342423993e-02
-2.095315755193298546e-02,1.824446013514607196e-02,1.244830997206491062e-02
-2.097825828974252127e-01,1.107309448786341632e-01,2.132383542753365779e-01
2.944171568032428188e-01,-1.242686512006817290e-01,-2.726138446554965955e-01
-3.094344689215174360e-01,1.642945333813642939e-01,2.904536026411743133e-01
-1.586869521275594830e-01,9.322736070591639002e-02,1.472183536069668897e-01
6.746889052375425883e-03,9.923398961555477543e-03,1.592257160693430484e-02
8.210920983283188923e-02,-2.887317258779151241e-02,-1.030069999079610277e-01
1.896339951527521162e-01,-9.443920067194587487e-02,-1.773158950679817047e-01
-2.208319515085599982e-01,1.067261292662221306e-01,2.156570867710109751e-01
-1.671848287663553756e-01,8.566239461800329025e-02,1.429415098437120946e-01
-1.999842261075284455e-01,1.202741795338138631e-01,2.073230855131934502e-01
-5.554170353005444261e-02,6.427348857921389574e-03,4.719462003603080991e-02
-6.707560628551977044e-02,3.191440712150256376e-02,5.003788360637626692e-02
2.926508394526609047e-01,-1.491844169560779809e-01,-2.783279801629323646e-01
1.310875099000652910e-01,-5.294830586573558845e-02,-1.096175556809367846e-01
1.965242682317140388e-01,-9.365137763199143928e-02,-1.689639759991642398e-01
-3.127759047745605758e-01,1.455475367976694079e-01,2.870948106916363929e-01
-2.447852975517487428e-01,1.292565682812724659e-01,2.338091306329696251e-01
1.788631037010086078e-01,-7.336739324894922532e-02,-1.325950086051120580e-01
1.264492839481543007e-01,-8.554863536502396726e-02,-1.197391739861846244e-01
1.935024462483693475e-01,-1.111245768598719819e-01,-1.772567633512806273e-01
1.425742320279395521e-02,4.952394765919500286e-03,-3.785923529959737618e-03
-1.539663445560904842e-01,7.449213555522482544e-02,1.706610580518540254e-01
-1.178520121745382926e-01,6.267639387416187868e-02,1.204885510131147031e-01
1.328777082227715067e-01,-5.854336013638847258e-02,-1.148154246351625052e-01
1.318283660911512556e-01,-9.080336112158512996e-02,-1.484059881257615010e-01
1.666156117509679652e-02,1.615799189797815713e-03,-1.802228803088286660e-02
-1.397218109999841251e-01,8.487070377017753853e-02,1.566301629994169275e-01
3.070235884392933171e-02,-2.669824491975601212e-03,-4.401725665812127042e-02
7.379317455395864936e-04,-7.415674162979549698e-03,-1.341577455071458515e-02
3.018149227074324314e-01,-1.654779045638885004e-01,-2.850373684472131686e-01
1.460421936968880063e-01,-7.237560349104317503e-02,-1.414053174334105600e-01
2.321948251717385614e-01,-1.112786109202377888e-01,-2.091301310058847340e-01
2.236554741362287990e-01,-1.210592013738533979e-01,-2.004374300624900129e-01
2.453258390223390650e-01,-1.493206472445739175e-01,-2.582502533536240041e-01
-9.152914388964702996e-02,5.434686093389327899e-02,9.931329409208333736e-02
3.342064102017173188e-01,-1.742767549358873458e-01,-3.169942632164891583e-01
-2.102282666503844585e-02,-4.300806178174928595e-04,3.501468203720488337e-02
1.403750918301579498e-01,-6.660911726436309632e-02,-1.320268414851170080e-01
-1.267135831666679931e-02,1.211864714950288855e-03,9.783213492631635810e-03
-2.170515013501833901e-01,1.208553398189068651e-01,2.167286450473796255e-01
1.405615618838215453e-01,-6.837502047755214529e-02,-1.326661974420792756e-01
-1.795443328298158836e-01,8.316626203852919841e-02,1.420324077731513479e-01
-2.152450734932132292e-01,1.209512212813944193e-01,2.223924478843056496e-01
8.259892120078207375e-03,-3.372020214823541646e-03,-1.091768391109065872e-02
-1.200928881579859005e-02,-8.363693903681516939e-03,-6.149722062985408383e-03
1.872505608953127232e-01,-1.029606717007992972e-01,-1.863731869799789831e-01
2.665511170988520973e-01,-1.199818325971427763e-01,-2.462879354950278932e-01
1.748470895288154470e-01,-6.741178134492764595e-02,-1.671494208009205173e-01
-2.681293514368184305e-01,1.397615489360609087e-01,2.574828571500870078e-01
1.714180728946115007e-01,-8.373741736316758777e-02,-1.833966151804130029e-01
-6.188440705926468582e-02,3.467156610080581597e-02,4.639242761504128176e-02
-7.158105907108515409e-02,3.997032514628821864e-02,7.751387501591852636e-02
-2.037659056705792560e-01,1.162178417457165741e-01,1.866616163579677690e-01
1.686730519516343174e-01,-8.716823977831661407e-02,-1.630973665396202310e-01
-1.900474661881628932e-02,2.028020275763255803e-02,4.898833497898055778e-02
2.989461528819954000e-02,-2.384518471045716376e-02,-1.155314915453775799e-02
3.022753492003081299e-01,-1.594700398939586095e-01,-2.862621597576125998e-01
1.561351644599794641e-01,-7.913303087429245097e-02,-1.322307792648797220e-01
7.567562759107489267e-02,-4.117273490206414810e-02,-6.676500364034781976e-02
1.044563612844012501e-01,-7.385155170931165247e-02,-1.112843189384073173e-01
-3.901533505851557948e-02,4.208606608826032797e-02,3.367061782618387122e-02
1.626159330451453500e-01,-8.882264599053092680e-02,-1.414614095458509024e-01
1.456702218607755783e-01,-7.503655053412101872e-02,-1.417274402780475118e-01
-2.637579006687941208e-01,1.485096718460133247e-01,2.484521989000330333e-01
-4.500447679492603111e-03,1.004478335112265162e-02,-1.528490292445666612e-03
7.953976029246813406e-02,-4.411263335013385078e-02,-8.983247459625630371e-02
-4.227223925156302353e-02,9.973805876516727772e-03,5.650171571855688857e-02
-1.813406102344299886e-01,9.457282548833717550e-02,1.568750809977859928e-01
1.446673079708532712e-02,-1.990922152650635019e-02,-4.149363234560901614e-02
-3.317506870009204745e-01,1.772041595580302886e-01,3.254061536176928171e-01
1.493679523261823017e-01,-5.613047442666672243e-02,-1.487267587278005010e-01
1.192913810875304986e-01,-5.117334325390744676e-02,-1.208139535394392311e-01
2.302483574791384102e-01,-1.178432166558576744e-01,-2.225054085655211178e-01
3.428039366984036995e-01,-1.627519884282181417e-01,-3.012677077341479048e-01
-2.053043572498448599e-01,1.038174940730452606e-01,2.050278912294377920e-01
-2.278825810553314901e-01,1.397974031579865828e-01,2.390691136226716085e-01
9.894272170546133949e-02,-4.689819486801712761e-02,-1.041753615947904332e-01
-5.375337619521309424e-02,4.106447079609883144e-02,6.472410502622789885e-02
-1.697321389643094702e-01,8.701224517069139353e-02,1.667548711296030495e-01
2.505748133532283983e-01,-1.421578032463173824e-01,-2.462851953115569315e-01
1.233977071706134077e-01,-5.118496110536015914e-02,-1.331725934686787127e-01
2.036946998896845273e-01,-1.134955927114428970e-01,-1.845123624240074811e-01
2.204954861519382026e-01,-1.147016332392076648e-01,-1.861645069607509584e-01
2.680101220591040723e-01,-1.467795705461258093e-01,-2.717682231115091107e-01
-1.990565568825682918e-01,1.043736507163577354e-01,1.886638493091906954e-01
-4.972855865280113863e-02,2.522362387181689702e-02,4.036276208005501465e-02
1.557177659870722375e-01,-8.455575184171174041e-02,-1.699128821743943751e-01
-4.608064020898915841e-02,1.882526207009626792e-02,3.265958075560164431e-02
1.298502731605022942e-01,-7.436812323326634500e-02,-1.451723148715060863e-01
-2.107354479101782307e-01,1.290813583575387835e-01,2.110330016373044015e-01
-2.641319242390237076e-01,1.340180845995676828e-01,2.572842134880258813e-01
-1.898325282954856641e-01,9.245939387297014145e-02,1.774961156379664950e-01
-4.772475711148192051e-02,1.337930494429596419e-02,1.814997859974633657e-02
-3.277886653741798884e-01,1.632338245753963135e-01,3.059956846484522264e-01
-2.561903741787451283e-01,1.363334909044786325e-01,2.215991166991029548e-01
-1.946512071680440714e-01,1.004596722806024300e-01,1.869042687443945583e-01
-1.637112920766691307e-02,2.241470147904857727e-02,1.999025373170542838e-03
7.293483362689409666e-02,-3.125194387338166291e-02,-8.188549334630854104e-02
-1.042610633588970659e-01,5.912396400188316137e-02,1.030839585644195422e-01
-2.352511009318713486e-01,1.235662899851250884e-01,2.227641618061906581e-01
2.206620887562960043e-01,-1.157269115820585142e-01,-1.955177456377356626e-01
2.566216739393982760e-01,-1.074066582353523092e-01,-2.194297426215079949e-01
-1.742305788881137393e-02,1.249702595905366476e-02,3.226399601635776548e-02
2.542954943387423783e-01,-1.259955506571520112e-01,-2.558822733555159989e-01
-3.378386596841925771e-01,1.755929765866358072e-01,3.122356247326224521e-01
2.728836893642284100e-01,-1.338167578245386957e-01,-2.762564368818625771e-01
-1.411208968765081395e-01,5.653702926796144723e-02,1.381582087638844880e-01
1.880745946813935365e-01,-9.103817039643453957e-02,-1.872205453312024703e-01
1.537781108594549889e-02,-3.290641677855295297e-03,-2.935627126851819702e-02
2.000219999356852574e-01,-9.254179428424895437e-02,-2.010710730834119886e-01
2.630790112404794989e-01,-1.191873815496760636e-01,-2.357536003192949314e-01
-1.699461687909237240e-01,8.775112231203126278e-02,2.006689080871719988e-01
1.241510698480479818e-01,-5.960792886282085395e-02,-1.183057441541526256e-01
2.806931270752172636e-01,-1.567856488588315056e-01,-2.662619198332509818e-01
8.723904406623113339e-02,-4.485254724485637084e-02,-1.033059971103797575e-01
-2.508804135746900421e-01,1.340692548615167456e-01,2.347974855002570305e-01
2.355328805002802617e-01,-1.444329586296583257e-01,-2.446376536021261927e-01
3.202942216075825854e-01,-1.744153182097941401e-01,-2.926678167944325448e-01
-1.894974585035283654e-01,1.051387379849037934e-01,1.827337828847213907e-01
-9.501393162115402691e-02,5.668900932072587495e-02,8.358179783590484468e-02
-1.676444328160162089e-01,8.348291741476612793e-02,1.867224571893802698e-01
4.668875776989649118e-02,-9.535082571927987888e-03,-3.315751811854870251e-02
-3.177470979338443691e-01,1.503462343166384052e-01,3.088423347827089493e-01
-1.197021104141579306e-01,6.397296073299335584e-02,1.027208213705038814e-01
2.384098313817691051e-01,-1.157666309047769709e-01,-1.999712611094942860e-01
1.764735359614609256e-01,-9.484276820837993227e-02,-1.762498132343080504e-01
-2.248821666706371791e-01,1.152215229440385624e-01,2.023913970273630569e-01
-5.452288461127447611e-02,2.413978455740779794e-02,4.137843679799010216e-02
1.386232669680609597e-01,-7.758698455719940934e-02,-1.496923087518420570e-01
-7.144713215019773966e-02,3.834653012718510640e-02,9.012841492934220433e-02
2.245642180669705015e-02,8.413563725347798523e-04,-2.855089509021613379e-03
1.029640668220457023e-01,-8.906623871512726887e-02,-1.247142062778312521e-01
-3.151739494323271829e-01,1.807975781247429525e-01,3.124719523677761956e-01
-1.050341032658725082e-01,5.281245396924043323e-02,1.051427706762400605e-01
-3.092045473973037417e-01,1.512282801831633938e-01,2.643750877156451629e-01
1.533407968422665080e-01,-7.029187733889835643e-02,-1.274326317718982304e-01
-2.626849475203160145e-01,1.380197373340133205e-01,2.495343178332287692e-01
2.156630562820003594e-01,-1.079639638826451198e-01,-1.964276124228893916e-01
2.526604490897534361e-01,-1.168233112966820114e-01,-2.227865759027580772e-01
1.029398901986787462e-01,-3.670795799464061232e-02,-8.048503617480816386e-02
-9.377867935202729988e-02,6.986341830110219531e-02,1.096267568978818996e-01
8.939628261827246847e-02,-3.242883033731978892e-02,-7.416520689926002496e-02
-1.930036171427824410e-01,8.987532101098767712e-02,1.832633045923384163e-01
-2.870885617470571582e-01,1.661803410164250372e-01,2.710604086275220648e-01
-2.964841721449770415e-02,1.510692109307878832e-02,3.448442315314995121e-02
-3.232043976671567388e-03,-5.433846668628057423e-03,-4.514740809975503061e-03
3.394465017389617922e-01,-1.639679844067894188e-01,-3.279319583952828854e-01
2.274434173971625617e-01,-1.191594587163239544e-01,-2.379388178602051263e-01
1.634324871135445778e-01,-8.162468745321675712e-02,-1.628894017019162366e-01
9.969677323689722301e-03,9.376047097397125288e-03,-2.161512019344733262e-02
-3.511054312741888617e-01,1.736775809447073937e-01,3.218431767826606671e-01
-1.302217537475869602e-01,9.073409298706199000e-02,1.393478352531058173e-01
-1.500487444528776637e-01,7.911610652914755071e-02,1.704501173998757557e-01
1.229608756479019793e-01,-7.216445719883550491e-02,-1.078857431744318085e-01
2.469933666331987909e-01,-1.268422536007388357e-01,-2.417568230607555768e-01
-3.807071232034311276e-02,3.220059866676686783e-02,2.843013436896818860e-02
1.381777595540683856e-01,-7.755666416073117575e-02,-1.298695074416630624e-01
1.682487474868671617e-01,-1.111432127936609476e-01,-1.603962675328925169e-01
1.779633753563059639e-01,-9.082332743779250595e-02,-1.841310605385767241e-01
9.680216642317227005e-02,-3.815979558743057276e-02,-8.384585616888677595e-02
2.181684373777259545e-01,-1.155463563939130162e-01,-2.282767717727216539e-01
-8.929837527302984801e-02,5.393030510690683538e-02,1.013413550151682913e-01
2.552221548618747726e-01,-1.279877233881872023e-01,-2.260144858726054473e-01
-1.882189492210129822e-01,6.519219330437214799e-02,1.635088233416714665e-01
-2.434859471642504269e-01,1.131444828472541742e-01,2.140748103189078488e-01
2.212689836759780260e-01,-9.821578155457162673e-02,-2.020361923889178735e-01
-2.122629399639653913e-01,1.087051307662777466e-01,2.278831572807475669e-01
2.734321215768356281e-02,-4.359293564929081141e-03,-4.623495982162864615e-02
-3.011926864737574094e-01,1.672780779147695629e-01,2.960631992274570523e-01
1.867549696961056174e-02,4.599830760256266859e-03,-1.909229961635471040e-02
-9.239795339848342476e-03,1.397021152606646964e-02,-5.239480965299491734e-03
-3.063941385923286687e-01,1.738106802908907234e-01,3.021117050158577677e-01
-2.449084637449899238e-01,1.400911071958567955e-01,2.217247513226619504e-01
9.959036595198364483e-02,-2.567944064239839966e-02,-9.666331621841875443e-02
1.615963957512265084e-02,-6.796309447980987753e-03,-3.219332863566902458e-02
-3.105108798292386951e-01,1.615229282020714807e-01,2.992765278384124095e-01
-2.908658950111209784e-01,1.448373995815087911e-01,2.668950744448965184e-01
-9.221111640747474761e-03,2.037809705533793342e-02,6.529445978571289146e-03
-1.724019053858991957e-01,8.352806127999334862e-02,1.851372130473484812e-01
-2.887732942776378708e-01,1.580379114123783568e-01,2.605597371416231156e-01
3.026386223020881561e-01,-1.494572575660510494e-01,-2.873866557746618811e-01
-1.130534305027537240e-01,6.072683003040167671e-02,1.189607942856854145e-01
6.676176151367283103e-03,1.372538314607489422e-02,4.601847019774833736e-03
1.311142261665203812e-01,-9.641460464836429378e-02,-1.483173479544472040e-01
5.557422176821706639e-02,-1.856314987833648442e-02,-4.257776652279354757e-02
9.795163980934344650e-02,-5.050799762442019503e-02,-9.305785635061041006e-02
-4.884847389002126145e-02,1.529255513703127456e-02,4.429916105433874540e-02
-2.225545100754613703e-01,1.158558776806182106e-01,2.051245503863553810e-01
-3.327217472646528673e-01,1.644324981360769655e-01,3.099988735157878650e-01
-2.089482350383849510e-02,-5.589511655937423433e-03,-2.713435440058671079e-03
2.363878245004880641e-01,-1.136823486911185815e-01,-2.298017555057725037e-01
2.958540332160170538e-01,-1.223802048688963917e-01,-2.642649536103108820e-01
-2.232454563041249840e-01,1.253974927171887521e-01,1.968063397203856368e-01
-5.803443550056129607e-02,2.466039561192386390e-02,5.455273492549807257e-02
2.927830069654237255e-02,-1.241856191090012773e-02,-2.442544995035025174e-02
1.140650586650769072e-01,-6.081417486898533370e-02,-8.777717011264385416e-02
1.371053733203576319e-01,-6.081550471492212784e-02,-1.277710412818890695e-01
2.377588238081695393e-01,-1.230204989985748953e-01,-2.359584680349634533e-01
2.597880571640280856e-01,-1.499864279251894306e-01,-2.559094955922090464e-01
-1.378577858137592926e-01,6.395517795443989018e-02,1.388759321330584884e-01
2.155580510292892105e-01,-1.027308912624941700e-01,-2.106178165582394124e-01
-8.653397928922700044e-02,4.818974168740644548e-02,5.898491377811635600e-02
-3.226124709777946076e-01,1.594947286898786565e-01,3.093734991060893003e-01
2.958906292117474170e-03,-5.193869897357453229e-05,6.086206722646774273e-03
5.870149194717444452e-02,-4.373020451291791122e-02,-7.264974514803894390e-02
-1.791094951578208749e-01,9.366217359563225320e-02,1.803990313468180895e-01
2.330187351021680287e-01,-1.396332264942638790e-01,-2.370653459943078967e-01
-2.129415447165163289e-01,1.030017109608090536e-01,2.077954852893091897e-01
1.481305220220841268e-01,-8.358551138489353494e-02,-1.632100483296469728e-01
-1.668299940604751619e-01,9.842920570737118124e-02,1.707004585480144110e-01
3.119180973982738636e-01,-1.498827069310353644e-01,-2.984927710604918794e-01
-6.756701111862595255e-02,4.181113568049425744e-02,6.508845071848581854e-02
2.182425220251887552e-02,-1.507198583357483371e-02,-2.073509342009951031e-02
-2.371349226875714075e-02,3.025717286948828230e-02,4.270214115009901557e-02
2.977558185225205878e-01,-1.574454098055758644e-01,-2.941697315342505781e-01
-3.240278351985076966e-01,1.666433552835230036e-01,2.891911186050706295e-01
2.494159425577152922e-01,-1.336816791666586013e-01,-2.511588213233943989e-01
-3.156806940249465843e-01,1.642020635893726987e-01,2.948628373629784694e-01
-8.976623370890619846e-02,5.031424178905700290e-02,8.714472170874199008e-02
-5.958668713848477849e-02,1.337666140026421910e-02,7.544858122976305648e-02
-2.445331083897398228e-01,1.092124605869274206e-01,2.230996822141837754e-01
-1.271469216613813624e-01,7.666837878593774080e-02,1.313062310979266345e-01
-1.035523184506628031e-01,3.814062678388620981e-02,8.297698872307131268e-02
2.691581722559712175e-01,-1.503867367439295499e-01,-2.692799457036051947e-01
-8.668936922237124865e-02,3.986041596981133167e-02,6.890689985308408316e-02
1.623122299246348155e-01,-7.298144464477496207e-02,-1.615195427135621975e-01
-2.838571607976321243e-01,1.528326145061814079e-01,2.934985160398805304e-01
-2.037052470338587551e-01,9.926810320121995379e-02,2.071925228722321932e-01
3.172424610017081092e-01,-1.635704913036139796e-01,-2.921647281120872686e-01
1.472795273882467337e-01,-7.381056358683432683e-02,-1.488889487144413881e-01
-3.094817649986091879e-01,1.741613602955838780e-01,3.233288418372040063e-01
1.511714835999768136e-01,-8.162299123989981420e-02,-1.416254493065119135e-01
-2.055821811492735129e-01,8.611624787909488710e-02,1.900080405315992815e-01
-3.287132908914519036e-01,1.656793861232490617e-01,2.929016459555096041e-01
-1.747841604158149598e-01,9.558176611744716167e-02,1.785952234154119522e-01
2.539797191480414051e-01,-1.460837123323604769e-01,-2.698048234923660083e-01
8.743677901154845236e-03,8.559746422305716893e-04,-1.674069365839769147e-02
4.292197498769789038e-02,-2.764969192280350083e-02,-3.629279336674841316e-02
3.548029297940865408e-03,-8.182856329256377875e-03,-1.775838999748326902e-02
1.713473519792762523e-01,-9.233035289516552946e-02,-1.343682791089665651e-01
-1.870014818427702674e-01,1.010891458925985698e-01,1.898492569887488268e-01
-8.982646965809550077e-02,2.355395423696552901e-02,6.316519915863243184e-02
-1.910756686595040665e-01,9.089798722134016795e-02,1.599015803111918377e-01
-2.178383708885160974e-01,9.591790884384891747e-02,1.953886109546003891e-01
-3.050076939435260592e-01,1.530740661906655475e-01,2.711467781186397419e-01
-2.874073148661697719e-01,1.475325245687884590e-01,2.761985243851907690e-01
2.108333516260487150e-01,-8.905022517114882796e-02,-2.065880692250616490e-01
2.283230980163430263e-02,4.798392143493820407e-03,-1.327165228080167195e-02
-2.151006934607576360e-01,1.270886584049571999e-01,2.170749537100167548e-01
-1.723988272162138013e-01,8.489899027456467018e-02,1.724525587026912721e-01
-2.391522858128884987e-01,1.009152764083592613e-01,2.104717344848092697e-01
-5.475993980421890034e-02,3.471152011177398161e-02,4.581752913430996166e-02
3.033950923138840072e-01,-1.542505231132306753e-01,-2.815861354685313955e-01
-2.962330751773115667e-01,1.414070354736320090e-01,2.949485286451302146e-01
2.333039428586349828e-01,-9.917592657981549875e-02,-2.122207878595313013e-01
2.132117963841323738e-01,-1.162276910106197908e-01,-2.072449160707744431e-01
-1.249491321520580650e-01,7.224745097080970124e-02,1.274360032940254350e-01
-7.867119500708610880e-02,2.967378783788101118e-02,5.560964515567580480e-02
-3.354757034138380334e-01,1.749042179753728665e-01,3.152595391991192542e-01
2.474440599530495777e-01,-1.358154615422201283e-01,-2.405902187577992069e-01
-3.062941041745359527e-01,1.549482496359969874e-01,2.913042666604325759e-01
-1.254368551932822651e-01,4.003073262924364273e-02,1.039535496546201837e-01
3.325668453185161022e-01,-1.784391773292093586e-01,-3.397634251667679961e-01
2.950586834124383495e-01,-1.304235334692031012e-01,-2.605666239347654289e-01
-1.564097525999829374e-01,6.785002449711310946e-02,1.492428751912864004e-01
2.948908934529710923e-01,-1.494521523561319065e-01,-2.821667405883461210e-01
-9.793936670735355760e-03,-1.755278136155513993e-02,-1.015611584364466656e-02
-2.958104127117728299e-01,1.462630464269244479e-01,2.663721283168687393e-01
-2.026985944829301500e-01,1.044744897652524207e-01,1.748907708689304841e-01
-7.877173836142664642e-02,4.443228806915865831e-02,6.992123287498920592e-02
-4.669609591100184337e-02,4.474845553044920488e-02,5.284932506293813642e-02
2.390088297150302563e-02,-3.278296568036410431e-03,-5.823819832801250748e-03
9.002742691240839257e-02,-3.641142599671839258e-02,-8.106849092888208930e-02
-1.254428227689950437e-01,4.906120606061458583e-02,8.913258141430767389e-02
-1.463762338983067568e-01,7.148630365438170264e-02,1.304489972450473823e-01
2.127394559778001959e-01,-1.127619018337747692e-01,-2.028621543431683993e-01
8.971236241434793479e-02,-4.995585425551092584e-02,-1.078253871524731677e-01
3.052029505847390078e-01,-1.483465033323175253e-01,-3.221416530179127546e-01
1.117725917174370448e-01,-5.417061500664333007e-02,-9.500281653636502566e-02
-1.690055158166408611e-01,9.634966366406071125e-02,1.534231680778438967e-01
-3.361772909300596301e-02,2.435469482917088091e-02,1.368276874669954561e-02
-2.462494114398250111e-01,1.241178348026028971e-01,2.286767055835935980e-01
1.538773931076444779e-01,-6.941659203846944903e-02,-1.427202488637730748e-01
8.600818593201760287e-02,-4.462058697375923672e-02,-5.733707413241503209e-02
-3.443689072554468322e-01,1.707619892589331279e-01,3.127176047400350711e-01
2.118384849793653602e-01,-9.701298364955117381e-02,-1.692104567994434927e-01
-2.900032276713882529e-01,1.209068776117642463e-01,2.518339834043317182e-01
-2.012122278184700630e-01,1.064530474940048183e-01,1.955717786167287253e-01
-2.049857474164791804e-01,1.171085548399445203e-01,1.833836572307473156e-01
4.932128159172981252e-02,-2.118698112710727666e-02,-5.962498136678723998e-02
1.812854959649956021e-01,-8.940804517615268121e-02,-1.705126073329185366e-01
-2.227551521688446168e-01,1.080179050545788250e-01,2.024531277694223141e-01
1.548095038104066734e-01,-8.003126706969553028e-02,-1.262277702766543275e-01
-1.204866325662934806e-01,5.171952932242310230e-02,1.158153584361000937e-01
-3.261075364982520264e-01,1.493790085357436237e-01,2.997657149877810401e-01
-2.132177040663960910e-01,8.218417620192440542e-02,1.890196567044941656e-01
-2.672773749046301606e-01,1.384110657071817019e-01,2.528138324581183927e-01
3.204989875522805121e-01,-1.713300870618333360e-01,-2.937883977440928773e-01
1.156307340283622975e-01,-8.185161637777105259e-02,-1.062282819087380509e-01
2.345733749747226926e-01,-1.106817781627487257e-01,-2.169911464931507383e-01
-3.074527389570461816e-02,3.124433635150590874e-02,2.264960684566779542e-02
2.411877018713926568e-01,-1.238430178391710795e-01,-2.162752007699614010e-01
6.986350691983381211e-02,-4.962890097824560615e-02,-6.450875463095208373e-02
2.148249915887954498e-01,-1.157355431587924199e-01,-2.174298761415014991e-01
-1.422293488376517034e-01,7.328917695991661596e-02,1.572186858555316702e-01
-1.608810138710715099e-01,9.465407672079281798e-02,1.591754597240419566e-01
-4.145041110437983761e-02,3.081521167962743279e-02,3.595970042020119051e-02
-1.305926626362050036e-01,6.409699349437936178e-02,1.224296411632505438e-01
2.502188047920418934e-01,-1.158654951727643156e-01,-2.303005617633128999e-01
-3.048634332312986084e-01,1.508004671394234386e-01,2.880895844034178088e-01
-9.331586278262987699e-02,3.462555546196101341e-02,6.987883650631937504e-02
-1.679651127636752617e-01,1.084948172438015973e-01,1.719038789362470621e-01
-3.097685590503271302e-01,1.697574493845025456e-01,2.892997080067394311e-01
6.650098935586475600e-03,-6.396770164336767692e-03,1.479765069979288930e-03
1.316522432888832250e-01,-6.262754425075792164e-02,-1.400933322772865419e-01
2.649894361464313897e-01,-1.317587872072225885e-01,-2.513167948494201553e-01
-1.883964981230100422e-01,1.165851998451301746e-01,2.053364581413866519e-01
2.371975607859456991e-01,-1.476913251338556610e-01,-2.507724247332895895e-01
2.260644873693764267e-01,-1.341031726707372917e-01,-2.201510166125486279e-01
-1.678002695739400363e-01,8.817625485900153215e-02,1.504870841607459930e-01
-1.964263650944388651e-01,9.251461618943017384e-02,1.803746246681483534e-01
8.118371277366494276e-02,-4.211069870008309068e-02,-8.660078107954265192e-02
1.902130285761458595e-01,-8.856299699416386728e-02,-1.723833105738294402e-01
2.874581397316213205e-01,-1.568698841133225885e-01,-2.654673564340475078e-01
-1.314031627679132230e-01,8.287461648844590689e-02,1.094717382410015233e-01
-3.034291218620011055e-01,1.785296579666677541e-01,3.154898002120014588e-01
-3.000068584236652569e-01,1.439974194070223479e-01,2.808616101517937835e-01
-9.813816954939846848e-02,5.308453331641407869e-02,1.257339784254796200e-01
1.740939869318758673e-02,-7.609695649456705083e-03,5.960749429699225416e-03
-2.345750943485467033e-01,1.136745736250673600e-01,2.262444612519105558e-01
