-3.552789717662144242e-02,2.424202212679920851e-02,-8.189619209325198212e-02
4.445582467419739725e-02,-1.571586400264373198e-02,1.007353256678693576e-01
-7.689441885856523884e-02,-1.117889357180828179e-02,-1.835294010224171601e-01
-2.316699887566290028e-01,1.131185329254521567e-02,-4.221667189663497743e-01
6.715217387732863585e-02,-1.324867727082086610e-02,1.171718560736318693e-01
-8.166413373354149130e-02,1.303247609221590102e-02,-1.489069508095328953e-01
2.096890139589607516e-01,-1.137816367359325252e-02,4.054256503664178113e-01
-2.034672593494798315e-02,-1.181683947154959190e-02,-1.399399973947860684e-03
2.056189049196276153e-01,8.517711927062746741e-03,4.122947005702505274e-01
-1.319220157043148600e-01,1.412811968883819283e-02,-2.236881935815941413e-01
1.660333625922289502e-01,-8.641286037046542676e-03,3.055253359118016432e-01
1.866989700995227985e-01,-7.181614255699045497e-03,3.657147563122731260e-01
-1.633941042233357233e-01,1.028874279494867809e-02,-3.141081384680545763e-01
1.966694320232584559e-01,-1.485568154708489380e-02,3.885169375923154256e-01
-1.739408238228500880e-01,1.240525596876803499e-02,-3.491634264516021435e-01
1.538043699578378609e-01,1.391969726785349110e-02,3.005261718795664283e-01
-1.102712125559849321e-01,-2.308618497757594819e-03,-2.396265990810911573e-01
-9.378278081817771616e-02,-2.373313155128446705e-03,-2.083013614330817553e-01
-2.240181942475700516e-01,1.796159753249301078e-02,-4.274837988955033641e-01
2.077638786532655935e-01,-1.329995863286622011e-02,4.130790288586172476e-01
9.530255278922307449e-02,1.109156697434437837e-02,1.646831773020759615e-01
-5.031021197989538063e-02,1.183253387483995667e-02,-8.840518851698646319e-02
-3.395028340031239211e-02,1.235024698874919585e-02,-5.338878035684841566e-02
3.746895939559072297e-02,5.570499194342393330e-03,3.676903277234259276e-02
-1.723004575765884061e-01,1.206749350769754231e-02,-3.246555474569184918e-01
-1.004582750719470452e-01,2.098921014521200334e-02,-1.828560013664023431e-01
1.444935099709581394e-01,-7.007021940458713939e-03,3.061049881649046123e-01
-1.853986345760487153e-01,2.021705802186066648e-03,-3.420938328500059966e-01
-1.634385931531191216e-01,1.417831049677402942e-02,-2.894910562844018598e-01
1.403036213823865841e-01,-5.094239370149407191e-03,2.794749757284960556e-01
-3.892445724289557429e-02,3.076017749103004788e-03,-7.664418140438571114e-02
6.707746133458383775e-02,1.852637517904121792e-03,1.015123932892796066e-01
-1.809900190968059264e-01,8.807931116859868750e-03,-3.261722011002293753e-01
-1.837971852499404590e-01,2.162682182596638997e-02,-3.346718156791032017e-01
6.680701818838574724e-02,2.281935385855934570e-03,1.308107186236905639e-01
-2.195501267370579823e-01,1.697862532085170004e-02,-4.318808514494112960e-01
1.244102773401624812e-01,5.572840029095970336e-03,1.793232682312889126e-01
1.956343162387568779e-01,-1.956307227625831910e-02,3.954894893409676149e-01
-5.042116862220671208e-02,-1.870710484873636071e-03,-7.728572751330814450e-02
2.554067968920315512e-01,-1.232785744010300374e-02,4.138077987624558252e-01
1.247556390554709210e-01,-1.124932874927248201e-03,2.053454824648324184e-01
1.166278046945410096e-01,-1.290042578814047831e-02,2.059093765700689971e-01
-1.779642780548715275e-01,1.813387563451664478e-02,-3.221561447246941157e-01
3.945935084981817137e-02,1.204206733759610910e-02,7.433464400936436178e-02
-1.762146817586561776e-01,8.703142371846415287e-03,-3.345549640832334859e-01
4.500018758993692969e-02,1.111496425467351249e-03,7.943310511682422081e-02
2.185909151615111623e-01,-7.598338960815007037e-03,3.787728438209210235e-01
-2.328097292732419499e-01,-8.689718441026660425e-03,-3.995403195104827998e-01
-1.640813439988434985e-01,2.556219608983557792e-03,-2.936109405743848044e-01
-7.015946288735994130e-02,1.553059848774575487e-02,-1.286267184137561137e-01
2.245447799646915210e-01,-2.038442749470166515e-02,4.052138991656567546e-01
5.314397095808843716e-03,5.357889020068467949e-03,5.731810873073884399e-03
1.756666984003457388e-01,-1.207737469948725641e-02,3.258023286463004875e-01
1.923537314018104738e-01,-1.993989726309555038e-02,3.345068417307671682e-01
-5.771554719470657450e-03,-4.777703148475150041e-03,6.096246607688899678e-03
-1.072732789971800327e-01,1.344984598161043376e-02,-1.995112241758140725e-01
-1.334655165415717659e-01,2.334535083456214244e-02,-2.597654011930224383e-01
7.554148120610351680e-02,9.875660449553496506e-03,1.435122635315221606e-01
1.853694937985211344e-01,-1.327042707798994827e-03,3.546117333767786484e-01
-8.086312556348794478e-02,5.142718779586253307e-03,-1.653733995240260213e-01
-1.339540130287955877e-01,-5.318511446364337578e-03,-2.251270585386517253e-01
-4.471143943563624101e-02,1.783533972784568516e-03,-9.685396300764501087e-02
-1.831379504090535348e-01,1.329188196304632343e-02,-3.603110019509766504e-01
-1.133857850240390791e-01,-8.457081720679266237e-03,-1.914577107934914146e-01
1.222067478004172647e-02,-4.615800322620880296e-03,1.058262425392284163e-02
-6.734631515602352084e-03,3.483279504724183170e-03,-9.257518284118863156e-03
1.879709199087306257e-02,1.419885182929271975e-02,6.537992955919957883e-02
1.122442585360824002e-01,-2.088406203692329266e-02,2.066052550837376434e-01
-8.460315121192464594e-02,1.301155748699471017e-02,-1.686347635225460828e-01
-2.476545422040186267e-02,8.335201444925863928e-03,-3.659359356165758914e-02
1.069254429290430464e-01,-1.152866435337777593e-02,2.190779873347008799e-01
4.177286198806359069e-02,-3.273412795215515248e-03,6.049700059881706060e-02
-3.997076158137189555e-02,7.613647535161141393e-03,-1.307422738941851903e-01
-7.670735061852172743e-02,-1.131299173621414141e-02,-1.487887009526216719e-01
-7.657972444899369124e-02,-4.107972989166091583e-03,-1.505061875517040848e-01
8.870640792485648407e-02,6.450857297295876230e-03,2.090324583794187507e-01
1.672947646090989504e-01,-2.217350100579282626e-02,3.482201854583252820e-01
-3.945918599670888982e-02,-2.080336189148172289e-03,-7.204476857486778740e-02
-2.162372382969866835e-01,6.841338330377904481e-03,-3.801903332630415799e-01
1.314594402429419273e-01,1.238101306471452731e-03,2.565390712747300239e-01
-8.848273111342008779e-02,5.516452250730295714e-04,-1.820791237311362165e-01
1.752894155196711434e-01,-1.378851048198644590e-02,3.277929760603577325e-01
-1.811581896960277882e-01,1.544527590759202547e-02,-3.354782518804029778e-01
-1.902691476128685333e-01,7.913292841930590071e-03,-3.321725436487736327e-01
1.705596165267891651e-01,1.287626143088289312e-03,3.326154450443687405e-01
1.818154553505666599e-02,-1.704448356726104633e-02,2.641422458294826955e-02
2.103256685197358034e-01,-2.509434597381464058e-02,4.297439523280691120e-01
1.681600675524552724e-01,-1.900286938407598535e-03,3.279590572542807059e-01
-1.402277964609850991e-01,4.747601816747265904e-03,-2.690471273131466723e-01
1.002355902255890746e-01,-1.294399899004868536e-02,1.859509947730589585e-01
-3.408622640533036374e-02,-1.084500131345056059e-02,-8.645901224889353254e-02
5.382145940341841878e-02,6.414201085536479392e-03,1.185001550254974056e-01
1.164201702013801729e-02,-2.353436250948919722e-04,3.422720908405297441e-02
9.851381558786696802e-02,-1.177572196811444739e-02,1.625821541565225237e-01
-1.782092561105650674e-01,-1.318756553443515547e-03,-3.459344444024126664e-01
1.666582700617895429e-01,1.478788292574034595e-02,2.739897176961011427e-01
-1.805677245392331431e-01,6.047917263993079877e-03,-3.072325375585170382e-01
1.391045971249176005e-01,-2.780973969020993086e-02,2.552070174174490558e-01
-7.168059865121141627e-02,-6.763109700481899703e-03,-1.660212593531176783e-01
7.479183146365034340e-02,-7.394084844827395961e-03,9.974207063998882794e-02
-1.175885830865169429e-01,-4.353790146145723738e-03,-2.165188560169195031e-01
-9.503909330693838253e-03,3.516315534121118754e-03,1.502603949573892532e-02
-8.778955074035463269e-02,1.457324669574583051e-02,-1.384148100501287337e-01
-1.631043874650843772e-01,1.973748725679640853e-02,-2.875002611939289632e-01
-2.257596764229022890e-01,1.881644457884407151e-02,-4.061786117298510357e-01
-2.187848173906564997e-01,2.060998994950710358e-02,-4.483207524425225632e-01
-2.521936167043213883e-01,-7.322027383862670866e-03,-4.290416429699782652e-01
-3.276999578721747491e-02,-9.223687401150806528e-03,-3.431677132548108938e-02
1.792288862548905570e-01,-2.391324414401076615e-03,3.612574489671194766e-01
2.024996540727952710e-01,1.426875249471467634e-02,3.668615606798429352e-01
9.698610580932938430e-02,-1.215730206449309623e-03,1.763921109491694006e-01
1.055367545682104518e-03,3.794566235888538388e-03,-1.045672275601479753e-02
-7.305348723427618207e-02,-9.515954576824718278e-03,-1.473403213978092541e-01
9.242909727549027121e-02,-1.277052379340771343e-02,1.537291189793244528e-01
-1.092879273799264722e-01,1.311844340519178337e-02,-2.244712977585523184e-01
-1.525890746983620538e-01,1.120891713319120686e-02,-2.993838254596212223e-01
-1.093893716727095677e-01,5.811501751102833742e-03,-1.987250248579179035e-01
3.653519915606282670e-02,-9.556797535510896599e-04,6.304860430740352739e-02
5.018950289023640932e-02,-1.074883659726818055e-02,8.839487769264932349e-02
-1.000110071135263401e-01,-8.807982252427361573e-04,-1.729085707019917817e-01
1.703129195425800713e-01,-3.461065001264422743e-03,3.420941823896276879e-01
-8.975772901100818879e-02,2.304283899986635936e-02,-1.860797736682529568e-01
2.381976080369310467e-01,-3.187849178563403885e-02,4.075397454927224272e-01
-6.765472231845051643e-02,1.398540244718418299e-02,-1.412249627409896402e-01
-1.485536856152848695e-01,1.619341225549187496e-02,-3.042427441488607109e-01
-5.574442171837608317e-02,-7.226133593248398358e-03,-1.367924916544090708e-01
1.380201053023684954e-01,-1.853100963853748784e-02,2.395109247367054606e-01
1.232652031947290977e-01,4.532695109211253535e-03,2.260725443225249653e-01
-1.512217192102277563e-01,-1.046965444947256865e-02,-2.417525045455800048e-01
1.847144479787971028e-02,3.741341081463733353e-03,5.817175817956404121e-02
-4.670295333022216056e-02,7.544147093441947935e-03,-1.094032336774567460e-01
1.896411992494968224e-01,-1.358682828018180182e-02,3.516936351658589976e-01
5.026766993268848294e-02,-3.227413852001136466e-04,8.479745545589131850e-02
-4.830609894932351434e-02,3.709622743493027654e-03,-1.134748196388575131e-01
9.090454667553789225e-02,-1.113759033118504223e-02,1.709846543675586916e-01
1.009191990600355610e-01,-1.038996920402012955e-02,2.007042081463761563e-01
-1.646463057863279955e-01,1.831324754581304531e-02,-3.437370383838386778e-01
1.159984317724501168e-01,1.766126369039472052e-02,2.356068756741849513e-01
5.337418003170461139e-02,9.700952659201990402e-03,8.761339847476654064e-02
1.693403503264839238e-01,5.116366276384596429e-03,3.594079222575693455e-01
7.089585575808832196e-02,7.248795300385853062e-03,1.468446489456713411e-01
6.070449565581939599e-02,-9.006394811622065594e-03,8.895948402092181129e-02
8.605143805582768368e-02,-8.322617764654387587e-03,1.680445252087522379e-01
-1.495695038274052202e-01,9.986983441646812495e-03,-2.734353117177202863e-01
-2.075104458905277505e-02,7.544695725864927760e-03,-5.308647898756656963e-02
-1.463343581768821247e-02,-6.534399366896656916e-03,-4.235003865498389308e-02
-1.977815981669421852e-01,-1.064931192231125196e-03,-3.705717626785396956e-01
1.674592152301880854e-01,-1.629258504841596400e-02,2.829895369263267235e-01
-1.549788383257850455e-01,-4.427416620318744278e-03,-3.057312705963129984e-01
4.742852765067701037e-02,-4.336237450078678918e-03,1.121716702075375577e-01
-1.740395769924630576e-01,1.168463446963940696e-03,-3.470779586219898127e-01
1.654382461965963128e-02,8.580887070411383905e-03,3.207356570576111714e-03
-1.708511854922833417e-01,1.151565867939056140e-03,-3.485724959002803880e-01
1.916864276722187732e-01,-1.340995928321449780e-02,3.739290577498711188e-01
-2.019790102391136877e-01,1.395198459686296027e-03,-3.977965857819535378e-01
-1.081627763356448613e-01,-5.651477039567428563e-03,-2.265240423886749344e-01
-1.472209593339282308e-01,1.671972641390242348e-02,-2.345036553743282681e-01
-2.333314196276195518e-01,2.880047815324872015e-03,-4.327305230683006210e-01
-6.910393246909118936e-02,-3.311693292086535616e-03,-1.397739376425016777e-01
-9.742253634829815823e-02,1.627534106733555599e-02,-1.857184366721214286e-01
8.375854030162650440e-03,-1.797282148999209545e-02,3.217496082948276964e-02
1.438511643378057314e-01,-7.984523000028559067e-03,2.684748938961352138e-01
-1.187110272420184853e-01,-3.976038704871408085e-03,-2.154152014010768668e-01
-1.024362976461659219e-01,-9.686766469298484922e-03,-2.165417324378484387e-01
-9.021609504584118810e-02,2.125263682938655779e-02,-1.887218602618194463e-01
2.259256016085749719e-01,-2.243024528051514727e-02,4.292145932193048297e-01
-8.371128930802861079e-02,1.848058604672045413e-02,-2.180019217861290659e-01
-3.106846030638340389e-02,-9.570795054217371908e-03,-6.653315460262727854e-02
-7.178472526358210468e-03,-6.281077235243527276e-03,-3.534754443855390310e-02
6.153636574721567387e-02,-8.233346722050420216e-03,1.275767678763685964e-01
-1.713318310290195823e-01,1.153657266958051618e-02,-3.121847117413608652e-01
1.434499526569830985e-02,-2.419166202506161517e-03,2.155282847165916268e-02
-1.193696833771189514e-01,-1.082901256493112819e-03,-2.438746455746240993e-01
-1.285676598022550965e-01,-2.829455963714887223e-03,-2.234263637880274933e-01
1.356956297114415011e-01,-9.688693315451364640e-03,2.506548934458901479e-01
-9.099965336334173843e-03,2.470934194251871684e-03,1.836823663637704093e-02
2.018807424155031061e-01,-1.592152516439895166e-02,3.718515117903768985e-01
1.677337315070301094e-01,-3.543679707819637637e-03,3.024534791539302270e-01
-1.766367915471499517e-01,4.394601222297456200e-03,-3.141195443941121046e-01
-6.852760151902810570e-02,8.808904940483336388e-03,-1.237685888269168116e-01
2.139362894743742360e-01,-2.105236851529276865e-02,3.555772334456184236e-01
-9.998734868617211585e-03,-5.453885722999944532e-04,-2.217561084712289451e-02
-1.619139154175290307e-01,1.745301261527166387e-02,-3.358341193254225088e-01
-1.006066461974127885e-01,2.071450721511785761e-02,-1.728950576167024578e-01
-3.374074020604320157e-02,2.359933893896157611e-02,-4.606915488606318221e-02
3.437415149587832314e-02,6.968998686441281107e-03,4.551158092223275137e-02
-1.149402729942447104e-01,1.592308978948421148e-04,-1.851517249882509708e-01
3.302352269071427010e-02,-1.378939951782979893e-02,4.691612215810283398e-02
-3.111864169981969422e-02,-5.913196596396072188e-03,-4.348405611008784172e-02
-1.119501891843377173e-01,1.153314398994280919e-02,-2.262051275412181595e-01
1.854937882356139101e-01,1.071018713494820223e-05,3.335242867589696680e-01
-1.369426731991594259e-01,-3.724842306659053963e-04,-2.582337496700530255e-01
1.971854155744472755e-03,6.887431061684409599e-03,-1.808802448167455210e-02
-7.549929360410979895e-02,-8.962206232294397598e-03,-1.422954756172346846e-01
-1.642733118795628930e-02,-4.183942635941325164e-04,-2.398093698079399941e-02
1.340384686496629285e-01,1.365480683353233714e-02,2.283378517679693909e-01
1.749128875876630462e-01,-4.046339574171904825e-03,3.138122112984608192e-01
2.230543405172236981e-01,-4.613805074483769315e-03,3.894251617953170541e-01
-2.224678110807505604e-01,1.477214664967074591e-02,-4.235515886186295154e-01
-1.756282652300831248e-01,2.740681615182775834e-03,-3.223309216978645919e-01
-2.374168469146154259e-01,8.123805510558655685e-03,-4.545911990712664941e-01
8.835515800830225433e-03,8.168597509994952183e-03,3.197329471162702746e-02
-2.326136744419094737e-01,6.108302916289980004e-03,-4.166176452620852788e-01
-1.110478500661430529e-01,-4.782093839149945992e-03,-2.429864883441260615e-01
-8.661436327824731385e-02,3.781185759270825958e-04,-1.827467741507527443e-01
1.051692389069199957e-01,-1.591439000828642108e-03,2.138247844913298001e-01
3.410361452329330190e-02,2.570042890486346041e-04,4.664623105834921069e-02
1.143207527768648653e-02,1.033854809059209581e-02,5.233792126901319619e-02
7.156056773869606813e-02,3.895492194613290292e-03,1.082117662661760404e-01
-7.902952609547021778e-03,4.386828830158364528e-03,-5.351489966523475389e-02
-1.859936662882550329e-01,1.082794632285985666e-02,-3.218438653022109852e-01
-2.454223674355292956e-02,6.296146231084947913e-03,-2.451419378300348506e-02
-1.624750023240952718e-02,1.688215066664330811e-03,-4.904209003916128878e-02
-1.138178426813296201e-01,1.687444422502745386e-02,-2.144951430306349383e-01
-7.401519935121217419e-02,3.213508976796201552e-03,-1.377964621237718068e-01
-6.048374792113168225e-02,5.037224775094387846e-03,-1.299906398175693922e-01
-1.511190378601981639e-02,2.887352392170767796e-03,-3.944440813582417854e-02
-9.764049342309058521e-02,1.100060194053338603e-02,-1.919357666083246483e-01
1.029422818140123264e-01,-1.146611848958900733e-02,1.770021930742800842e-01
-1.169327753160231687e-01,2.025256433135129430e-02,-1.853197443443180270e-01
-1.134806254490516864e-02,2.097776613931199435e-02,-1.964273989897286771e-02
-6.867231975471042860e-02,6.919282889191486624e-03,-1.341132523004631705e-01
5.876019351349193870e-02,3.025759931347728367e-03,1.115128457044276405e-01
1.708038379963636721e-01,-1.077785037875228502e-02,3.141091761700009477e-01
-1.448799378562120876e-01,1.718688594594384653e-02,-2.738023446499511238e-01
-2.053645741788608370e-01,2.476890636307785276e-02,-3.923481086815883145e-01
-1.418041589392452506e-01,4.969491177437742810e-03,-2.550628034510740716e-01
1.374144686138412674e-01,-1.777721434974673456e-02,2.527269075234557794e-01
1.967677418694214336e-02,-8.742462756123598952e-03,5.862504733669733625e-02
1.590943635752825949e-02,-5.634467997729444844e-03,2.406153083420107391e-02
7.360801866389392323e-02,-1.385192538258600038e-02,1.573379532082311572e-01
-1.121720490350237992e-01,9.425033473480814647e-03,-2.164424992585010088e-01
-8.535583674448282698e-02,-2.338984687954740252e-02,-1.769055379501772163e-01
2.018576768999743865e-01,1.964694158289681178e-03,3.753297409878455504e-01
2.040385327735991516e-01,-2.023543470187037091e-02,3.849595879269174792e-01
-5.650682220778814602e-02,-2.693314786410172697e-03,-9.779161164343051771e-02
6.952554360023836810e-02,-1.097238597659537518e-02,1.334762178292533963e-01
-1.509269435820602967e-01,7.746949031607541607e-03,-2.917115751209379826e-01
-1.933139024197161604e-01,5.290084073043107606e-03,-3.673435382759239198e-01
-1.346496912126981804e-01,1.582756213338688475e-02,-2.620302393651770534e-01
1.765885461204947937e-01,-1.341785414345587207e-02,3.168311277103406098e-01
2.949931241415724992e-02,-1.969085138693896578e-02,8.183331301553836701e-02
-2.339724879524142723e-02,-5.150239075663322862e-03,-1.956431382352777359e-02
-1.014305621791439654e-01,9.893638266265915304e-03,-2.005777964097483490e-01
-1.806108666031464860e-01,9.506666841230858940e-05,-3.172491246974062928e-01
3.713614375571590992e-02,8.639023344517667014e-03,9.096947273633618214e-02
9.116230263468372286e-02,1.565488554315793562e-02,1.982413468303785842e-01
1.228563322437832422e-01,5.071626047789309054e-03,2.096609294991622907e-01
1.264769271205908319e-01,-1.154993187445468167e-02,2.473297383331161114e-01
1.028226457970955743e-01,1.296319507209967373e-02,2.012825276247783013e-01
-1.662156291981522205e-01,2.878792237412487048e-02,-2.841480646092054974e-01
-2.169508075466623775e-02,-1.018332811177901157e-03,-3.744064771650727763e-03
1.664770614631595758e-01,1.227327402498050446e-02,3.026867653550588400e-01
5.446067293222615902e-02,-1.996512646026931802e-03,1.118854508865273489e-01
-1.578509824757131919e-01,7.541484591044571133e-03,-2.810453759872611479e-01
-1.748382863945655008e-01,1.261608432528784317e-02,-3.347674589574143877e-01
-2.099525592321563675e-02,2.929093891244206709e-03,-6.336760150204479025e-02
1.115209121770609491e-01,9.739541441923816332e-04,2.140402557415452822e-01
1.867314442939075336e-01,-2.548684060203285084e-02,3.608846420271984434e-01
3.297167845104077843e-02,-5.417227687344448005e-03,9.465763805476111459e-02
1.150994889312673131e-01,1.182057081847983715e-03,2.322076497823559460e-01
6.575352955048750780e-02,4.350512367261086949e-03,9.763791591826694038e-02
1.517258433282752950e-01,-7.775168795971603569e-03,2.840540766980511611e-01
1.132423976580955449e-01,-6.665839272033656678e-03,2.049281442440799017e-01
7.189759294667524836e-02,8.158716179422797685e-03,1.376696910141596564e-01
1.150740613356958791e-01,-1.352819031068828656e-02,2.029396637536040049e-01
-1.834465897061320072e-01,2.647267076249024912e-03,-3.563742134758019486e-01
9.768270755427396757e-02,-8.909950336568750115e-03,1.585535944467954261e-01
-1.988125751115191742e-01,1.571057921956120138e-02,-3.647987475525074075e-01
-7.289882662722824147e-02,4.023965680053525652e-03,-1.287529390647195460e-01
8.589165846983967678e-02,-2.058152994241291972e-02,1.867358423161608050e-01
8.858005605514768233e-02,-6.900313364156746357e-03,1.923084150239165180e-01
-1.141099110434581204e-01,-2.002920847309899374e-02,-1.941658996553671801e-01
1.512117192871491322e-01,-2.000943085749009448e-02,3.170652320374849897e-01
-6.355842020116753144e-02,-7.082848889854745540e-03,-1.211885855287758718e-01
-3.894884758441186784e-02,-2.149127885781236189e-02,-4.641239495500078249e-02
-1.911407383570362384e-01,2.188170357463239263e-03,-3.391227587849794944e-01
4.490037242915075749e-02,1.716996199118537778e-02,8.232861908429869868e-02
-2.818431770693234292e-02,9.383616652757945792e-03,-4.738669937869999932e-02
1.691482030231868938e-01,9.679984438581272846e-03,2.939117196997318993e-01
-1.814195755483903605e-01,1.024649066485175397e-02,-3.216259961180222837e-01
2.031820245783283463e-01,3.887878202939812084e-03,3.687153763890472224e-01
-8.364098127180391584e-02,7.822277209526549632e-03,-1.216197138283149487e-01
-7.218828141643091056e-02,-4.626101719047624912e-03,-1.455984789383230615e-01
-1.546009634341329996e-03,-1.207021240325376402e-02,4.258993694395147439e-02
2.100008865390234625e-01,9.293980336146985544e-03,3.867593402434337246e-01
2.037632780740483429e-01,2.835182124248073095e-03,3.807187652921893983e-01
-6.795194169659903027e-02,-1.755593430269584976e-02,-1.624429582575730724e-01
1.674593340646902129e-01,-1.758581109898923328e-02,3.086945097616253797e-01
-8.272738839068741190e-02,8.760864215343189612e-03,-1.202660763852365922e-01
1.397131700151532825e-02,1.122908514772260995e-02,2.919178363821556960e-02
-2.254987158608430520e-01,1.250766169708590614e-02,-4.256195797874915421e-01
-1.546296369504341628e-01,1.161260211655172625e-02,-2.706432503125488220e-01
-1.993335190663820533e-01,-7.090433801591227575e-03,-3.613652359133862624e-01
2.147318982297881026e-02,5.508206987090568871e-03,3.753135507675475074e-02
-1.298437352089106822e-01,1.304892772016639189e-02,-2.730369884488872412e-01
-6.016587376107830620e-02,1.374607584424506271e-02,-1.057997084685741301e-01
-4.574378719970293578e-02,5.267029247937693275e-03,-8.622926876235909033e-02
1.071415823110329416e-02,-1.889321648222967720e-03,1.769678107577639381e-02
-6.102522042334072166e-02,1.255884477962975095e-02,-6.438560443794437427e-02
-1.936505074453606645e-01,9.193023180494605193e-03,-3.752072710251910803e-01
-1.040592877196437060e-01,1.450275904636329216e-02,-2.057879961179887307e-01
-8.218894506215217166e-02,5.360701402235414081e-03,-1.523214925123249075e-01
1.474828687002743000e-01,-1.576124384086914978e-02,2.473047492088539245e-01
1.996871286053733263e-01,-1.887667191065198896e-02,3.788483735743763403e-01
-1.689776139818158773e-01,3.483437279984743368e-02,-3.237048032425837718e-01
6.250748131327719948e-02,-1.689351717020099244e-02,8.008257136818495991e-02
1.367702937131142493e-01,-5.952023334454732868e-03,2.403407491423580067e-01
-1.967114812744478192e-01,2.812352812129926063e-02,-3.619316099289598965e-01
-7.289899095642363158e-02,-5.490860132299409460e-03,-1.204855489375525057e-01
-1.891371571719832612e-01,1.654860456492954213e-02,-3.628710504378347967e-01
7.009905767335115889e-02,-1.621914448900439384e-02,1.195822715816978049e-01
2.391452373563530964e-02,-1.251077213843712448e-02,6.864959234252497600e-02
1.330707109442664793e-01,-1.814232967194304158e-02,2.556633704649606820e-01
-1.543483261190171096e-01,-2.222387120325496675e-03,-3.090105010092250026e-01
-2.108274897446643370e-01,6.924891463125092822e-03,-4.162025429702711499e-01
8.888925628621043018e-02,-1.504929816218532161e-02,9.901083960306387988e-02
-1.294639844797313699e-01,-4.872894268093002669e-03,-2.336565899816064329e-01
-1.934794228244983705e-01,2.550974048589150622e-03,-3.595957385072254819e-01
2.135843669533476763e-01,-1.348556694711853035e-02,4.303220242507175830e-01
2.328576350254467631e-01,6.269543526392099865e-03,4.216621758980469981e-01
-8.141247695633209436e-02,-4.949810078733086907e-04,-1.013711805909019853e-01
-5.607983674691652959e-02,3.497239486970523011e-03,-8.138570837744249498e-02
-6.419753835652369789e-02,1.295126036632551769e-02,-1.369172550457909143e-01
-2.201753051458376076e-01,8.700215756657248001e-03,-3.976456198177896750e-01
-7.947487361918469106e-02,2.434421832823610923e-02,-1.187971426485493476e-01
-1.902238161966944285e-01,2.669749638510902044e-03,-3.445304749547012935e-01
-1.669967455589418601e-02,-2.203632594654841848e-02,-1.159482815968375727e-02
1.738023143143094251e-01,-1.798261106127168468e-02,2.873781167542250881e-01
-2.381585964396595589e-01,2.092049905265267601e-02,-4.277268373666382462e-01
2.447408617265407482e-01,-2.172109233735795494e-02,4.266904369163286304e-01
-1.516147982618313295e-01,5.130944056830614129e-03,-2.527351870077271800e-01
-1.505221610025422596e-01,-4.706221834350623329e-03,-2.639785724314587800e-01
1.809261530754164779e-02,2.337244472412778121e-02,5.635259804511603965e-02
1.796998263377516392e-01,-1.791895857377816259e-03,3.642986925587837765e-01
-5.713381123050748772e-02,-9.026640757096863338e-03,-1.153780319900642726e-01
-1.725576852474475509e-01,1.060015902142508702e-02,-3.142587913476998507e-01
1.205629868283673300e-01,7.987415923034700202e-03,2.006255447226202582e-01
1.172199937088024002e-01,-1.707856716387954818e-02,2.585208605108836877e-01
-1.117388853931568643e-01,7.372500900995883517e-03,-2.044492612009890797e-01
-1.134834852852447118e-01,4.533488714097923603e-03,-2.282948729593918535e-01
5.209673219533510029e-03,-1.958977573536804621e-03,7.653867580355844073e-03
-9.508006161805888923e-02,-5.349465030598094667e-03,-1.591014165283804460e-01
1.032915933949461740e-01,-2.660257862164168690e-03,1.759502400131366107e-01
-1.237671368121606996e-01,3.832086068897183270e-03,-2.326648725195398504e-01
7.852260831691149079e-02,-2.411520667430816240e-03,1.120718965105254872e-01
9.955920345249054393e-02,-2.442855730261719871e-03,1.988525753068993152e-01
1.839817036604795286e-01,-2.005648638582245569e-02,3.468820265287188009e-01
-1.660071832649492596e-01,1.860554516185345536e-02,-3.439532954318566538e-01
7.108565017903169247e-02,-8.215376305941100507e-03,1.361147678473781930e-01
1.152778641284320643e-01,2.688824364882775285e-03,2.245003518824511546e-01
-1.763690904807999060e-01,1.769441580080757456e-02,-3.379911171046418583e-01
-1.807999835203244476e-01,2.188853590061660276e-02,-3.843221414239406108e-01
-2.312665984782067419e-01,1.773230684334291957e-02,-4.170556169910455413e-01
-6.636341493882404186e-02,9.319699232330487179e-03,-1.458877089302586805e-01
2.190697215286181720e-01,-2.212934540957829047e-03,4.047185253396198834e-01
2.238262394257612420e-01,-1.195641090062815604e-02,3.963216374209907467e-01
-3.262278413938057842e-02,1.874309928428866470e-02,-8.075352950325509482e-02
-2.385798313376259472e-01,1.281018204487197401e-02,-4.304041887871668526e-01
-1.466235824948731725e-01,1.541785434414680550e-04,-2.659123181064368402e-01
4.336201516543904816e-02,-1.787384451656022152e-02,7.349577785995221879e-02
-1.378573961386459212e-01,8.402399595194423110e-04,-2.386568448469649217e-01
-2.141832055018886433e-02,-7.835885367332922442e-04,-4.183958987074693631e-02
-1.599324920348637324e-01,1.932615633793205098e-02,-3.090996437743010472e-01
-1.714635697325470609e-01,6.410737693363595391e-03,-3.456988676627843482e-01
-6.434412014862836426e-02,2.104725866568158896e-02,-1.091774560435754271e-01
1.839145565432626431e-02,-3.073069906128618467e-02,5.072823224648842499e-02
-5.302850129996933976e-02,4.552317645315017737e-03,-8.851545890256898308e-02
-5.323524827203157672e-02,-1.747741413456348203e-02,-8.402911331233439696e-02
-3.423900761945450344e-02,-1.347470744375534914e-02,-7.853221555038336632e-02
9.132403962616802984e-02,-1.882302795049985156e-02,1.627536034476360083e-01
1.880184182527248615e-01,-2.394607582886552552e-02,3.761530314160150823e-01
1.832209720007382525e-01,-3.253406910158082935e-03,3.467638689776991190e-01
1.383210189187936423e-01,9.142247430490635157e-04,2.869065885231795177e-01
1.323787706938600872e-01,-7.005154726253831794e-03,2.071506699358211800e-01
2.469635465361703919e-01,-1.349461109288850776e-02,4.211881830302414698e-01
-2.125512009722362039e-01,1.886771513452063787e-02,-4.041176602294229148e-01
-9.050488959099577124e-02,4.156654977209741156e-03,-1.601486298232916161e-01
1.051492645044689173e-01,7.273816127698213771e-03,1.604598658482842832e-01
-1.762655791743944142e-02,1.132913546682355350e-03,-3.776505809613464604e-02
8.690543492171538820e-02,9.911544798648329324e-04,1.498852371538160755e-01
-5.775115395947591490e-02,9.919264376872015052e-03,-9.797958172576505531e-02
2.861190948294238534e-02,-4.972365737762304665e-03,3.742456455155498962e-02
-1.954181891952652406e-01,1.308205059946662523e-02,-3.667150517355317052e-01
1.574561782718061909e-01,-1.135865392079009675e-02,3.365758802031931785e-01
2.225043085602930459e-01,6.039078423012838974e-03,3.984956814949959236e-01
-1.802268903923372190e-01,2.255243624801313643e-02,-3.283726482369588306e-01
-1.422106957555861195e-01,1.359865728839486365e-02,-2.723095941425995870e-01
3.393324633852895511e-02,-7.224005995705252980e-03,6.695417904424103006e-02
-1.425121182498033101e-01,7.128464000676393991e-03,-2.480582808586515309e-01
-3.085771688891052536e-02,3.287118626580263700e-04,-5.542473052487358054e-02
-9.121677524740290366e-02,1.088118582021721731e-03,-1.652958461382822986e-01
2.147173805688214199e-01,-1.041600396492922340e-02,3.690537158309256105e-01
-2.368503311024688640e-01,-8.877021450815756817e-03,-4.015303603871874794e-01
-1.904455141539341534e-01,1.150081583546248495e-02,-3.496351537154038791e-01
-1.396275083766758962e-01,-3.138208043700209653e-03,-2.379780060900698879e-01
-9.711161978153823315e-02,1.209051289857786607e-02,-1.771636719678422733e-01
-2.086298940894958376e-01,2.386728455328476772e-02,-3.834552708352367834e-01
6.303663708333436325e-03,4.451310648998028918e-03,-5.713717552992257122e-03
-1.635782778377124769e-01,3.600416870837615940e-03,-3.296414054253566372e-01
1.455589558937127326e-01,-1.454464592214163923e-03,2.824261508663767350e-01
-1.343547007741491273e-01,-9.900244776704038210e-04,-2.143921917254107412e-01
-2.055386753322438476e-01,1.372548989062920667e-03,-3.442425226774737390e-01
1.072802644250882009e-01,9.302281166597375570e-03,2.165718115971456414e-01
1.920568388989653819e-01,-1.824099172175702721e-02,3.560759226314613168e-01
5.884597545304973143e-02,-2.912539970421437231e-03,1.218512717994545552e-01
5.851488044310810405e-03,7.509724180839872330e-03,4.248934408348113007e-02
2.510539189838017354e-02,1.109259589012047062e-03,5.249217445768485091e-02
1.782390283870857739e-01,-1.329937897225185774e-02,3.481582241292023872e-01
1.591558824133755545e-02,-9.636187766570504173e-03,-5.584317948348458023e-03
1.957807284730884723e-01,-1.066064319681186978e-02,3.674670478398262552e-01
-1.666883423476783754e-01,1.089181189562362165e-02,-2.919090231441980876e-01
1.426240449836904400e-01,-4.977892736600744196e-03,2.347667461150088619e-01
-1.779347825911674619e-01,6.064561866229607572e-03,-3.403307734679938412e-01
2.396489361785396344e-01,3.493839783715900222e-03,3.994307320916380966e-01
1.195459654714175340e-01,-1.050418003141984080e-02,2.449362453217823199e-01
2.406634608207996323e-02,-1.361511434683750944e-02,5.513527840178920197e-02
-2.364783107572097642e-01,2.825896483915401290e-03,-4.446154137852890154e-01
-5.474409034577300270e-02,-5.675101302290949321e-03,-1.175340190825177322e-01
1.421500850877715216e-01,-9.879382275227468341e-03,3.261296197914618777e-01
-8.478765433650661820e-02,4.906575847948109990e-03,-1.499710144323979089e-01
-1.102443601290785252e-01,-8.169529516551112674e-03,-1.700905327998809280e-01
-9.522084653178074232e-02,-1.092348079799348917e-03,-1.959448066291483437e-01
-3.633467466660760675e-02,2.443979458110227907e-03,-5.289832273768425158e-02
-1.828749786151840084e-01,1.905657225175503428e-02,-3.390875094968906489e-01
-3.497918672502473708e-02,1.292408505418004248e-02,-5.217466324224689228e-02
1.532831670281990522e-01,-4.176044064238619048e-03,2.861245343131018082e-01
8.991574532304962009e-02,-1.249012550709501304e-02,1.664539578765912020e-01
-7.937298007908977215e-02,-5.347448198719068849e-04,-1.620139246556947521e-01
-1.950509548842835339e-01,1.726547191264251116e-02,-3.877258383621987048e-01
-8.465098958806968610e-02,5.119658029280488645e-03,-1.709541044796681897e-01
-8.197173064094005757e-02,1.734537324621649584e-02,-1.479770397883808930e-01
-2.229780539721662458e-01,1.127907233590183696e-02,-4.294475276706000155e-01
-6.686218688552386658e-02,9.048746927083501854e-03,-1.018310701348972697e-01
2.124961765053610396e-01,-1.566858416311691510e-02,3.948968382806946620e-01
-2.889874666859626809e-02,-1.203702625724534410e-02,-5.438056016691663469e-02
1.889300152068920310e-02,1.244373552892817994e-02,5.060045929912540541e-02
-4.465584944323875566e-02,-2.958722649326717396e-03,-9.771494680918993425e-02
-1.810702696831376357e-01,-6.833240795527403474e-03,-3.688907519850718186e-01
-1.313855151414028144e-01,1.799393231578151620e-02,-2.613505040142978797e-01
-1.153995403661158131e-01,-1.384642899210058141e-02,-1.983603277274106902e-01
-1.429100870624385455e-01,1.181502716243455764e-02,-2.740104026742907761e-01
1.993484843769470216e-01,-1.675899246438494403e-02,3.844855984609773514e-01
-1.811526165266819643e-01,9.397369598287104789e-03,-3.569236639522868626e-01
1.554478570465908094e-01,2.851480959794529865e-03,3.046693607638158996e-01
1.991264486388792943e-01,-3.050086420469496924e-03,3.901536256072016262e-01
-1.919292713164269804e-01,5.451140619930439600e-03,-3.452104429691910115e-01
-1.972869438365286443e-02,-1.176373753472039971e-02,-5.584468828749225566e-02
-1.968254899435677441e-01,9.127207549582306775e-03,-3.591812420999360156e-01
3.254363873828020710e-04,1.732155154350377424e-02,1.771971482718770127e-02
1.128374716892778518e-01,-1.100321509113495397e-02,1.988673955878064725e-01
1.977410516134659180e-01,-5.458027587943180313e-04,3.756892050994807830e-01
1.347142723675925045e-02,2.350559019746196760e-03,4.554864037263429283e-02
-4.277020332083582982e-02,-4.956464910456985680e-03,-6.204677291529622774e-02
1.776931125698167080e-01,-4.981314609319204174e-03,3.373468865812916939e-01
-1.217544954761855674e-01,1.542821293907413981e-02,-2.301151115424855675e-01
7.348782946548881867e-02,-4.842392734186649027e-03,1.395501457812446944e-01
-1.760688492418933104e-01,1.938838571585876913e-02,-3.745689007692652450e-01
-4.780950966897391102e-03,-2.977240878331433548e-03,1.877090056437289919e-02
1.294899613057533538e-01,-1.219567489257403041e-02,2.438237019781852033e-01
-8.481597114202704679e-02,2.760380504310256528e-03,-1.368266060581271593e-01
-2.132930180595118685e-01,1.487737738774176470e-02,-3.705889137760026153e-01
8.688895854646215555e-02,-9.220747447278784814e-04,1.741488924077604639e-01
7.978932375718447711e-02,6.196564571980178390e-03,1.639909072296626136e-01
9.738377097152964290e-02,2.875033025600395864e-03,1.897397755518496487e-01
-8.612016006141659519e-02,-1.192290491260582404e-02,-1.527098703719684258e-01
-8.621092208738551088e-02,6.005459427777865532e-03,-1.719434519852188481e-01
2.400769519896370219e-01,1.026489089492818325e-03,4.341952875774860443e-01
-6.171692375656949447e-02,-1.113857619245716551e-02,-1.203219804678593435e-01
-6.543414917782144902e-02,-1.046067906139053379e-02,-1.039254894754127467e-01
-1.614271252814169361e-02,-5.005996404108353955e-03,-2.352363903742342791e-02
-1.504507665701251551e-01,-2.405687221361107932e-03,-2.778177449607456828e-01
-1.565193769878574781e-01,8.679873097166903055e-04,-2.951707330497629900e-01
1.841750535826194024e-01,-1.090091644494840632e-02,3.438039905890901693e-01
-1.166574426946536958e-01,1.627256933664086511e-02,-2.226745026123211901e-01
3.567030658193869053e-02,-5.234078954543360668e-03,8.371950275997711022e-02
1.870201303343040911e-01,-2.157299155000999558e-02,3.736639377570070142e-01
-2.650332229231064721e-02,-1.309861778655051386e-02,-4.684858133743205477e-02
-1.832752399726581272e-01,2.080500350353500002e-03,-3.721857139558195082e-01
8.597322467274681745e-02,6.710482110942075223e-03,1.590849177420026184e-01
-9.276781577742854168e-02,4.518412845234308188e-03,-1.813719877095684718e-01
1.628187919234311554e-01,5.825214676780896515e-03,2.879489734735622419e-01
9.972025991596225949e-03,6.082173539329985799e-03,9.666527208714451383e-03
-1.055481358776746148e-01,-7.315242215251809010e-03,-2.242735429838517980e-01
6.009537439405158998e-02,-1.480880444364622746e-02,1.150899232583228321e-01
8.161590936302727528e-02,-1.554054584544655544e-03,1.532342688690152555e-01
2.146220319158476109e-02,-1.412053528692505710e-03,2.739968590939407395e-02
-2.452858369185651616e-02,3.201614950891135559e-03,-4.565731458549554533e-02
-1.866938366905450397e-01,4.381596495823510476e-03,-3.972364240737996655e-01
-2.184561077010714059e-01,5.068976635982591454e-03,-4.257469821208708649e-01
8.638695142646232727e-02,7.858374154934186576e-03,1.410337658565472274e-01
-7.722336467275204425e-03,-5.050151482612834364e-03,-1.937730241590645067e-02
1.625439287882290695e-01,-1.451329859816725097e-02,3.162509880451039868e-01
-2.227944903055248116e-01,3.374585673938101764e-03,-4.275979691273482652e-01
6.805029126429229525e-02,-8.737119618841602750e-03,1.254617213724830982e-01
-1.786945468899975575e-01,-2.146591824826209281e-03,-3.412184947281873826e-01
2.118521204831267518e-02,2.714618564833730808e-03,3.859239854246763329e-02
-9.857811374959232764e-02,-3.309306475178421924e-03,-1.827482190815331031e-01
-1.514856883243760333e-01,-5.667237748406810799e-03,-2.314028732825441637e-01
-2.116235059567711518e-01,2.245193731676334292e-02,-4.256369787484049483e-01
