-6.565231265520553583e-01,6.311305693546456208e-01,4.163861281115177060e-01
3.854629452079577634e-01,3.229923385755437137e-01,-8.640639852238907181e-01
-2.288644423432897035e-01,3.065558250303582755e-01,-9.262541550445460015e-01
-2.969061195788767482e-01,7.805386960387133977e-01,5.256530916670608677e-01
-7.408701347875074061e-02,6.341027760997205442e-01,-7.853767166509267872e-01
-7.559898166965581812e-01,5.085637936676263432e-02,6.363338289068034559e-01
4.177038027760447969e-01,4.178275238845758355e-01,7.959582205728850113e-01
-3.653609771992812338e-01,9.332510956469062258e-01,2.583502219068249325e-02
-1.777631536191459360e-01,9.794783488767548896e-01,-6.330012559651541915e-02
2.421886377648361788e-01,-6.921782347036123939e-01,6.678687093597883706e-01
6.269216372391963610e-01,6.253372927740474818e-01,-4.864188276465706284e-01
2.837431328772039088e-02,7.231314448696156694e-01,6.784809642560922782e-01
-6.165613698217184413e-02,7.601872381920896649e-01,-6.533802457369195515e-01
-7.184188578248866808e-01,-6.812722008183045297e-01,6.131819142228854547e-02
4.305551270438841560e-01,8.938117753696146472e-01,8.797539772401190283e-02
-4.413765121940299019e-01,6.096392499458315184e-01,6.819857614656552602e-01
-3.425006279084256700e-01,8.897787007809502269e-01,2.894363674883557169e-01
1.346670958400111584e-01,-7.042829968754868997e-01,6.996659289427140660e-01
9.123204723796476401e-01,-4.068600211649893716e-01,-1.252191708717366458e-01
-4.749890741290278551e-01,-7.851819687693702976e-01,3.710209097115669818e-01
3.387575291984188941e-01,6.834378419933381243e-01,-6.406288300994997797e-01
7.898177420637656487e-01,4.932811957685869775e-01,3.139040649814469619e-01
-4.113079184257041332e-01,8.999205293006856676e-01,-1.393878311992848562e-01
-3.439011067401769733e-02,-4.209079266672479114e-01,9.054737031146924409e-01
-6.832538968747692287e-01,3.925145586923933783e-01,6.034201557318552567e-01
8.330637542439235377e-01,-3.425466485096158031e-01,4.107122570306233067e-01
2.247468137072236860e-01,-9.637223461593118490e-01,-1.546829434744702858e-01
-2.083321809678802816e-01,-7.938326259677254138e-01,5.492985130852657827e-01
4.555019654438756671e-01,-5.720932176273312297e-01,6.800075200533047814e-01
-9.346788488409415452e-01,1.671405699224675356e-01,3.560824494412198615e-01
-4.013592141400688651e-01,-7.965651372870813374e-01,-4.603813045557942907e-01
1.019596952285051553e-02,-3.790687434624727126e-01,-9.020398555585398270e-01
3.580870453302211764e-01,-9.158571844234725257e-01,3.512375298800270162e-02
-7.191778765570870924e-01,-3.303945845866244069e-01,5.994498942559660648e-01
4.678398682350411453e-01,8.578289904114259068e-01,3.250512899757738300e-02
-8.912649629916101768e-01,2.735725567975648698e-01,-3.733546052012255423e-01
6.354766600571581936e-01,1.155653223528049639e-01,7.661410301075814999e-01
-3.814723064607928316e-01,2.424028434579296731e-01,8.703007975562844223e-01
-4.765528713179903453e-02,-6.196819240829427589e-01,7.735665544636282087e-01
-4.996418774857817602e-01,5.226276036131567021e-02,-8.557006910859711324e-01
5.498072815155964355e-01,5.947928293358171192e-01,5.630607049331223246e-01
2.993691953517302884e-01,8.618578339824973789e-01,-3.699672160153481548e-01
8.595091348975097967e-01,-4.512346514581682677e-01,2.738835465722889162e-01
-4.136120178920158486e-01,3.953077309551947249e-02,-9.178722757894702822e-01
8.594732236598241482e-01,4.017645790125662919e-01,-2.663874983299867605e-01
-9.584744472957653638e-01,2.984650619506958313e-01,-8.535968474926833305e-02
-3.704374175137961633e-01,-7.878418203782211471e-01,-5.078539688873014990e-01
-1.617978219146678498e-01,8.848418237381069362e-01,-4.675310513893168873e-01
-1.496910999987193791e-01,8.956931739006466220e-01,3.853466314544725657e-01
3.949270842941151050e-01,-2.882916904850578721e-01,8.567441554379565671e-01
-5.732187300925568191e-02,-6.269554474762191187e-01,-7.716221219071227599e-01
-5.685182224196925205e-01,-7.955766525823871893e-01,-1.697349377608819154e-01
3.938761312736613340e-01,-3.743237697228618543e-01,-8.377640824281730181e-01
-1.000467282423086329e-01,2.072790748178608145e-01,-9.610543212379573097e-01
2.389838604570240777e-02,-7.415748467042784231e-01,-6.840654754896891010e-01
-7.138618624284966130e-02,-6.863578418720237551e-01,7.510880018317446227e-01
-8.701025537198459059e-01,3.516741273273798485e-01,-3.631765334184908767e-01
-4.117801576583840495e-01,7.343186143057213178e-01,-5.026938866164287756e-01
-2.695448842584265425e-01,-6.814453769741641853e-01,6.606098876404853382e-01
5.451740082060313464e-01,-2.895888326727925066e-01,7.946670434750514600e-01
5.191948981658079942e-01,-2.494645778046116202e-01,8.053464883625200965e-01
-5.023146593842819918e-01,-8.281120919678153225e-01,-2.626678160852604083e-01
-9.143782945422589403e-01,-1.592240487666463783e-02,4.076359459818549302e-01
2.153157484609444783e-01,5.362739965833220879e-01,-8.191463790963424696e-01
-3.451145765067000770e-01,9.429291394653415148e-01,-1.382090554636510871e-01
-8.597355843066291081e-01,4.916578360261520397e-01,1.055845857035250523e-01
3.393920850166117775e-01,-7.816022065378268602e-01,5.425732448717122125e-01
-1.827261497899842213e-01,-8.756178369067346701e-01,4.411263615288434359e-01
4.858235834943477327e-01,-4.490493335914288453e-01,7.464261595703212127e-01
3.019856177614685389e-01,3.754870850229440893e-01,-8.997186078939267695e-01
9.808084592371336674e-01,-8.543420691652665877e-02,-1.153690695652263148e-01
-2.788588646297003870e-01,2.849987533082000146e-01,9.102361708550663622e-01
-5.700086418884586781e-01,-4.966149130230085307e-01,6.573402212207827278e-01
-1.765660299728566418e-01,9.578142278968021506e-01,1.244539702621415833e-01
1.409294843087919025e-01,9.341491385343573262e-01,-2.960004657104814418e-01
-5.864066951638039482e-01,7.731671456394394459e-01,2.586305254122515662e-01
4.188498299473965014e-01,9.045780768234183977e-01,-2.513983958388243956e-02
-8.335178255944594161e-01,1.276702948758547673e-01,5.475313207986920450e-01
-4.118496317566849307e-01,7.927908723198948682e-01,-4.565177513598847048e-01
4.160501563622077126e-01,-1.744352670362576962e-01,-8.931757730827669661e-01
6.268649638696306425e-01,6.620685037803492046e-01,-3.670374048985273752e-01
8.201039956826530197e-01,4.736692027828058316e-01,-3.067633672053655669e-01
6.106303678761598741e-01,2.234303577231924742e-01,-7.615015779479293867e-01
9.359998924526833353e-01,1.896987555978829343e-01,-2.933889256991966121e-01
-5.510440414796941022e-02,-7.866582933060155547e-01,6.022924651461845080e-01
-2.097335392098092222e-01,8.537437428714408361e-01,-4.587774266242927723e-01
-4.191918778587054306e-01,-3.863189251890594700e-01,-8.327046079830008329e-01
-1.489728273328554398e-01,-9.601549998314929946e-01,2.498681880646210218e-01
-7.282037175978663956e-01,6.812792354086372182e-01,-1.090257437345914932e-01
-4.958059471067061130e-01,-4.996935787523915651e-01,7.120904118673139216e-01
9.261597587221467309e-01,-4.811099317469287942e-03,4.049679789499747162e-01
1.919626701521778556e-01,-9.761999148546925964e-01,1.206435851179533600e-02
-8.321035352702534915e-01,2.608272737898188476e-01,4.856827626108944362e-01
7.580334137370507985e-01,2.684839030746083988e-01,6.119745599776466038e-01
2.698369701908885365e-01,4.238404479516272305e-01,-8.695601356653440694e-01
5.427014571784625208e-01,5.898171527788126367e-01,-5.946027320813453976e-01
1.282408250962024654e-01,8.590146807448897359e-01,-5.097498138312093197e-01
-5.704189718897774153e-01,8.040675088020590167e-01,-1.477628649250460335e-01
7.462588319891735322e-01,-7.862468098035563235e-02,-6.682179296995126583e-01
-3.812187442769366941e-01,-9.252188866570207892e-01,1.280702465939757562e-01
-9.128719819821818704e-04,-6.566925098657003801e-01,-7.304574969577756205e-01
3.176810134634485139e-01,1.778216328151039916e-01,-9.335934912432293231e-01
6.379008134779377004e-01,7.545132793519163661e-01,1.458107113998056981e-01
1.145398021991701418e-02,-9.737002036100649294e-01,-1.677511791966846688e-01
9.651141595708995213e-01,-8.961083640612937939e-02,-2.343810336467481437e-01
5.059004705975658212e-01,8.458698754468388925e-01,7.421163265686879507e-02
7.249702723219761946e-01,6.349757721125607324e-01,2.481619431969775691e-01
-4.447685604608823118e-01,7.991648439472164300e-01,-4.059001292824279683e-01
4.950080788988045488e-02,8.265511160761571663e-01,-5.451343164145084907e-01
-7.330935941274708822e-01,6.801699033794998961e-01,-1.740025144147777092e-01
-1.326020662281049700e-01,9.969995953078473194e-01,-9.293560260087134484e-02
-3.000207514442790324e-01,7.800498008861488364e-01,-5.375633927314464877e-01
-9.667518261870934326e-01,-4.821410148162413867e-02,2.903918770638770352e-01
7.409513640387026534e-01,7.082947899419540505e-01,7.913236158392590591e-02
6.168268580014490965e-01,5.534717682571479447e-01,5.438760822780660531e-01
-1.945450424942390677e-01,2.556069929403617658e-01,-9.279827934995195093e-01
-1.140670551412562017e-01,8.389582318757761170e-01,5.480982736932851207e-01
8.847335591453886483e-01,9.782862965256546028e-02,-4.418180519894018277e-01
-1.051962685647953449e-01,9.305337038365801838e-01,3.247164808012947823e-01
3.506284463343126157e-01,-6.936118898200865912e-01,6.367887019095335166e-01
-7.395739151469006289e-01,6.280432199344654354e-01,-2.228547273545763707e-01
2.435623719447112256e-01,6.300232050175449405e-01,-7.518638283045120385e-01
-1.284125113893393455e-01,-9.452649820067604569e-01,2.806091436815286722e-01
-6.553923179844519664e-01,-7.387800901935354103e-01,1.700314657879394009e-01
2.685398272910941020e-02,1.644674236454757021e-01,-9.833144550197708833e-01
7.191943330705270476e-01,-6.533782321941380422e-01,-1.500490000594531248e-01
-3.045167262034237030e-02,-8.205533480708193661e-01,5.617439992855945974e-01
1.705959643514851076e-01,9.243146619242680329e-01,-3.660825154172316909e-01
-7.877919912855787521e-01,-1.836017803251479563e-01,5.805987157131010656e-01
-3.246464505884266716e-01,-6.444863159708077438e-01,-6.966374629904150684e-01
4.877157047623423836e-01,-2.728214586778278730e-02,-8.734766560333518948e-01
-5.366724761918514330e-01,-6.687258301856121578e-01,4.987532560186715980e-01
-9.571515407466008041e-01,6.405036432187263817e-02,-2.873510522010733204e-01
6.804968245488525191e-01,3.696850166480217803e-01,6.370662421045144574e-01
5.618035238181605662e-01,-7.025406418140356379e-01,-4.142485119625300971e-01
3.872612800008958800e-01,7.699466574053714929e-01,5.044370625930532093e-01
4.797910007249204800e-01,-6.758414032695356788e-01,5.732986964385078377e-01
4.784465690753975653e-01,8.849898124416500922e-01,-6.082627774120892561e-02
-6.889142568529004196e-01,-5.046769512400887114e-01,5.065851372972882682e-01
-7.912236499065531392e-01,-5.844181036334977764e-01,1.396827692687847844e-01
9.919028620821649378e-01,-2.057522995546504085e-01,-8.187580582153757003e-02
-8.034629731657169094e-01,-5.517354090089463536e-01,2.588481871685198166e-01
-3.907630289542388113e-01,-6.366806322573898003e-01,-6.673401144340073143e-01
-5.779990431140218377e-01,1.678182052570529603e-01,8.034005852887812216e-01
-7.256636584637974341e-01,6.679985150340347344e-01,8.036359550633977167e-02
6.748262932727550067e-01,-6.583329629727843191e-01,3.686311111434424914e-01
3.080883832896926244e-01,5.515351017547365231e-01,7.773171574116176652e-01
5.567704786771533465e-01,8.283261395463947796e-01,-7.046809879281316913e-02
-2.130882334095401398e-01,2.672099202582637889e-01,9.325935673164454931e-01
-2.142615024078516617e-01,-7.072065777607366988e-01,6.747620471506718953e-01
-5.462814795494580489e-01,-2.719589501783571395e-01,7.618021464048427838e-01
4.853342423189601629e-01,-7.312489987898055377e-01,4.735734466917737029e-01
4.459078533479911566e-01,-8.946534051664096765e-01,8.368773770700879688e-02
7.247104893307335649e-01,3.208388137478939695e-01,-5.875483969480912450e-01
1.007975931194445618e+00,1.423336419625466018e-02,1.009482700837750074e-01
-8.386104459023820956e-01,-5.002213400843044111e-01,2.198173082725323191e-01
-3.959294171271789953e-01,-8.351268116352659199e-01,-4.031104694042122460e-01
1.188448195384807365e-01,8.043738769651657128e-01,-5.876362287655969574e-01
7.231995422886272618e-02,-3.706487541043719802e-01,-9.068712035756564260e-01
6.002653804839678253e-01,-6.777055767731018365e-01,4.288329808739626547e-01
-5.860083708880252651e-01,-7.928040973214273146e-01,-2.235374858580795876e-01
-5.492479877480083150e-01,-5.963928063282789571e-01,5.922594197430868235e-01
3.900259034232921307e-01,-8.738049416327591246e-01,-2.530314368815216874e-01
-1.431465916661871229e-01,7.405937817404033563e-01,-6.671106068840638725e-01
-1.123803803585609884e-01,-9.482749782268110605e-01,-2.167034300255857582e-01
7.984006156021138390e-01,1.919673183811240469e-01,-5.647318975769632932e-01
2.793393417535910417e-01,7.154253040284137555e-01,-6.452911290332892236e-01
-6.222218851626547531e-01,6.231040820356444909e-01,-4.463387526382285309e-01
1.034759018948045034e-01,-3.486755200339158312e-01,9.309641825833508966e-01
6.629978060773642490e-01,7.189139242319433354e-01,-2.089602886293468464e-01
-8.625759262658280191e-01,3.490036457446336060e-01,3.727976391081572749e-01
6.515588371010779811e-01,-5.703375705574663668e-01,-5.081985163457716226e-01
-6.750474965777643055e-01,-7.196966868702756592e-01,-1.047882458001684058e-01
-5.640957981984251468e-01,-5.058360582879994904e-01,6.763160088955184612e-01
-2.703691757201414636e-01,-2.581090499364183666e-01,-9.192274135636772092e-01
6.927328796064045058e-01,6.760092933269326067e-04,-7.063170079325430395e-01
1.857076063475650018e-01,-9.709181073249782967e-01,-2.260791235805965915e-01
-6.821739011701516420e-01,-5.445591037986609040e-01,-4.855560359226627209e-01
3.168079819387015772e-01,-1.889031130187349139e-01,-9.430682837620230075e-01
-8.017303924074078436e-01,-5.901533436829240475e-01,4.949119695160104915e-02
-2.816480053357390267e-01,6.627261083573695588e-01,6.933169662889553386e-01
-5.986083464177204272e-01,4.625282635623629290e-01,-6.782279445052828981e-01
-7.824836613436914057e-01,1.175678453978704248e-02,-6.392678801970536062e-01
-3.639582813063940159e-01,8.520190878136909562e-01,-3.679684607312982969e-01
-4.833280128864223674e-02,9.461323571519831832e-01,2.770963403106154743e-01
-6.621380976984805322e-01,-5.778467836023135074e-02,-7.332373711276091166e-01
-5.161832775728018019e-01,1.747329062055261450e-01,8.392986012896856973e-01
-7.506524445950574220e-02,9.910421518189260759e-01,7.297735754555143006e-02
1.505747087781677263e-01,-6.396225518326017490e-01,7.458987460434711725e-01
-1.676971469869945330e-01,8.523691776237886097e-01,-4.939577195405851495e-01
-9.620294264189569455e-01,-2.671189427207037448e-01,-4.015597043837008939e-02
4.088192962678207087e-01,-5.161541773260617250e-01,7.506048367543090016e-01
-2.422872286885255910e-01,-2.568143122299250680e-01,-9.420958304105437886e-01
-6.541458043853816129e-01,6.377240022169418099e-01,4.227122850418968403e-01
8.369292166159227886e-01,4.510087190079778985e-01,-2.789713519502348693e-01
-1.593934835713203269e-01,-2.502307331933459889e-01,-9.753684506242994434e-01
6.932979537430895567e-01,-4.196632418500082506e-01,-5.927106764169994824e-01
1.978201742099170157e-01,2.337579345440971845e-01,-9.461336147681086439e-01
-4.670209106644185315e-01,-8.775200018431701388e-01,1.766608499355913908e-01
7.538546420283903648e-01,3.734078351282687502e-01,-5.543040585321289404e-01
-3.353070623845121889e-01,9.010483470473992229e-01,-2.659205604241914878e-01
8.584888244907100674e-01,4.028777250552441624e-01,-3.166562565056506573e-01
-8.145537701808786002e-01,-2.865113420807564037e-01,5.193206122986432360e-01
-5.320442616520073553e-01,-5.099249271816131968e-01,-6.789729272306010976e-01
-1.247394613508782252e-01,-2.982694957266606162e-01,9.534687433523795219e-01
3.028954201001898827e-01,-8.727056852205683501e-01,-3.377255567055753027e-01
-3.262859903677748918e-01,-3.245505452614111386e-01,-8.913507957946723570e-01
-9.793815136352097550e-01,-2.130737789260602755e-01,-1.158721280575842477e-01
1.439813991050394038e-01,4.179677781505811707e-01,8.888468705361535216e-01
-9.023300332327902629e-01,2.166121781487754527e-01,3.784468216462963386e-01
4.575782448758289322e-01,-1.481852645489498410e-01,-8.595072272541279812e-01
-7.146277885009243436e-01,6.746134630734870186e-01,-1.661953841971409995e-01
8.050463930349671671e-01,-2.984428540352841996e-01,-5.177979890911447169e-01
5.493304792483072463e-01,3.889463355785266474e-01,-7.337805693415196950e-01
-3.149646521609468230e-01,5.463137158892872325e-01,7.738780103929387977e-01
4.147574708864972814e-01,-8.423533207038153003e-01,-3.445693771759037460e-01
2.449035639268423714e-01,7.642672584084025944e-01,-5.896777164393099957e-01
-1.227287832809530015e-02,-8.232361346788745760e-01,5.439203092419060415e-01
-7.122096638664444646e-01,-6.374521181414749549e-01,3.146451315386093461e-01
9.191835374525658686e-01,2.317583854272288191e-01,2.838825270314101479e-01
9.563681541487402127e-01,5.858400407383203973e-02,-2.901165305434884045e-01
1.038292274981741092e-01,9.857042330699868904e-01,-6.140958312907800892e-02
4.320887370868119887e-02,5.470356355947812999e-01,8.522157884727818988e-01
-7.090257377199482569e-01,-3.587090742626884432e-01,-6.218772583053623348e-01
6.861669296684792529e-01,-7.043120735655981068e-01,2.170357173317599142e-01
-3.316292626126152721e-01,9.371060169618039559e-01,-1.117079768980439036e-01
-7.046054817547127147e-01,-1.781467646012733774e-01,6.610563922469049336e-01
-7.872427466840403731e-01,6.196391352925419982e-01,-7.220356097207952795e-02
-5.334407744193589984e-01,6.297638799384218666e-01,5.568983432011248569e-01
1.242945737093092279e-01,9.544246824174522636e-01,2.738293436224772948e-01
2.980184684356633473e-02,9.681846629614691002e-01,2.630933704762105640e-01
3.067001492098934134e-01,8.040905861826359580e-01,-4.798622252270317023e-01
2.739000500404410454e-01,6.714743943272521998e-01,-6.696041957794026667e-01
2.582958015099623972e-01,1.275508454142681714e-01,9.575013563876160205e-01
2.732144890742270738e-01,-1.329619631981011733e-02,9.669550195830185491e-01
6.495138045249199132e-01,4.441935958555241065e-02,7.248549048221796243e-01
-2.475503415697537513e-01,-4.178631993731422578e-01,-8.666685959473299228e-01
-1.183334631747194193e-01,-9.769757000814659476e-01,-1.573336469638589863e-01
9.077392603213872979e-01,-3.057681503751891738e-01,-3.047400874237792268e-01
-3.129094970834200851e-01,-6.722828621073517752e-02,-9.494936011758300376e-01
7.410301312915805738e-01,5.555919769946099374e-01,3.927643978270411451e-01
-4.108781149861481241e-01,-7.203197987828476867e-01,-5.645470480164507254e-01
9.428770249665775482e-01,-3.137410004287994880e-01,9.009523781953106270e-02
-3.911059546064725723e-01,-7.479630051053127726e-01,-5.244363921535143414e-01
4.062307481348961802e-01,1.368499488461085434e-01,-8.936630098540122580e-01
-4.450578358213135854e-01,-7.980288351503432576e-02,9.066351931926609486e-01
3.629447055789494087e-02,-9.840110134630599692e-01,3.047093800721075579e-02
9.153202353188164553e-01,-2.194469965396909084e-01,2.952210904928838642e-01
-2.942373225761123479e-01,5.907845091486523259e-01,-7.371708520469963943e-01
3.993272368805186323e-01,6.845539729279812580e-01,5.980239820493841174e-01
-8.219287609597324407e-01,3.380866812485754797e-02,-5.729855794263275515e-01
1.434977532412153867e-01,4.378530561619540240e-01,-8.994306727211616170e-01
-2.285589385088841741e-02,2.612935511332898364e-01,9.712317063721167543e-01
-3.963768288874285756e-02,-5.015895663477355493e-01,-8.571734679244114030e-01
3.331856525788096657e-01,7.661353317287042941e-01,-5.770322504228183602e-01
3.541797701487017780e-01,-5.909764332959297484e-01,-7.062410531696804439e-01
-3.239803190668636979e-01,-8.780332488985383987e-01,-3.645555324429099464e-01
9.720011748876306035e-01,-1.547451040720174420e-01,-2.003188157866744035e-01
9.083851844306968237e-01,-6.782395886752343173e-02,4.086427902476498786e-01
-5.175960399448281679e-01,1.467680869266923538e-01,8.472123002256516378e-01
-9.303726658520874437e-01,-4.563689750452033095e-02,-3.808244797293228179e-01
-3.221247516367147234e-01,-8.918134536207964480e-01,-3.264901515835922918e-01
4.138069678898163017e-01,-2.250014818947556061e-01,8.693369889344305657e-01
2.318456141385538960e-01,-7.917387380451381684e-01,-5.554066600142164578e-01
4.841200419014100031e-01,6.812545377873840957e-01,5.573525156390986002e-01
1.385809979689840432e-01,2.333810141351300715e-01,-9.778211099060362121e-01
-5.459720830457495122e-01,-6.596034062811579890e-01,-4.820926353342440684e-01
-2.382281626743406287e-03,-1.299366401642385593e-01,-9.919387943140726138e-01
-2.795143730989443562e-02,2.186167127719603753e-01,9.796229306763840627e-01
5.871013506465951881e-01,-7.726354625217174421e-01,2.516425293679411257e-01
5.699287337822774857e-01,3.045157790613242654e-01,7.560824265500956098e-01
-1.147523520962843713e-01,7.572448303189782681e-01,6.346810740295633080e-01
-9.437959103261923666e-01,1.436438325788879679e-02,2.960466505796573444e-01
-5.154512311761404869e-02,9.970973756534181609e-01,-1.282092851855379523e-01
8.558933572244663557e-01,-4.670131731055149338e-01,2.307888116355608643e-01
2.359312985107575589e-01,1.557422420641689231e-01,-9.670669489351463310e-01
1.149608421027979166e-01,-9.423978800613911355e-01,2.808620796269447606e-01
9.782546817949149265e-01,-5.266770357515584977e-02,1.825875944960102526e-01
8.860263638093408556e-01,-1.131287200354113148e-01,-4.851251190779578004e-01
4.172291295539974909e-01,-6.671920528856926103e-01,6.205836857459102740e-01
8.172792635939003514e-01,4.636942188120374841e-01,3.973752993320093241e-01
-3.238876367333005657e-01,9.094788254858180432e-01,-2.102318356066875948e-01
-2.815990893431734587e-01,-1.102680977341645744e-03,9.658735121690419367e-01
7.534681048103311074e-01,5.931524298779587978e-01,3.342728063097966662e-01
-5.988877920887355488e-01,-4.888012607170047485e-01,6.575934313981764978e-01
4.666653437892371858e-01,4.361003406654083148e-01,-7.598909961918233202e-01
-4.468299825487779819e-01,-7.056997783275406055e-01,-5.478368203707892903e-01
-2.208529089413860391e-01,-7.808704388347070813e-02,9.882595291146412109e-01
2.762747636133185969e-01,1.660934719355605937e-01,9.468045725787863631e-01
-2.507272810888024756e-02,8.046617015255975724e-01,-6.093124582223419239e-01
-6.565210967712548085e-01,6.829506108991513225e-01,-3.518188834464490156e-01
6.374059829953803158e-01,-7.589386635719701513e-01,-1.482718833232620770e-01
-9.518270579442548174e-01,1.520890218787642467e-01,-3.035094551833060206e-01
3.394696574624259111e-01,7.104693772805754648e-01,-6.241826431135047981e-01
1.889974086157732991e-01,9.889569949678244098e-01,-7.034659825991028403e-02
6.353878522899382153e-01,-7.438017789831520288e-01,-1.766976171400072015e-01
-7.416331578311022854e-01,6.463882635544119237e-01,-2.215089218710535601e-01
-4.578201094016788320e-01,8.471671292180003032e-01,2.133306563721796001e-01
5.272629634163211731e-01,-8.111316212273768089e-01,2.420173074612997077e-01
8.821213212023741868e-01,-9.791547160647286197e-02,-4.459354524545820486e-01
-1.107559124255558464e-03,3.203340624799953101e-02,1.007783027316141222e+00
-1.215102609695150881e-01,-7.731061989909318033e-01,-6.337803891768892806e-01
-3.222600372758367970e-01,8.234267009517494129e-01,4.777779871481444007e-01
4.818712954888748623e-02,2.032022957104136218e-01,9.841661037129449952e-01
1.925587741381128426e-01,-5.107627641398576612e-01,-8.241239787919251158e-01
2.063607691479006634e-01,5.791566403462735657e-01,-7.731660902962245174e-01
3.312860531076652904e-01,6.532670590759560580e-01,6.814514484189820864e-01
7.442622211893695772e-01,-2.350642991915062874e-01,-6.134191899134363579e-01
-5.888985950618114140e-01,-1.708528364808836464e-01,-7.781919914952744044e-01
1.258832849718065638e-01,8.283116734322855113e-01,-5.494438247716975088e-01
-4.180053531443510551e-01,9.108681701923350138e-01,-7.197466446628925096e-02
-4.130905507001003674e-01,6.766655699539730895e-01,-6.141438156705125717e-01
-6.181122591755446871e-01,5.334633545694285849e-03,7.750960433376993253e-01
-3.360277926785635305e-01,-5.229323798748645169e-01,-7.781379039697292610e-01
7.327828058491715479e-01,-3.715321430694914495e-01,-5.412142325630898698e-01
6.190775147187255190e-01,1.857172831145171288e-01,7.712341247268978961e-01
5.769028333233869876e-01,-6.950203306788028668e-01,-4.309076182966581903e-01
8.324712126262013845e-01,-3.165598020112188049e-01,-4.948092115513336720e-01
8.612856539633443331e-01,-4.703009631593706996e-01,1.251070526659787130e-01
8.811508660858881070e-01,-3.582946468459846656e-01,-3.169294822859921035e-01
7.128966550434219229e-01,-5.565793959979695865e-03,7.028630763064149800e-01
4.737467440463032364e-01,-7.121737257898955731e-01,5.064993450543113784e-01
1.166174751780852878e-02,-8.107846147550502591e-01,5.870153097289629862e-01
-5.577851872402329603e-01,-7.780757202947111706e-01,-3.238964317818142091e-01
1.415349314289388594e-01,9.427909438427929389e-01,2.981801640632164019e-01
-1.008800730799704448e+00,1.216959397584911062e-01,-1.067314342602847244e-01
-8.513240550123073458e-01,4.959820803567002723e-01,-1.126538897678271700e-01
2.331795616322743514e-01,3.212650072763134079e-01,-9.005061957670764672e-01
1.742323636948348575e-01,4.330900017609501385e-01,8.593939087354666162e-01
5.537779744999848930e-01,-7.493577236266473207e-01,-3.973097225402177357e-01
1.760804256141292323e-01,-9.204252509323140874e-01,3.658012550489646020e-01
-5.612819184934282335e-01,-5.872646600664407357e-01,5.804480368238087440e-01
4.118212245090605364e-03,1.018704790637969593e+00,4.452216573724736282e-02
6.513576597487784614e-01,-5.922616067518601257e-01,-4.352258446167577288e-01
-8.770039001845957305e-01,-4.577853110093345612e-01,-5.965675061641392135e-02
-6.367281823507824345e-01,5.699382704168263203e-01,-5.025459954989316413e-01
-1.207311986099848661e-01,7.944209017205218215e-01,5.943280484229197524e-01
-5.248856823820570172e-01,1.930363812766928699e-01,8.435741769442405280e-01
-4.039005430527374818e-01,-4.572138637605246969e-01,-7.937645155410886222e-01
-5.727789004315210208e-01,1.961435890660868653e-01,-7.968021137450762570e-01
8.938505393822836487e-01,-4.478160450655604974e-01,1.199115570757908027e-02
1.781580638199690148e-01,-1.000160140299751532e+00,-9.256772665258709148e-03
-9.697734552687868881e-01,2.390295332753745172e-01,-1.051516929989838867e-01
5.920961993859221728e-01,-6.850413359541092095e-01,-4.176945747182992941e-01
-5.345845798014189354e-01,2.413775794352852055e-01,7.912339423520995396e-01
7.930062386994128909e-01,-2.812002365958647665e-02,6.069298352699962207e-01
-1.679098734237580715e-01,-4.565783266187191658e-01,8.768563604918629961e-01
6.270233306217064539e-01,7.559902431672526069e-01,-1.066127082674460519e-01
-5.477315937478474117e-01,8.852060939288254604e-02,8.518524481720823882e-01
4.037458752629026759e-01,8.811192369636410282e-01,2.462228465224489959e-01
3.343674438518385306e-01,9.484161740194188006e-01,-3.919483680572313083e-02
-5.151272734682742493e-01,-1.319460221011634071e-01,8.361844837810330500e-01
-3.502066146855507545e-01,-8.020919012942878679e-01,-4.306909835832327671e-01
-8.458534648089172103e-01,2.040380904435798171e-01,4.934946805060349551e-01
3.154861759487197492e-01,-4.697392697741794021e-01,8.135413271270002245e-01
-5.100154163782940619e-01,6.977031784620579824e-01,-4.935224855659970933e-01
-3.447403001124973998e-01,9.191858588718466727e-01,1.891524433114004089e-01
2.476859712502162691e-01,-2.350256530014556422e-01,9.532652491598959665e-01
3.919489506622191866e-01,-7.707878979150368792e-01,4.791753681090286099e-01
4.477542766705212493e-03,9.986684179394469396e-01,-7.605328543568211364e-02
-3.143821922541882863e-01,4.943867096618650425e-01,7.986850625172684515e-01
-8.740700519726231077e-01,4.011608201520508454e-01,-3.170205835034126673e-01
7.717965648939344447e-01,2.305637901568714787e-01,5.711495066220386718e-01
4.717789773138120757e-01,-8.000546618899744694e-03,-8.934339918277202086e-01
8.905489957360274156e-01,8.977060949320896099e-02,-4.602208660633829163e-01
-1.256857626436098663e-01,8.469685437457025179e-01,-5.001843374530592357e-01
-5.452399526864514651e-02,9.845116090471810466e-01,-1.108209426748825582e-01
9.006643061695891461e-01,-1.468626018815991363e-01,4.212423460438586287e-01
-8.043222937698527586e-01,5.356609719609581877e-01,2.805889263890964380e-01
-1.716877643683542010e-01,-3.833179168847841156e-01,-9.246141546831192493e-01
7.421749050950194881e-01,6.442130672252373014e-01,1.406200979964250253e-01
-3.423794579300346030e-01,-3.716974838045901119e-01,8.869907860053612980e-01
9.454372161635166139e-01,2.115557192661590702e-01,1.837561299366631817e-01
8.840223957187887116e-01,-4.101833690073262151e-01,-1.760232588924398045e-01
4.217388522430963183e-01,-8.915447253019729290e-01,-2.277685856589881652e-01
-4.938505959297530001e-01,2.762469463925287250e-01,-8.431963688864457795e-01
4.976338487645985409e-01,6.273938653067234750e-01,-5.713202819697711377e-01
9.105275835507956605e-01,-7.063628579232314464e-02,4.114584784679804486e-01
-1.064580024150031806e-01,1.046511051519819352e-01,1.008791405864281954e+00
1.955521738245963315e-01,9.712709883641887920e-01,1.616119992050602250e-01
-1.220543913473196157e-01,5.381678069799908926e-01,8.382762519423098135e-01
1.868797005559683644e-01,9.865453897669654859e-01,6.994915845957391798e-02
4.360772745194204103e-01,5.230107215970370982e-01,7.332329296213023762e-01
3.273692682538424381e-01,6.412039688991533204e-01,-6.812860629590710149e-01
-3.654909732313247894e-01,8.126517767386426394e-01,-4.672612627139549613e-01
-9.165276921790879161e-01,5.955512705235588289e-02,4.200584261424045729e-01
1.626456213818573970e-01,9.625004856807038989e-01,-1.957580071136861832e-01
4.813182226137803499e-02,-4.815703218589375556e-01,-8.790242740861520243e-01
5.449862783052347170e-01,7.438786792941884940e-01,-3.859191988611790913e-01
-2.493146651326469121e-01,6.998005626590187989e-01,6.692016071963755586e-01
9.217621992397866393e-01,-3.947204224464341826e-01,1.944485611876266284e-02
7.662173827138163418e-01,-1.156610794539746911e-01,6.233680008857731547e-01
-5.845914917896959384e-01,7.165888140001452911e-02,8.090262240622485557e-01
3.441814652598358948e-01,1.843400172864471942e-01,9.134819802918351384e-01
1.762251074519016469e-01,-8.276720938634309910e-01,5.345841320754050052e-01
-8.322063820294537395e-01,-2.368201030969771526e-01,-4.945253270248805566e-01
3.096206953775014203e-01,4.458031579415150381e-01,8.335373644090284806e-01
-4.549921127633360651e-01,8.668512086136143102e-01,-2.428061161420939362e-01
9.234729036599178542e-01,-3.307544438934586495e-01,-1.174302218289062505e-01
2.791307455149180106e-01,-6.623530189958423131e-01,7.031562711355729967e-01
1.987250164890730364e-01,-5.818800478877241833e-01,7.866480204170418489e-01
-2.724152541006767403e-01,9.201424239270959982e-01,2.912688181470343696e-01
-7.144995919543952745e-01,1.924768037942651555e-01,6.472824660573304190e-01
5.954937779386921815e-01,-7.594302296427318799e-01,2.296439963300723752e-01
9.967344216207744134e-01,4.577496436878272096e-02,5.440023691572129505e-02
-7.223957437692803130e-02,-7.797779454346602801e-01,-6.080167259782870426e-01
4.934629520578627804e-01,6.893540729617060325e-01,5.098745829396132967e-01
-3.237992937649097902e-01,6.661156764653552997e-01,-6.690177654374510618e-01
2.676016279625150762e-01,5.918962070065182379e-01,-7.357380965142866769e-01
2.326979680561413674e-02,-8.692532777943720035e-01,4.606037103556471779e-01
8.114192539287220507e-01,-3.050952976819225337e-02,-5.946903054296388547e-01
-4.983814071559610204e-01,7.543287863154821693e-01,4.140000917550868409e-01
-2.760995211756477885e-01,6.253457389122646370e-01,-7.000062339286073909e-01
-4.693303214523173450e-01,3.326280966831017261e-01,-8.181862410934772623e-01
-8.536624481637972162e-01,-2.057091559551252891e-01,4.452818169207384824e-01
-5.390360081267694392e-01,8.161602135725571916e-01,-2.133602475979897717e-01
7.025815436177592632e-01,-6.647295252348166539e-01,-2.526986887490894063e-01
-6.041828918549153604e-01,-1.680112176814745994e-04,7.825222541977976398e-01
-5.715257472585820731e-01,1.942863156491240473e-01,7.948096304573429860e-01
9.418262901026871470e-01,4.656947730805757052e-02,3.267956190141664830e-01
5.798246442926938693e-01,5.433745647549245023e-02,7.998168194486717786e-01
-8.456501145845821688e-01,-4.416836571112031096e-01,-2.983167845909343585e-01
2.730736314679400589e-01,9.239854706226598990e-01,-2.810976640961743156e-01
-7.169310274349839363e-01,-5.487198912929732580e-02,-6.893053313116735970e-01
8.580275331663731464e-01,-5.022683045037231730e-01,-6.787230641402401676e-02
3.775556060989648244e-01,-7.791450325026527679e-01,-5.054341436604594673e-01
9.293138877815292354e-01,-1.497148285130554812e-01,3.545243859416290499e-01
5.576044330750594691e-01,7.845422247447184638e-01,2.141956941166432149e-01
-4.157225667530483615e-01,9.162472800600979239e-01,3.865803307195952304e-02
1.713687046684770066e-01,-2.567147913774357471e-01,9.392338191101816669e-01
-2.087722004560655653e-01,3.343329523172940965e-01,-9.342172166662355837e-01
-1.185429134099291459e-01,6.558762271251340481e-01,7.502805524321648489e-01
9.283333965218585337e-01,3.068435074468067736e-01,-1.598228303271120587e-01
4.994856016634343643e-01,-7.187965896231853780e-01,4.704115945773274521e-01
-7.799888044350350436e-01,-6.198151957058888328e-01,-1.278703227015965393e-01
8.301488567350022718e-01,5.072546156345613122e-01,-1.626262765234978702e-01
-4.972920952394453420e-01,-1.303133642081158797e-02,-8.733649022259918349e-01
5.737362507916382581e-01,4.677947902000389319e-02,7.953819630074839830e-01
-4.418427101765966536e-01,6.204017762645360756e-01,6.426494991416485947e-01
-4.694981936992431160e-01,-6.313032737590162924e-01,6.134713960162460067e-01
-3.010563567780383809e-01,1.793163301645546159e-01,-9.254805155868448541e-01
8.996114604576930240e-01,-3.432571758227799252e-01,-2.161365471921206372e-01
-5.094406880764231760e-01,7.775666445657445358e-01,-3.759397873598639417e-01
-6.621517738606566006e-01,6.936238780257968362e-01,3.080978401566832336e-01
-8.247546830707538357e-01,-1.507681482544287743e-01,-5.023747369328581680e-01
8.475969935123366383e-01,-4.284688513978969493e-02,5.430273660199917973e-01
1.937381531619477015e-01,2.567714027781460850e-01,9.420879522898999436e-01
-9.357025102611503664e-01,-2.673777899493602894e-01,2.223653776911449498e-01
-5.788528527902506160e-02,6.906180258792533611e-01,-7.223304621803954273e-01
-2.162469798069789062e-01,7.202952677893356137e-01,-6.459579786645270882e-01
-7.391924785226450245e-01,1.373522596605337154e-01,6.443219992988569178e-01
8.580216888585405766e-01,3.905417578180069293e-01,-2.886707844344499341e-01
1.757122687934349892e-01,-4.219158847561473302e-01,-8.863233982499993946e-01
8.984259705693615761e-01,9.976996848268795612e-03,4.270740123678096745e-01
-4.935795164883083341e-01,-8.461343706106203566e-01,1.532098321853402056e-01
-8.316864437504039032e-01,-4.663948229493745656e-01,-3.072239612703468459e-01
1.045232710549396787e-01,-4.946995157592939951e-02,-1.005067105078937484e+00
-3.532953473635995212e-01,9.281559470307289006e-01,-2.202290199556843631e-01
4.252310779844407085e-01,-4.236744422767129703e-01,7.783395529126608814e-01
-5.748951013295997559e-01,-3.875606048832532236e-01,-7.178004209175005146e-01
-4.075158706783315460e-02,9.844936586187987837e-01,2.032058587010019957e-01
1.936443410578464475e-01,-9.897158382940940413e-01,2.592542375643958064e-02
-2.448156665660625730e-01,1.489610188904569588e-01,-9.648342956624030853e-01
-4.039074068296276687e-01,6.681367183067959958e-01,-6.288815084422005874e-01
3.131489840083405939e-03,6.695381173691504484e-02,-1.003785096933529353e+00
-8.011313788632251631e-01,3.423764609168914452e-01,4.849343612333164022e-01
-7.009564054477708250e-01,-6.680860599527861377e-01,3.181835166952017291e-01
-3.056850217666267633e-01,2.193300133802802976e-02,-9.551454554590248502e-01
1.080607500494830397e-01,3.625712785610950006e-01,9.240657935079118479e-01
-5.362313988327814807e-01,-2.757546894030051265e-01,-7.908482428000960240e-01
2.806775173305618432e-01,1.464280426720817596e-01,9.343898097406692083e-01
-6.405453431366472383e-01,-7.379253786661471581e-01,-2.149060139681691628e-01
-8.785057464818077019e-03,-9.725336179378762935e-01,2.682399352458170738e-01
-3.246100179167845101e-01,8.349638551804809961e-01,4.695751966830668533e-01
-5.126090936965643774e-01,-6.098684637458171576e-01,-6.184636611878274737e-01
-4.059691036511384188e-01,-9.011262317156181201e-01,-1.954236661026942379e-01
7.343401226753496491e-01,6.475914297548397425e-01,2.198429796041250772e-01
8.751839766365736573e-01,-4.888306140413261058e-01,8.577499400409438479e-02
9.406024656842905118e-01,-1.639569437504675986e-01,-3.303918455772887341e-01
-5.289797242749496586e-01,8.574819287449859662e-01,-4.863994868166682944e-02
3.700830708152337833e-01,-1.374600138968867791e-01,-9.104135662051093814e-01
3.078075234663810861e-02,-8.403997497466395572e-01,-5.340650897514268580e-01
9.332966827644345598e-01,3.269207072840843997e-01,-2.211066187165697527e-01
-5.699006011577046893e-01,2.194740019365347405e-01,-8.009428263344178234e-01
5.736751284578367471e-01,6.502673811163248718e-01,-5.238419318203937358e-01
8.803113220548183238e-01,3.915467185924405569e-01,-2.727105560362931280e-01
-7.039585088707875915e-01,6.840411531658733280e-01,1.080980466834564890e-01
-1.275698539117033070e-01,9.503128472287213357e-01,-2.318203479021122837e-01
-3.494622802889220115e-01,-8.229254558718381851e-01,-4.488596856796084889e-01
-6.001900207824646394e-01,-7.599193107659950597e-01,-2.681958312554145185e-01
-5.157772627267327437e-01,8.215924586589495870e-01,1.797697713681524201e-01
5.818715665754345956e-01,-3.764594245149553986e-01,7.379496468388965225e-01
2.527589713976412522e-01,4.569855567023515808e-01,-8.560292228998636066e-01
5.403281393143840594e-01,-3.142452994851595571e-01,-7.879596258953499577e-01
6.507179674301012406e-01,-6.664654702352352800e-01,3.606039766636185973e-01
3.037322080244467606e-02,-6.445683138304003634e-01,7.582302228423912771e-01
9.921337930642933900e-01,3.405525776948715999e-02,-4.892444878886399035e-02
-7.491260024795568517e-01,-1.403326046469160170e-02,-6.539186330021790061e-01
6.837212645159693736e-01,-6.580213683138913527e-01,-2.911737792412606440e-01
-7.474281622610753906e-02,-7.096709037489502825e-02,9.824759528277142717e-01
