-6.819280533101331754e-01,4.321121976522226404e-01,-5.866508579170751636e-01
-7.964974546518548415e-01,4.981518361858663368e-01,-3.658980832912208103e-01
2.551825735043113941e-01,1.096415739755171592e-01,-9.783918837885215991e-01
-6.289608405501900812e-01,5.636444192872815812e-02,7.836812612029201430e-01
1.797443389541383274e-01,-9.456938009251929511e-01,-2.664641900525894225e-01
-1.003088983679573526e-01,5.854059342126310961e-01,8.264266780883864350e-01
2.563899578896439158e-01,-6.641415759347291115e-01,-7.223507179635758613e-01
-2.108668626791631584e-01,9.801723303676153076e-01,6.960554659066887917e-02
-9.232916314693991877e-01,3.068300590565417041e-01,2.355451120377458352e-01
3.739856103694821354e-01,6.972995322243171756e-01,-6.062225091294006774e-01
8.289824010986331093e-02,3.959982828871908556e-01,-9.357277747645970090e-01
-8.747039666263711766e-01,-1.033522569143841274e-01,-4.554183469560492692e-01
7.801763302754123330e-01,-2.311552339786656640e-01,5.936421270654458349e-01
-9.869267032662123462e-01,1.705566086790379077e-01,3.212245057079892580e-02
1.827368192808154768e-01,9.614109808908086752e-01,-1.895181046727442142e-01
4.265742873600036900e-01,-7.172843566737437948e-01,-5.595802452489113676e-01
5.699650458946423637e-01,-6.674637144734899552e-01,5.036400927942220607e-01
7.918658377905714030e-01,5.470949323332434666e-01,-3.116447576377839868e-01
-8.351672031743829772e-01,5.232051345978667722e-01,1.156831704431405400e-01
-8.854154944572747987e-02,-7.516648957332827674e-01,-6.469034317273681944e-01
-7.772481046357452295e-01,6.122829785321090013e-01,-9.723064668266857835e-02
2.763725968982013725e-01,-1.922618984441754608e-01,9.582792522821462766e-01
-4.768094945161586162e-01,2.306508203865236667e-02,8.901839753551832324e-01
7.698244150235690197e-01,-1.884644827019242019e-01,5.896374941618549581e-01
3.269901308631537051e-01,-8.745483922712063984e-01,3.729522883192211702e-01
-8.926003004183044598e-02,-5.649835487260935762e-01,-8.173662260547881475e-01
-9.635532733668513705e-01,-2.273036410392844930e-01,1.088256852326085489e-01
-6.938028191591432137e-01,-3.765996871968459447e-01,-6.164002013893263854e-01
1.446247019995190175e-01,7.677764688839042728e-01,-6.097778188951075151e-01
-4.281698770115448527e-01,-9.174792811214402821e-01,-5.067979979219059544e-02
5.876297805473493785e-01,7.697229207170951382e-01,2.094398339554124910e-01
1.866750598819299362e-02,8.501506305205135394e-01,4.982159746207411311e-01
-5.150946490268594191e-01,-1.744578231900182075e-01,8.652597491421016862e-01
-4.269897576272425055e-01,-5.978179104000425070e-01,-6.726597112646774956e-01
6.565709680048558150e-01,5.705866595385931106e-01,5.137271900356055188e-01
5.060805975814863800e-01,-2.127662274317665414e-01,8.214609857759346268e-01
1.054388712069992268e-01,3.031356141695608075e-01,-9.347767360175066598e-01
-2.336442512262714433e-01,9.451614809540487272e-01,2.488889682239082690e-01
-9.368012169824619928e-01,-1.232330351730491838e-02,-3.612689371826510731e-01
5.969648666371777379e-01,-7.835967536867333161e-01,6.561486654273354646e-02
7.595034311231152468e-01,3.434094360455884343e-01,-5.828582408462991138e-01
2.348098672212440008e-01,-8.893565695397319670e-01,3.797214224742855859e-01
6.885847633881578278e-02,2.241076897289549785e-01,-9.444494242002833273e-01
-2.033690242711495566e-01,-1.622303505434623816e-01,-9.607842219783599980e-01
1.616299178159896488e-01,-4.655645744891653282e-01,8.716402407931627128e-01
-8.157147583444374073e-01,5.266743233090360743e-01,3.074916126622667667e-01
7.720429500565587633e-01,-4.304835747854920958e-01,-4.529181079250478303e-01
1.658206257139896167e-01,-3.641179208201987816e-01,-9.405300599158227248e-01
6.182886673901951680e-01,7.658263556115596504e-01,1.250504361878205795e-01
-8.568354836273460728e-01,-5.333459986139734710e-01,8.129898211745686942e-02
-7.632009844269200816e-01,-3.424262222727749161e-01,-5.587610208229467634e-01
-4.746104384119022579e-01,-8.650360345521307393e-01,-4.964203028942729828e-02
-8.853184141143660701e-01,3.253025002811540389e-01,3.765499389927758345e-01
-6.767853821936681280e-01,6.345685565805861961e-01,2.825573762231932129e-01
4.264318902133312217e-01,4.401820756644800881e-01,-8.098173790327923838e-01
-4.581005987728457018e-01,8.239340962802358392e-01,2.843794010129366279e-01
3.712059895557462963e-01,-9.105428925402260232e-01,2.007296039047385405e-01
-8.345657617919106652e-01,5.208015178820258884e-01,5.979646634556292500e-02
5.545786308669283793e-01,-3.911341225299637681e-01,-7.298442872457228114e-01
-2.718862091911171119e-01,6.819185733058900079e-01,7.120070096858885922e-01
8.151414069513315264e-01,5.921167717482244131e-01,7.900350227142149961e-02
-3.243181777726390491e-01,-9.446245243063897679e-01,-3.200196912177660086e-02
7.642588470321519667e-01,-2.150201721582748748e-01,6.159107848129432572e-01
1.613632623226579355e-01,7.540382182240830122e-01,-6.296575756175850636e-01
4.789101452971363804e-01,-1.105238194674264401e-01,-8.922132811942676822e-01
7.055666150003199466e-02,1.941655155549759093e-01,-9.784254008131981761e-01
-7.656058060187520553e-01,-5.494978353007119454e-01,3.103028786157381314e-01
6.462070937446805496e-01,-7.478021232816919328e-01,-1.613541538258143615e-01
2.031585774222579438e-02,-5.841381759374119076e-01,-7.996522302318435083e-01
-4.894641322574176945e-01,8.064544280924365593e-02,8.402560573257729093e-01
9.658969317120565945e-01,2.101008979740250082e-01,-1.497084549894908134e-01
-7.086176146936794540e-01,-6.865509057821268524e-01,1.025703132936530565e-01
2.641494358802733977e-01,-9.852573889565544030e-02,-9.548146508005374011e-01
-1.586601276982426423e-01,-6.354441064304851006e-01,-7.551722787105905610e-01
2.689576372836500195e-01,-9.022203506273078766e-01,-3.620236450837511222e-01
7.419500804820093887e-01,6.590701146701137825e-01,-9.433544461048445906e-02
-2.875985584346869017e-01,5.187451607773925222e-01,7.839894214811624629e-01
9.020600117683005292e-01,-8.663098668891269782e-02,-4.572367856326874369e-01
7.302258517467584698e-01,3.259521096333182766e-01,6.103379914801623229e-01
-3.096871540696362335e-02,7.205660023195559205e-02,9.887344963694610911e-01
-9.009474303441241672e-01,1.632153831964014423e-01,-3.924664429694447176e-01
-1.277264258954106391e-01,-5.895423711045331139e-01,8.015615615635328650e-01
-3.113153414656426032e-01,5.466094006692386875e-01,-7.868808616975807579e-01
-5.258952253361584214e-03,9.888895020420330750e-01,5.649375577150565764e-02
-4.111132741141849956e-02,8.012817220545972452e-01,6.109496700751096965e-01
-4.915431928177851906e-01,3.080398567009960953e-01,8.428197837194463249e-01
-8.966614678302660124e-01,-4.196557216413981384e-01,-1.527580457610862585e-01
9.839365359237284281e-01,1.861049506745160731e-01,8.349163634545832269e-02
6.426549704630549753e-01,4.783080711056749146e-01,-5.966439834211890725e-01
4.062744182251919467e-01,-7.469974511778227910e-01,-5.087755771451945019e-01
1.592103125056141544e-01,8.131043301369962339e-01,5.357080492843815378e-01
1.564937756716469341e-01,4.907835952991052020e-01,-8.621878584863778006e-01
-3.409991876732046956e-01,-6.982488312263055441e-01,-6.369368725064227243e-01
7.427409651568611659e-01,-5.289087889770830442e-01,4.247684044344770538e-01
6.475193203794900321e-02,-5.848488212511308848e-02,-9.905894534197980938e-01
-5.892624937873203184e-01,-5.118556329030706786e-01,-6.301446913486477008e-01
-2.795391793649265946e-02,-3.865163740093447431e-01,-9.208666266242312437e-01
-3.437308204238650466e-01,-1.706333922534025160e-01,-9.277147100341849306e-01
-6.275678166153910720e-01,1.130974732662233667e-01,-7.691967871278975188e-01
2.565483153736060618e-01,-4.246481387560673837e-01,8.617979169451320809e-01
3.369351321660566945e-01,-4.498346583966223999e-01,8.308412133332329086e-01
-2.803518874300361952e-01,-5.740951260623090580e-01,7.646551015727812706e-01
-2.778822384015241509e-01,9.940571477643322940e-03,-9.423768608320641782e-01
7.222570997516505331e-01,-2.930036133073169249e-02,6.753809014902867336e-01
5.273572447850602973e-01,-4.503049856175958543e-01,-7.337388960381243663e-01
6.460617082842712300e-01,4.793721365805793111e-01,-5.843839916154573988e-01
1.108614253038055636e-01,-6.643631180563250860e-01,7.206828618822732624e-01
6.097500455604618619e-01,4.418523926226118892e-01,-6.551222687968712988e-01
-9.087241776078296418e-01,-2.910042788576781003e-01,-2.745823012915074024e-01
-2.664471125509995653e-01,5.368977572011117694e-01,-7.943851740984272380e-01
5.457670162853774931e-01,7.198187452690442134e-01,4.087929445260142791e-01
8.257838439206290071e-02,-5.355656382492839374e-01,-8.440904827641443342e-01
3.184429095310954000e-02,-7.584971047716099202e-01,-6.442835934191006864e-01
1.728938876199803965e-01,8.241618577318050587e-01,-5.481966256508921109e-01
-4.629623246371147860e-02,-8.280856967959010495e-01,5.768491222749643210e-01
-8.631308082638138313e-01,-4.667958350936295409e-01,1.022379419725741173e-01
-7.164722888418215696e-01,3.140252332910274391e-01,5.954247722234011775e-01
-8.139222236849060765e-01,5.445726752332904486e-01,-1.793552017132735155e-01
-8.970775687073244686e-01,4.094127884682325913e-01,1.562027682103483139e-01
-3.101259081068650780e-01,-9.438611414970470292e-01,1.283387723065291808e-01
8.826328917097151505e-01,4.428297468345057109e-01,1.104547586148705018e-01
5.360842823300397963e-01,-6.319966298498600477e-01,-5.578787525009440973e-01
4.754097568078249347e-01,1.949413441871864772e-01,-8.723154468377229964e-01
-5.495062025583793419e-01,-2.518913786672507538e-01,-8.285685400077387186e-01
-8.961869171719247795e-01,-1.681754233761068029e-01,-3.755487802130713093e-01
-7.054602349993680521e-01,4.026556533076242617e-01,5.910035829811575159e-01
2.093689666508610492e-01,2.727986504572222498e-02,9.766958461829872151e-01
4.026236301568987541e-02,9.855159146910458245e-01,2.264321446996455101e-01
-7.494241006054792598e-01,6.348558854526065165e-02,-6.487166642315769227e-01
7.352540110593543954e-01,-6.784322531594996208e-01,-1.024452097992722445e-02
9.474530631366437916e-01,-2.981149543455975937e-01,-8.931443680761415316e-02
1.481034251079838826e-01,-9.166155498836089377e-01,-3.435552099510102431e-01
-6.080179511224028666e-01,-6.957627723665224528e-02,-7.852137307375347541e-01
-6.276393262768914516e-02,-9.535015910377140358e-01,2.585550696184577002e-01
-8.778010412317350797e-01,-1.641552879817315680e-01,4.373094242118913400e-01
4.839230009359564155e-01,8.015324103586018989e-02,8.672048175857932639e-01
-5.925905863687995767e-01,7.376011231522882072e-01,-3.454759137271349867e-01
-8.121311027197658516e-01,-1.676896433049704649e-01,-5.958491070861394734e-01
6.168188080848923116e-01,-4.420541201797809072e-02,7.883521008475311564e-01
6.803957603728908454e-01,1.978847620229725046e-01,-7.019596275325514778e-01
5.216970476879133622e-01,3.148415709149797181e-01,8.068530271727011316e-01
2.676013067578746352e-01,-9.648972864711387043e-01,8.340800157184831420e-02
-7.012889300629159273e-01,2.752218922405866852e-01,6.519758924631307018e-01
-8.659095466058086554e-01,1.996737831493191895e-01,4.445111278540075372e-01
-5.528477342028776942e-01,6.936604635298924126e-01,4.626324112928729138e-01
7.817546888293156471e-01,-5.560143738885212628e-01,3.288653696804458293e-01
-4.337628312574486333e-01,1.013600410775334325e-02,8.972602791028401192e-01
2.979730839209923099e-01,-8.218557552337304450e-01,4.792536763569186231e-01
-4.040264627733357039e-01,3.871791237984649192e-01,8.094639661149464205e-01
-1.300573971628168901e-01,-9.763942214937704200e-01,7.373264635474890971e-02
9.921912638165284459e-01,1.170712207843487562e-01,-1.346468443668429882e-01
2.554122945825865743e-01,-7.606133526935867639e-01,6.184231772520062398e-01
2.872636023492729507e-01,9.449370403784529415e-01,1.337436466721900197e-01
2.402396901453712208e-01,1.378448973582317438e-01,-9.479088000600224273e-01
-7.277475990900066360e-01,3.529336171376963316e-01,-5.620434352433193448e-01
-6.988422419210539305e-01,-6.222676980069223873e-01,3.678230656478234661e-01
-7.981278210173593513e-01,-5.132797859464536261e-01,-3.006913709734352347e-01
-2.593852248302838115e-01,5.432699236319983305e-01,-7.978734217553475894e-01
-8.855835857406649803e-01,1.980221664305437113e-01,-4.324977201081134925e-01
-2.881100087153805611e-01,8.924463672120472868e-01,-3.006306288635819945e-01
-8.774148020139649340e-01,-1.705547089362537475e-02,-4.836058119143358258e-01
5.760573571217529887e-01,7.940197748245094722e-01,-1.165028413548746117e-01
-4.512842211976738627e-01,-8.031736013912196270e-01,3.711948892763939356e-01
1.910342797352537064e-02,-7.740259857281401867e-01,-6.424118539377858816e-01
-7.863969829243776521e-01,-1.731079831446934447e-01,-6.095127812629352881e-01
-8.473575014808661932e-01,-5.202485069022626529e-01,-1.147943837830195206e-02
7.292086665418816283e-02,5.193597899488675562e-01,-8.435926042088331966e-01
-8.268191626047090015e-01,-4.265813220023207952e-01,3.204688355301655855e-01
7.402777372907397568e-01,-7.790004385881753313e-02,-6.752709733852459983e-01
-8.009265821544817587e-01,-3.127903463517681670e-01,4.758085144565549762e-01
3.078736892419408622e-01,-1.394309644747386001e-01,9.358474131405334351e-01
5.999696355967748529e-01,-7.822727844773472716e-01,2.033788371201743217e-01
2.671392803821017181e-01,9.255648710477551999e-01,-2.396052975269970520e-01
-2.651426564600413149e-01,9.221661482304891466e-01,-3.220131760180958147e-01
5.932212447944882339e-01,-1.235434820880509516e-01,8.033978894916338209e-01
8.547415336496312355e-01,8.998487508801127077e-02,4.850234404176986258e-01
3.229805228795309402e-01,-2.232967090983767056e-01,-9.004769654513793409e-01
8.691524124447644883e-01,4.609064983659291737e-02,5.046062546571599139e-01
6.874894897776492354e-03,6.371225035770691214e-01,-7.794339171183762849e-01
8.829933776365878062e-01,3.793695639820321430e-01,3.042603564179382492e-01
1.341433973181572481e-01,-7.154266850963847402e-01,6.645026654359227347e-01
-4.965266190546704927e-01,-8.305947960769028970e-01,-2.732278393558629226e-01
5.559146898598125164e-01,-6.713966413139861311e-01,4.991187077548873141e-01
-5.605550909450689456e-01,5.918059897032458272e-01,5.921817911236405552e-01
-2.136076710328516925e-01,1.836629203914364461e-01,-9.507785708812847014e-01
-6.935651901706979539e-01,6.852555284553132342e-01,-1.540479839775688586e-01
9.971579944526174355e-01,4.408748641445815047e-02,-7.284997404814555488e-02
3.880996764596050808e-01,2.396140635219597692e-01,8.836544550249310070e-01
9.456404912507981875e-01,2.962547546046948588e-01,7.421898805385827858e-02
-9.675777582559053069e-01,-2.320158822139907484e-01,2.774777720473732209e-02
-5.274923333803834824e-01,-2.982850753440550173e-01,7.973681830877512589e-01
-3.094122744814146314e-02,-8.061745446420702788e-01,-6.125600618353317373e-01
-8.985758009090049070e-01,-1.875530445220726650e-01,-4.583415412684533341e-01
1.958755481071504101e-01,3.201090264555810916e-01,9.225611810677054603e-01
2.936267357993785909e-01,-9.291730530916765263e-01,1.800340341062222349e-01
1.855021901129866313e-01,-3.376977346150711878e-01,-9.131681993777309714e-01
-1.120547862986162185e-01,5.463340253452246831e-01,8.186662940334931138e-01
9.189746232416011740e-01,3.548736986430771068e-01,1.039290718362898547e-01
-1.164498963001227433e-01,9.820114798622263663e-01,-2.020080994563914489e-01
-5.627278680271686762e-01,-2.692121646488747633e-01,7.794648074689314310e-01
3.837990026807753252e-01,8.616603594189341520e-01,3.217617139577020891e-01
-1.223557301572202466e-01,-5.590909056691137913e-01,8.187956784001187982e-01
4.254937515555638483e-01,7.907213704958105938e-01,4.731553215091207631e-01
-2.592814116523290413e-01,9.161627893590532645e-01,2.664965875425316377e-01
8.083890161584533773e-01,3.885110906764410732e-01,4.758981304568557502e-01
-1.995602893292853508e-01,-8.230038482133529287e-01,5.141410885161954436e-01
5.529822008086029417e-01,-5.801678937676181258e-01,-5.930095258478302878e-01
-6.070975215318625412e-02,-7.384279281997002675e-01,-6.837881275941382064e-01
1.144387965865559104e-01,7.781455587143871755e-01,6.168104557346116845e-01
-1.447516562417100298e-02,-8.729656756063085554e-01,4.853776601808241775e-01
-7.084162555960634711e-01,-5.476430639116574017e-01,4.504404839508956426e-01
-9.796827061879865850e-01,1.223769377268691255e-01,1.171430462764976449e-01
9.097119112731046897e-01,-7.050881748432642759e-02,3.748413387804376273e-01
-2.893019249766280998e-01,7.500982975029708566e-01,5.838615918889300538e-01
-8.907956409065681536e-02,-4.631331111414687118e-01,8.860272997638907189e-01
-2.019521269741960112e-01,-3.559031622778133230e-01,8.987110477158067878e-01
7.497041078638961853e-01,6.388254881500415872e-01,2.063930108353375925e-01
-8.839696832182538655e-01,2.324004254423341354e-01,-3.870120720008587978e-01
-7.934848155318826590e-01,7.582207788443215413e-02,-5.995548371346426375e-01
-3.760571682516924419e-01,-4.504710997480328438e-01,8.038252377573211760e-01
-5.494319627560820818e-01,-7.367713353256267750e-01,4.069986425446763811e-01
-2.643614291604823308e-01,2.067411009283389584e-02,-9.592868618178738149e-01
-6.283677256000138600e-01,-1.330158485050460596e-02,-7.826875123972033554e-01
-2.017717974688044702e-01,9.513629560075030911e-01,3.037400346911308113e-01
-6.989942060194255236e-01,-1.060551926316746496e-01,7.101862317751743703e-01
-1.987524074465739088e-01,-9.722959803805834023e-01,6.550174573355475871e-02
-4.508164524029376619e-01,-6.219815526824755691e-01,6.569444949604847928e-01
-1.989505054096970260e-01,-7.205409860071645411e-01,-6.595000629520719748e-01
-5.517469849332913290e-01,7.917058226817136335e-01,-2.752316517156405129e-01
-6.510375421644347682e-01,-1.954798720619920216e-01,-7.257490633306681316e-01
-3.945615731459075071e-01,-5.332168284487375232e-01,7.380574730358129276e-01
1.166269808216054971e-01,-8.983290314796954501e-01,3.784045843653627839e-01
-4.167320267041240700e-01,1.273837970558921451e-01,-8.894339458281184108e-01
-8.263379013482271551e-01,-3.629885665078358969e-01,-4.897256545774193448e-01
1.152474786541159285e-01,9.900230308215764996e-01,9.730375509346760043e-02
-9.615725747393369938e-01,-1.904313225999008374e-01,2.036144700733006074e-01
9.535304527304183653e-01,-5.012406623870718780e-02,-2.455059047132437389e-01
5.710157496427462620e-01,-8.037954489577534556e-01,-1.588150800174128185e-01
4.755063821924480627e-01,2.944320397424507463e-01,-8.080843707009313093e-01
-6.334450226711506593e-01,7.141154044755506636e-01,-3.607683330033805702e-01
2.413387782608317558e-02,1.945041017397265148e-01,-9.944528932206435634e-01
-1.192613376302597006e-01,6.266390889429637179e-01,7.633181113827491870e-01
-2.083154050242008448e-01,7.923561731347009141e-02,9.777493645644742548e-01
9.492473079639566214e-01,-2.418979778834507710e-01,1.779728454110994784e-01
-3.369362269701133838e-01,-4.758962894416175482e-01,-8.038920906699184021e-01
7.768031514124471015e-02,-1.480671766931309641e-01,9.771026015018208222e-01
5.288696700111429339e-01,-2.961486341663402966e-01,8.101967307395963047e-01
1.007848548962258395e+00,-3.685549964890961171e-03,9.329874621112611843e-02
6.461038969401002863e-01,7.643652071169974027e-01,-7.290982338878074231e-02
2.997651248594802587e-01,-1.087501657730524512e-01,9.474331130553359515e-01
6.570640682338008132e-01,5.150301158934588175e-01,5.299311361590504088e-01
4.040042671603499280e-01,9.175679705229650152e-01,-2.628549194235941383e-02
5.251407298888282060e-01,9.027179281496290619e-02,-8.517971969067105187e-01
5.574251935768655963e-01,-8.241089170574130707e-01,1.005448869835985359e-01
-5.906912629469794895e-01,-1.854914444735509538e-01,7.879990248539259223e-01
5.360594341490984016e-01,4.000984624410879875e-01,7.491125470629532712e-01
-3.012428234136271255e-01,-3.338641870592021776e-01,8.812292787118112258e-01
-2.631223916622781878e-01,6.122673498181873536e-02,9.551456149543654517e-01
-4.876329490831762259e-01,-6.756357993299366704e-01,-5.410543124927363889e-01
5.167066377955582546e-01,4.740801719044508700e-02,-8.654473748494829755e-01
-1.394237875685976069e-02,-7.734192526785510502e-01,6.365472458170564618e-01
-4.360488286646566070e-01,-5.732747048614158514e-01,7.204126598436768614e-01
6.217286999775862438e-02,9.694080005313215898e-01,2.814986553170055750e-01
-2.210951930791356934e-01,-6.363053331575834193e-01,-7.521250964835813901e-01
9.075293165420457164e-01,3.912673516744564206e-01,2.113413167707033913e-01
5.431606109530180415e-01,2.421147009847175458e-01,-8.150670732518632278e-01
-2.519745038664608638e-01,-3.950836579818079453e-01,8.684056058410282164e-01
-9.157094011344009132e-01,3.814687901143614113e-01,1.736584636063265852e-01
-1.639458026045749195e-01,4.504339486820960747e-01,8.876068268228324287e-01
-9.637997676431795391e-01,2.286727759901363566e-02,-3.094539030900765875e-01
9.721396805578761402e-01,3.419298360099703310e-02,-2.268454045207816128e-01
-9.871719694953950963e-02,5.746912817143513541e-01,8.178125641305160620e-01
3.243293796913788718e-01,6.552064847630565403e-01,6.645378811410640463e-01
-5.779188701226525282e-01,3.296827575235359853e-01,-7.588762506380453132e-01
-3.163816130850636288e-01,9.267306507804203841e-01,-4.462684450962663835e-02
2.910291439760139265e-01,-8.860946705371345322e-01,3.495177859842368839e-01
-8.275808713919242665e-01,5.178329236046804729e-01,-1.662250773412771165e-01
5.782005172638885471e-01,-5.402819271282238711e-01,-6.259951873998030880e-01
6.744473366618289889e-01,6.562033765713048972e-01,-3.454433350435562877e-01
1.773874308075454875e-01,1.917596620332885637e-01,-9.537237429392738663e-01
-2.921905063536903713e-01,3.491581254230907150e-01,9.049254161682460662e-01
7.304353001757776243e-01,-4.616644536233686646e-01,5.182894473759735998e-01
-6.407871521201853326e-01,-7.710920958294520400e-01,6.014872441221805893e-02
8.255220923486398243e-01,4.234324802955946598e-01,3.957015977081674296e-01
-4.361804853220870304e-01,-4.606889028394864916e-01,-7.800663719385390049e-01
-4.206094204433826200e-01,-3.315086210187597748e-01,-8.369282208231957343e-01
2.753913709257531095e-01,2.884829308189985619e-01,9.036315903806667604e-01
9.110070376479263432e-01,-2.987341940665684259e-01,-2.343465006324311206e-01
-8.021893972373099757e-01,4.804926265031339017e-01,3.794725134016955215e-01
2.526476262388624439e-01,8.691554633341892766e-02,9.669843870010307318e-01
-5.130346801645546684e-01,-5.455814103800117332e-01,6.479384453461618509e-01
2.084248815460879728e-02,-8.044182675629285573e-01,-5.788379665536429464e-01
5.673198138248101152e-01,1.350079676203646065e-02,-8.329359932410821399e-01
-9.359385800604222427e-02,-3.586850504581272636e-01,-9.117996691368511764e-01
5.677038754649043062e-01,-7.935014166839002847e-01,-1.908908980956622037e-01
-4.749029457553733957e-01,8.830751142231137996e-01,-1.168261471946765856e-01
1.237204251868110338e-01,4.428449483073435000e-01,-8.904111529995267782e-01
-7.852369579268563271e-01,-5.914213849075754537e-01,1.483426290936959158e-01
-5.031019847145806745e-01,-6.184858145272509322e-01,-6.282714475318985636e-01
5.882971904863979473e-01,7.863849281506379851e-01,-1.830125725450846286e-01
-6.008987733466065739e-01,-1.888254919116869046e-01,-7.918733129292212514e-01
1.844130017310744163e-01,8.696037007891936621e-02,9.699787220048937675e-01
8.824208345188495617e-01,4.059250188334312393e-01,-1.118304825446456569e-01
6.515933651331772269e-01,5.196968310320857487e-01,-5.831655640991115774e-01
5.032480168061614911e-01,-3.937717958889010994e-01,-7.535717118145048854e-01
-2.024073465098677471e-01,-5.172517843934495430e-01,-8.264896656665289276e-01
-4.627252621444790104e-01,8.346381214386465741e-01,2.855143926000156540e-01
2.019399901988821466e-01,4.840668548509080571e-02,-9.691554068603530636e-01
-2.910258433358177688e-01,5.368071381881847071e-01,-7.955942292418175521e-01
2.511244711973222299e-01,6.042382990109755880e-01,-7.981564403844564337e-01
-6.728930791742274709e-01,-8.680918040969305693e-02,7.537910519994164282e-01
2.293205133656780748e-01,-8.614357860870903716e-01,4.350428396380846552e-01
7.603838775988860377e-01,-5.906429757112846568e-01,-3.205063626577270841e-01
6.610954345740605032e-01,7.340717841410604461e-01,1.805000530287441951e-01
-8.079082554182439591e-01,-2.148153406965449402e-02,-5.923672260237777820e-01
6.639000810007709141e-01,3.109848089807477067e-01,6.878006435629480109e-01
3.018584240356610437e-01,-7.335383994880593228e-01,-6.160067167642931940e-01
-6.076074351160487552e-01,7.801509250904729020e-01,-1.485573855614319150e-01
5.019889082206794445e-02,1.417558478073964630e-02,9.938600011840353909e-01
-1.022031369755495162e-01,3.723318285654880766e-01,-9.044855271282622455e-01
-9.969747527774934781e-01,-1.046575183934741471e-01,-7.558328912800148236e-02
-8.100751412342070967e-01,4.870306890442753223e-01,-2.757961406395018633e-01
-8.939028511389018883e-01,4.453361067162331377e-01,1.126021246818805222e-01
-9.854677191147334092e-01,3.016181370389816804e-02,1.449255746686690660e-01
3.894221720298713940e-01,1.470710478384836262e-01,-9.209947549574653003e-01
-5.298169462218660364e-01,-5.167002185810312120e-01,6.913112261864082786e-01
6.117463107789824495e-01,-7.106723471415983262e-01,-2.893111639358910137e-01
-5.752453049425099163e-01,-7.340862271855933541e-01,3.712351253726979827e-01
3.866482122415037526e-01,4.985026142272737659e-01,-7.886356313790767736e-01
5.029615343837634533e-01,2.424278973524593983e-01,8.432839186142033761e-01
3.361790892865271774e-01,-9.365505293783534801e-01,9.753754240616459292e-02
2.191424547499738473e-01,1.045651296585616563e-01,-9.742017329980524609e-01
-1.179692173627556739e-01,-8.346884886640181245e-01,-5.481154419082128193e-01
1.303571140813658269e-01,9.138460267112491486e-01,-3.846399582351048840e-01
4.208137637083027571e-01,4.785431881281950739e-01,-7.743466713640391186e-01
8.849253164487150825e-01,4.659961882411973733e-01,1.038796471744614092e-01
9.205954031778964541e-01,3.179224876293412771e-01,2.371457852719004999e-01
5.021161819716221109e-01,-6.639056645242190635e-01,-5.612406199013880714e-01
7.206073552887247713e-01,-1.144982447271924303e-01,-6.742138485380219093e-01
2.167370114889344834e-01,4.121284910874652985e-01,-8.875134381959121077e-01
7.548134730453671670e-01,-3.662746221072682440e-01,-5.668131851555432421e-01
1.976934116196832902e-01,-4.848312516164103858e-01,-8.461203829558942013e-01
-8.941445005274490931e-01,7.608082153105701073e-02,-3.892912087366104390e-01
1.093449568483192275e-01,6.488223514922337731e-01,7.753931926986160628e-01
-2.111828472308770188e-01,-9.627879690003837698e-01,2.145368138484095855e-01
-6.269182473501275776e-01,-5.619026846769983319e-01,-5.304689398975654946e-01
-1.355988181170764417e-01,2.049191499663602367e-01,9.568834677690708501e-01
7.190957035679285472e-03,3.614090134769478158e-01,-9.389574809117029464e-01
-4.164476237781192247e-01,8.217565340300742038e-01,3.941975192423758378e-01
-8.054617244343742488e-01,4.734522490478904611e-01,3.853721022759895587e-01
1.161974694438388904e-02,3.231897110036173748e-01,9.458014390861871901e-01
9.452420796093033983e-01,-2.448813947414623382e-01,-9.829615273694693178e-02
-6.973083630799847832e-03,-1.828330252280692056e-02,-1.003340466706317269e+00
-8.127222330157686248e-01,3.373948462825077099e-01,-5.209460079238515950e-01
3.377145263414088605e-01,-9.216017281686451623e-01,-2.470426369133978395e-01
5.869998704703368597e-01,-4.799599618573137660e-01,-6.339021663935571205e-01
6.900714115835865359e-01,-3.629728516651047898e-01,-6.489630118265278247e-01
-8.027855486804373886e-01,1.128476334410956627e-01,5.973778805880463061e-01
-8.532160004506572637e-01,-4.206424985902388891e-01,-3.173673075095904128e-01
6.939592529299518642e-01,4.589349395307870672e-01,-5.298431403279664220e-01
2.191145553581683447e-01,-6.990316689349634904e-01,6.792975162420908930e-01
-3.045371421971331261e-01,-3.103956080004459661e-01,9.066298257468509147e-01
7.994730033282765325e-01,3.947896021022832547e-01,4.482560324263425433e-01
-8.790347713651673889e-01,1.501229894584282798e-01,4.057672374835201712e-01
-2.595487366345819447e-01,7.285131993382086835e-01,5.973723307396396898e-01
-7.231776685604426325e-01,2.737351381276139084e-01,-6.240681351803339938e-01
-7.287403873072719751e-01,2.829473144789860783e-01,6.179403029894601218e-01
5.910163322830549459e-01,6.085794157989646846e-01,5.256524783944345192e-01
7.000727126499491915e-01,7.154922664573707403e-01,1.181745085453402011e-01
7.975556835205968031e-01,3.116981749493509812e-01,4.834339096090888854e-01
-5.621894076831667197e-01,8.094610779899427122e-01,-2.176814543134066304e-01
5.083537523566200589e-01,-7.506855885762220293e-01,-4.290626342386902881e-01
-4.493773209356722864e-01,-4.024414084969434313e-01,-7.973513931031720459e-01
9.738207504892951727e-01,-2.422384600524612741e-01,2.609590075279711804e-02
-5.185892007581818230e-01,6.549797874567568901e-01,-5.661676019556360906e-01
9.331390803275332324e-01,-3.111696488621256695e-01,-8.525060246789670226e-02
1.003487240256818458e+00,-1.116654461324361781e-02,4.759151560787281549e-02
-2.903543529018509095e-01,9.540210350626694424e-01,7.297654503215973004e-03
-3.943004558499984546e-01,-9.130492482696389578e-01,-6.829341489917195585e-02
-5.750328532502182455e-01,5.860891162915238262e-01,-5.991300518483301252e-01
7.675333900857621572e-01,6.450281129747112985e-01,4.979664565086337064e-02
-7.720805334516499530e-01,5.266385894533839318e-01,3.509914333985659218e-01
2.320837006999582619e-01,9.343813820239645906e-01,-2.791424906605469158e-01
1.004252859610694992e+00,3.653983750531485108e-02,-1.177972701256493199e-01
7.231956872597451735e-02,-5.418148201438195422e-01,-8.235674261558587617e-01
4.016188676228760190e-01,7.072425141804287163e-01,-5.731789133304139305e-01
-8.769830105780233032e-01,-4.802248072081788943e-01,-8.574106918736595917e-02
2.953198776688409355e-01,6.380520296015711468e-01,7.165586680867889191e-01
-4.506186907951164611e-01,-5.979761917266751547e-01,-6.541345562275604486e-01
-6.547166587389248171e-01,-7.385709157026901783e-01,-1.330743459609896873e-01
6.004859875140673431e-01,-3.238879944164598235e-01,7.311441002646941190e-01
2.977213264451485375e-01,8.273527943049205913e-01,-4.903016166134670506e-01
5.442620478465286515e-01,2.305698349657450685e-01,-7.904209177687014920e-01
-3.541829794852126567e-01,-8.202380964028833654e-01,-4.559686470435806993e-01
-3.660695563954514675e-01,1.409863217836700988e-01,9.128457083217752510e-01
-3.085129705103185072e-01,-9.213960941394804260e-01,-2.171652731397762104e-01
3.705635326160328091e-01,9.190463363060258351e-01,-1.809797118649002223e-01
-4.527628901717701410e-02,6.464676755354747950e-01,-7.567403512620661798e-01
-5.939974873959043000e-01,7.999482752369244665e-01,3.433153004772641903e-02
9.224415316045001534e-01,3.460348910008947954e-01,3.303950903064682004e-02
-1.558058602411085958e-01,6.559234753176842458e-01,7.296829778066211691e-01
7.348250152984754369e-01,-5.414009799459906791e-01,3.904310962844366184e-01
2.199820615980252747e-01,5.596777037398568966e-02,-9.793421423807399107e-01
-6.817306221030849933e-01,3.515446226132171170e-01,6.398970857922781086e-01
4.155710434129634284e-02,8.712468790622577286e-01,4.596330788341265183e-01
3.300738029197767265e-01,-1.905842896464174929e-01,9.399379712704843959e-01
9.711731659733726651e-01,6.659099281794379765e-02,-8.476289589917848644e-02
-4.936729047210113852e-01,-6.538917259883796351e-01,-5.839083453175127891e-01
3.510035796205559361e-02,6.576828864429115074e-01,7.605283188988021248e-01
4.056880496828364491e-01,-6.268351156318781037e-01,-6.574408808610492372e-01
1.270616313925018170e-01,9.780562474784219029e-01,7.333426541449386549e-02
-3.190209148844074249e-01,4.428302068494571198e-01,8.436244593500824562e-01
-1.513982036817675958e-01,3.713551189837562272e-01,-9.257716932747515060e-01
-3.300034690616889255e-01,-8.887707040247144752e-01,-3.280458492220548750e-01
3.154766144585811061e-01,-6.405290624511451592e-01,6.908859748696687397e-01
5.324425535210320914e-01,1.816980062441187205e-01,-8.246856211546097493e-01
9.083586138693811041e-01,-2.722205398865585324e-01,-3.037916666810681621e-01
9.476678301850228747e-01,2.832077471471164953e-01,2.999763293850832291e-02
-9.384933206422235719e-01,-3.328174257703386818e-01,1.449833899337553411e-02
1.804598736447126650e-01,-7.902987904001443908e-01,-5.841471415914866183e-01
-7.312811156648819644e-01,-4.022438273725639224e-01,-5.669926274035615998e-01
2.265542002352328166e-01,-4.803122858263078054e-01,-8.499857139955926399e-01
1.372872212085574639e-01,-8.480861456580771618e-01,-5.066661017559137559e-01
9.638064087851234696e-01,-2.172359888103481962e-01,-1.214305243391400890e-01
-5.557519287957958243e-01,4.654797759972308380e-01,-6.910918699328412185e-01
8.640177841534840697e-01,4.554160919254269246e-01,1.903559066657249665e-01
1.822558563006168031e-01,9.473689371024803796e-01,-3.319242274185243424e-01
7.289354860498522548e-01,6.208718407374065329e-01,2.880670022568668220e-01
9.123034899280442200e-01,2.586415910723416367e-01,-3.222920812218470488e-01
-2.323392778425639460e-01,-1.560429093915790544e-01,-9.568652789124090230e-01
-7.686536716888202614e-01,-2.946373135272503108e-01,-5.747803302755473132e-01
-1.986721991192181291e-01,5.261021382406161351e-01,-8.276650324706675832e-01
4.774727834798579984e-01,8.657690224128962164e-01,-1.121028759882073123e-01
-9.801467594953342521e-01,-1.308843103139905595e-01,-4.325394558468772382e-02
1.438114380893989741e-01,9.114544863089792948e-01,-3.976170401051243308e-01
-2.982577089652480584e-01,-5.118145831253302358e-01,-8.057074491481107659e-01
-2.418025798719851405e-01,9.484385160389702252e-01,3.260203304848428019e-01
8.397681101566485395e-01,3.987890442392557078e-01,-4.156647892124646915e-01
2.523932668004549677e-03,-6.430645874240422666e-01,7.671263044453731084e-01
5.183707284907254076e-01,-5.914718588383226505e-01,6.453205997467961197e-01
-1.476883416847132565e-03,-8.975086963027913978e-01,3.927228123874083043e-01
2.729898589302261896e-02,5.100210807844827166e-01,-8.420540335374807617e-01
-3.441221829036268942e-01,-8.588276216000947372e-01,3.464996286352305943e-01
-1.275779353459404464e-01,2.913766050304251731e-01,-9.318069366139125620e-01
3.046221670762937483e-01,-8.835800706240053426e-01,3.623820714162805934e-01
9.753057436132697711e-02,-4.646583697295238458e-01,-8.821445731849726357e-01
9.757919101482780411e-01,1.453284404880376413e-01,1.718601845354027768e-01
1.004308878509347691e+00,-2.878991524290135193e-03,1.242491038851221974e-01
-7.098759735698406681e-01,6.726482880318594981e-01,-8.669819334146559864e-02
9.573801391620078149e-01,-1.755800826724294439e-01,2.596892879691248268e-01
-2.219759398291640262e-01,-2.946599101796926745e-01,9.456876665480998811e-01
7.909856035962780085e-01,6.065936080879187342e-01,8.974132192760658766e-02
-9.262623355100192413e-01,7.214134581572782638e-03,4.006868532769324864e-01
3.246688774097695740e-01,-9.417161181810198567e-01,8.708800837087286861e-02
3.651072144486309790e-01,-6.131764677849903533e-01,7.109962890016262582e-01
-7.370950489524394911e-01,-5.961290386501985061e-01,3.335652247966330863e-01
-6.988822658055953152e-01,6.128353485036034526e-02,-7.033027706649807032e-01
5.928447819126689833e-01,-5.182970560423062478e-01,-6.137152911175066672e-01
4.619021290078032527e-01,-8.886885516713772803e-01,-6.811032393994941037e-02
-6.490553924733937219e-01,-6.808467448908277486e-01,3.115290644442172963e-01
1.238072050934814761e-01,-8.431402624315371963e-02,9.989734476674555497e-01
5.861086959074718328e-01,5.007774472619329620e-01,-6.394407662780263735e-01
-2.633509176148750297e-02,8.279613066389567011e-02,9.992741973541044986e-01
3.121105789604601277e-01,-7.026239295942678931e-01,6.398422614018137722e-01
-7.744000234577036457e-01,-1.749105102113651944e-01,6.081166156772682685e-01
-4.407730208207457090e-01,-4.644480980336755382e-01,-7.742826770331440178e-01
-6.853046069784042293e-01,-7.148045775184823647e-01,-1.179826861688405004e-01
-9.430415832259307907e-01,2.666985686683590040e-01,-2.208824025931074575e-01
-8.705206721961255001e-01,3.472306168479938338e-01,-3.787249228843479476e-01
-5.157503138389361030e-01,-8.172327827956359370e-01,2.519618043604301971e-01
-1.976221823849163284e-01,6.662871945942383523e-01,7.206316205586087431e-01
1.213131855611754156e-01,1.709943853259069876e-02,-9.838999396384092710e-01
6.471952243111095404e-01,-3.115490769220236600e-01,7.089003052801166049e-01
6.081710921788421320e-01,-3.359377091755004763e-01,-7.261028149717626556e-01
-2.895965578831636855e-01,-9.277670211288484570e-01,2.481213318764373399e-01
-7.977834590749814936e-01,-5.210037816034429614e-01,2.930323881581793355e-01
4.390013778500899688e-01,4.699803210860959563e-02,-8.945379663338706155e-01
-6.155495397268320179e-01,1.264774639068205198e-01,8.185710709199115476e-01
-2.518878659386616925e-01,8.289524626814247510e-01,5.248419251223421789e-01
-6.119792334259404054e-01,-6.059774335324346062e-01,-5.135947109705878422e-01
6.230793916674977062e-01,-7.590895499597323237e-01,-2.097948780374125563e-02
-8.558136172897231608e-01,-7.424608642198418651e-02,-5.332017286345080986e-01
1.194760180271843379e-02,9.699075544077232491e-01,1.910439312783595300e-01
8.307292299640994804e-01,5.587298362253410033e-01,-7.543057188250641698e-02
-4.585004049507229174e-01,-3.606422363894064009e-01,8.157117317282032154e-01
-6.034939524732501059e-01,-1.928713211840192288e-01,7.752453565021065751e-01
-9.627643823005196388e-01,5.399352628983325117e-03,-2.703042963257665243e-01
-4.340178912613463780e-01,-8.887203606325659866e-01,9.202307843003565413e-02
9.495645011256407253e-01,-1.658918957770491309e-01,2.874969805289011027e-01
-2.531867302248826945e-01,-8.942715289323579508e-01,-3.804501161960938127e-01
-7.790259922944071658e-01,5.966410606358161228e-01,1.805180594213758594e-01
-9.461339592022320888e-01,-2.440641379076080864e-01,2.314112175163111074e-01
9.226544072007522024e-01,-1.290428148199382896e-01,-4.097049336101895589e-01
-2.637723960893542663e-01,-8.365317928642307388e-01,5.098693555320298332e-01
1.589678147669095487e-01,9.718274009617429154e-01,-1.499832092449762677e-01
8.687049282960087604e-01,2.935435669792977875e-01,-3.382426803408858373e-01
2.721875200174533882e-01,9.592337517848098516e-01,-9.441444911525290196e-02
3.383771955315386659e-01,-1.765715509613321466e-01,-9.300642744496324665e-01
8.720037309994436159e-01,4.724356839112264228e-01,1.356978084934226392e-01
3.358244124057230273e-01,-9.193190895116162276e-01,-2.071395448561859365e-01
