4.081371529329499287e-02,1.264162584276505297e-01,-9.925114554524888666e-01
6.900122053960668911e-01,-6.272022820827889422e-01,3.605728181969372059e-01
3.593891478833974862e-01,-9.334432057435472219e-01,-6.184972595969689263e-02
3.273221150377322308e-01,3.749484949217893326e-01,-8.520439729259581263e-01
6.689441853487133605e-01,-7.356691642527197761e-01,-1.889348060491078396e-01
-5.336725442971854694e-01,2.759943397859956904e-01,-7.861605789861545457e-01
3.557130319074631175e-01,9.047939580506515478e-01,-1.934474809163308773e-01
5.409759976580900132e-01,-1.066737876875998997e-01,-8.373048265333075113e-01
7.027299332830593270e-01,-1.111856660921521078e-01,-6.991372319703220706e-01
-5.938381559259512388e-01,6.953261694553227734e-01,3.843077158199642573e-01
9.654905583987768436e-01,-1.783798682253963375e-01,2.380952521921041731e-01
4.186550006669327861e-01,6.454116521635386849e-01,-6.262845972397421690e-01
7.424748197489583479e-01,-6.075834885905689875e-01,-2.969264358183419938e-01
-9.503707771616175526e-01,-2.482928807475274224e-01,-1.384320005376239171e-01
9.255289743567213234e-01,2.720809157317845006e-01,-2.477599054298421921e-01
7.201718820023805812e-02,4.559739996089672287e-01,-9.046983230432702472e-01
4.507361740790684079e-01,1.426711143763259582e-01,-8.770792904892559250e-01
-6.700755682160473015e-01,6.805577312561379433e-01,3.025261737777582005e-01
2.023174348155081792e-01,2.476928905690142513e-01,9.545991040381521797e-01
-9.810532379375819234e-01,1.314619199313795672e-01,5.845340523543267851e-03
8.952174862631145924e-01,-4.350434076357709845e-01,3.965010937170777849e-02
7.422105951939252932e-01,6.165646084900697765e-01,1.861335051215512459e-01
5.319501851767249878e-01,-2.769402141194408640e-01,-7.992454245079405606e-01
-5.883564881686690340e-01,8.055222837095479260e-01,-5.656220251115010728e-02
-2.126094132712384455e-01,2.819439387091098315e-01,-9.275366858174136642e-01
7.264735565903963910e-02,7.065798929031784636e-01,6.895543486745775441e-01
-6.084788198400100656e-01,-6.867911044902234863e-02,7.926130262330562948e-01
-8.891286829989922813e-01,4.023467762702110928e-01,1.512238369066799260e-01
-3.851742692725830253e-01,7.952095353040236070e-01,4.652585246498583960e-01
-4.655389246785073820e-01,-5.035751844954079737e-02,-8.994958928919447594e-01
-7.360184554675327506e-01,-5.987271397565245845e-01,3.276565696441532394e-01
-6.510912081442939148e-02,-8.275014714059918397e-01,5.181458175923940868e-01
-5.467237795018797808e-01,1.597680316953788704e-01,8.023849931876497754e-01
-8.089331456129602582e-01,2.499166706071426769e-01,-5.185425720788796600e-01
9.312964826851836131e-01,2.358154015767863210e-01,-1.813263914299310942e-01
-1.689996424377150919e-01,-6.973569600158247006e-01,-7.026529943631981689e-01
2.400099082762643943e-01,9.600600004526429476e-01,1.576009095224546186e-01
-2.375140914873556386e-01,6.453390040877602374e-01,-6.991626159113953909e-01
-7.204660960289751559e-01,6.757890530268098050e-01,9.444409930417248245e-02
-9.048222414059102839e-03,-9.836212995246060853e-01,-1.304007031260979721e-01
6.288752882124670762e-01,7.488968436203260470e-01,-1.295117893006684784e-01
9.467311928476537242e-01,-2.002400467071110413e-01,-1.813850992575862520e-01
3.537204383504668342e-02,5.901739590534673674e-01,8.172052234915921920e-01
4.349320534268020372e-02,-1.005801705078579689e+00,-3.997960954308237697e-02
8.563507387079082323e-01,1.127229595825717523e-01,4.743714210418128463e-01
-2.597736845219484336e-01,-4.609308609426684966e-01,-8.573804927598900338e-01
-7.000303571124083524e-01,-6.294080991714958717e-01,3.600516792963788237e-01
7.398774317213844265e-01,-4.759532971935757084e-01,-5.037446944094220447e-01
5.354301162269413661e-01,3.086156706373655023e-01,-7.689191583245943429e-01
-2.367332415260813561e-01,9.376000195231830592e-01,1.948168995122383229e-01
-3.335011402447772277e-01,-7.404311790732055476e-01,5.764531965160242244e-01
-9.008430636598367958e-01,-4.008616223807153767e-01,1.129462828622244397e-01
1.304181185629434137e-01,-6.130983462431858211e-01,7.773074561315695963e-01
3.589305409360927235e-01,-9.149155361111772633e-01,1.034301678680382974e-01
-4.035812071168789483e-01,-6.296733770335867231e-01,6.775570886605787324e-01
-7.808549601315949440e-01,6.443477432721814724e-01,1.240877840847182945e-01
-9.770377514519752726e-02,-6.779799809053038695e-01,-7.371888889973612358e-01
4.929073414359216310e-01,-6.123290727558928781e-01,-5.861598149097643207e-01
-8.611978050957915798e-01,4.814059299266210679e-01,3.786978663775795052e-03
-1.402139226427497054e-01,9.417627403054605884e-01,3.255688837820377435e-01
-1.249957387293605532e-01,9.417568468045708352e-01,2.790143203756631496e-01
-8.669705772508993213e-01,-4.595729164339374950e-01,2.103301884283528267e-01
-6.141259484017083103e-01,1.486020205663657334e-03,-7.907941351623939408e-01
7.565555333454163645e-01,-6.510598585117827186e-01,9.325366980684650364e-02
6.019595541063103017e-01,-2.482006557511760303e-01,-7.767639961321723963e-01
-1.009310221030930987e-01,-2.426930114068479305e-01,-9.606944563068243736e-01
-5.802730234302375667e-01,6.185193371280708341e-01,5.488094118773149122e-01
-9.127370784645779667e-01,3.123047763633865492e-01,2.531099785044810813e-01
-2.874693269198422274e-01,8.705589995382915225e-01,3.928234773689530668e-01
6.958392692160226822e-01,-6.926302840056242083e-01,2.788376567818429685e-01
4.938865272521643646e-01,2.906151343092180372e-01,8.088344710409876015e-01
-1.580463078935596954e-01,7.242578570552927753e-01,-6.618068929510908527e-01
-8.757297250764517482e-01,3.601259384166377031e-01,-3.271683774389291255e-01
6.376992444776952151e-01,6.047531353250989311e-02,-7.441470680326935927e-01
8.994494082550789082e-01,-1.955001729302277003e-01,-3.645304550331631699e-01
2.330490872307725836e-01,1.338986271280105667e-02,-9.767593513356429558e-01
9.569177441019809383e-01,1.641637878395277861e-01,-2.273485659417589233e-01
-4.914862330984854366e-01,1.648716208250111115e-01,-8.614527545687916676e-01
5.277137923238347517e-01,-5.690376055905556063e-01,-6.358146746761245138e-01
3.165066439946018217e-01,-6.509238735517048902e-01,6.909486317844075742e-01
9.640686300968802636e-01,-6.859626508922354871e-02,1.785415136566360639e-01
9.028541719880184280e-01,6.123600986980540922e-02,4.148991878490248530e-01
7.062483231736879086e-01,-4.440764523762891769e-01,5.537911470954716142e-01
7.353397498570343194e-01,1.150174003430761011e-01,6.664870052508626852e-01
-8.138608784341452296e-01,5.130446993318781290e-01,2.429806296752234918e-01
6.867416802323808023e-01,-4.879847530094642005e-01,-5.230678814489726491e-01
-3.218695173999692183e-01,-9.383772597234685264e-01,1.849573972044543935e-01
-9.127200049187752517e-01,1.495805381096011188e-01,3.887061790498945180e-01
1.773267202647672847e-01,-3.818669028272462795e-01,-9.105171972700341065e-01
-8.520107890993414701e-01,4.401905495833738913e-01,-2.879233575483515772e-01
3.946294430538895837e-01,7.455401510767590834e-01,5.569843760242781938e-01
-6.792029085723282344e-01,7.018103259763804058e-02,7.236846833331368467e-01
-3.683502349642152063e-01,1.114690701435557540e-01,-9.209818982273059174e-01
4.684877482585549924e-01,8.717848576617752698e-01,2.042584546478402319e-01
7.092683146802596372e-01,-6.771782114089183180e-01,2.166925774538857319e-01
9.192441543426758122e-01,-3.120783775969436236e-01,2.314277971152345903e-01
8.875635824103449423e-01,-3.974301248398061093e-01,-2.616810782350967868e-01
3.711113741574267877e-01,-3.509428519286926784e-01,-8.560675727446632743e-01
5.144067888494178176e-01,-3.096104493541473879e-01,8.056837540805724673e-01
-9.795014749178853064e-01,-5.523152882092850074e-02,2.351298495201604999e-01
-3.372513780223213020e-01,-6.805074197179897810e-01,6.228845803530511649e-01
5.550855684787189270e-01,-7.210071575517085218e-01,4.197228332242336490e-01
9.118487184838514059e-01,4.063437580882057754e-01,-2.975172222286557450e-02
-7.288800375616227845e-01,-1.672966894223457124e-01,6.458401093517872615e-01
5.126843444838653507e-01,1.754055906704394263e-01,8.371365203010029399e-01
9.316562057866355495e-01,2.891348738662958273e-01,-1.592364207537300125e-01
8.372018989906261366e-01,5.329000197790121351e-01,7.396638572933821043e-02
5.018991230290749117e-01,-5.360033305117816171e-01,-6.797323996324134976e-01
8.279829820600296264e-01,-4.623160993656795226e-01,-2.889922249602727700e-01
1.905228234380648977e-01,-4.432536634090941119e-01,-8.930629506704892417e-01
7.488859851797017297e-01,-1.196231346758657860e-01,-6.671496189720172998e-01
5.991154513211645050e-01,-5.980066673122699239e-01,-5.204932720054726847e-01
-6.381691129165066867e-01,-1.275180718250540635e-01,-7.731367666589281651e-01
9.480243777609180800e-01,3.863051703421229166e-01,9.471250454690369192e-02
6.371712585488545910e-01,7.577474866831035438e-01,-4.938722090257877118e-02
3.377406452023829497e-01,-9.220824952894481896e-01,-5.468262003092124422e-03
4.674962166969985344e-01,4.707146360338259616e-01,-7.597031948885183406e-01
6.723077271864880133e-01,-4.317808274077284542e-02,7.305238364746529101e-01
6.030522720644391210e-01,2.719131531158304194e-01,-7.380997331799293848e-01
-5.281086694957893846e-01,7.108633462061197950e-01,4.746705680598491961e-01
1.579221884969041201e-01,-4.915251339403051145e-01,-8.511966380695840106e-01
8.294953124724963045e-01,-5.763227526078721352e-01,3.661551055592476844e-02
-8.975748054168426471e-01,1.862964431474582738e-01,3.852405154689234612e-01
-9.901265256677410642e-01,-1.244840041628876431e-01,-9.164609852088083375e-02
3.993353746159611917e-01,-8.846242515345511537e-01,2.294540900857728050e-01
-9.318023792735442845e-02,1.419770719908970136e-01,9.684101712257219274e-01
-8.171259360784685066e-01,4.853344216752256690e-01,2.941889288434266225e-01
9.257461668995543569e-01,-2.477081411934177191e-01,-3.148201020466750433e-01
-7.239901782160625965e-01,2.076764274128906906e-01,-6.512521994616649046e-01
-5.119539640497001720e-01,-7.806291251861035008e-01,3.668555462303745296e-01
4.679620752561219343e-01,-6.010468134428776921e-01,6.490967701062239081e-01
-9.543553941589363321e-01,2.254153487854169691e-01,-1.495329235327327588e-01
-3.943994260010876274e-01,-6.494816528241623699e-01,-6.522536498473787692e-01
5.008247419076977680e-01,8.652142107041069785e-01,7.858297572021855082e-02
-1.498658056302554498e-01,-1.642348893300926427e-01,9.650676265773692197e-01
6.957396470997505578e-01,6.327644792051181355e-01,-3.358591396179873567e-01
-4.274302717665552920e-01,7.055506248500291733e-01,5.789076615828728789e-01
9.828064538096328295e-01,1.553394054534301405e-01,-1.605586095881677000e-01
-9.078919875054592969e-01,1.739828164207799510e-01,-3.624807558372821203e-01
-9.326623233588536843e-01,-2.043415444229478573e-01,-2.747292919699824698e-01
3.951078119313681802e-01,3.234210800837345468e-01,8.787477260659172229e-01
-9.438784032237671484e-01,-9.977249596100055962e-02,-3.407434574286875018e-01
-5.491545642670573324e-01,-7.805128343530634005e-01,3.043514096842014349e-01
-3.865889829008679612e-01,5.030857846144280998e-01,-7.779151598454275840e-01
1.193049738143971417e-01,-2.080065267797011619e-01,-9.600873277080770318e-01
-2.548344416390165845e-01,5.979187595991725113e-01,7.760375484508067467e-01
4.078837584916596981e-01,8.458706285130955793e-01,-3.485184399278170031e-01
9.825173171045592513e-01,1.772012685824685685e-01,-6.589950175923962872e-02
-1.423191582633585028e-01,7.710179963790642077e-01,-6.097663527555963192e-01
-8.554229165286425518e-01,5.162624336113528223e-01,5.547692165578962248e-02
-7.101826263678924223e-01,4.695139889088461582e-01,-4.774147957196037684e-01
-4.430216868566818067e-01,6.155982306594389719e-01,6.475467842508111360e-01
-4.946086410794276467e-01,2.401653692093264625e-01,8.390024160262544717e-01
8.012327280520827877e-01,-2.369793367583818144e-01,5.246168754026059311e-01
5.325811745765335337e-01,5.012321336902649804e-01,7.010936174289021938e-01
-9.117283464386247704e-01,-1.487086303803165366e-01,-3.852864955058930563e-01
-7.786467572547868254e-01,-5.449230807867977422e-01,3.368427063845486624e-01
8.588494212760553470e-01,-4.734665336327871232e-01,-2.113406622883909070e-01
-2.340853770222380698e-02,-8.065664623848449732e-01,5.602933487845340732e-01
-3.263044784302307488e-01,6.223350018184907739e-01,7.139507224942964747e-01
-8.942628273881904066e-01,-4.570708935246256543e-01,1.152967862020082279e-01
-9.274506293900505183e-01,3.071565689859515058e-01,-2.315580357762427044e-01
-4.215450274453664270e-01,-8.982467964392526483e-02,8.910171189019117088e-01
6.861106413898884204e-01,-6.535484994868183684e-01,-3.407832223943929595e-01
-7.631740695586569645e-01,-2.617589796905047672e-01,5.548537977792992182e-01
7.323490501569640543e-01,-1.887140681961531341e-01,6.490523705065732729e-01
8.897302498864698705e-01,-4.627844378058422192e-01,-2.179727657816084643e-02
2.752494172660557292e-01,-6.482811400317848305e-01,-6.918138299465302898e-01
-4.623406175207868118e-01,8.861007106649529952e-01,-6.547804709512140831e-03
9.884034332950961677e-01,9.161025714765744232e-02,1.213834312327539550e-01
-2.853326566094887551e-01,-2.365983857256616276e-03,-9.609362779256342968e-01
2.873509299865872196e-02,-2.111740052331045336e-01,9.811520924678868161e-01
-9.147518287470464138e-01,-3.832485554151545681e-01,-3.134735653872803424e-02
-8.847785205419801402e-01,3.796891032222893259e-01,-3.232347224226075899e-01
-1.163073349910972581e-01,-9.546550499661616840e-01,2.445509151220066346e-01
5.585502851426109583e-01,-3.646151998749319056e-01,7.306437915690500162e-01
-6.170331099787499385e-01,-1.498955593778160122e-01,7.906216027750534447e-01
-6.805452363229713697e-01,-7.307738922947101257e-01,-2.232067757003760450e-02
2.639175643819411943e-01,-7.370374731845878991e-01,6.423026963188545047e-01
-9.197180185033582145e-01,-2.911383117733357118e-01,-2.507174098534087903e-01
1.982453730970773209e-01,5.321103408083230901e-01,-8.226647352370680677e-01
2.194479157757939503e-01,-8.537047752798929690e-01,-5.052605868547446200e-01
-2.507254859360412147e-01,-9.012798927007614758e-01,-3.819864010925229092e-01
5.782464089505489069e-01,-4.675598798722236937e-01,-6.639441195560099596e-01
6.586571795177145194e-01,2.517474971893047253e-01,-6.907089084937312329e-01
-2.167735922669480064e-01,-9.396937980512974908e-01,-2.222335426858308705e-01
-3.567504668764731601e-01,5.610899420510103708e-01,-7.478676941787661958e-01
7.326217691100347373e-01,5.522154411712699301e-02,-6.733059904778707638e-01
-6.216637050352793459e-01,7.304976126277306081e-01,2.608872685140016245e-01
7.175256810451333678e-01,-5.031182115483562312e-01,-4.802902653744579031e-01
-7.254368368491099783e-01,-4.318825988730561338e-01,-5.344945887013955454e-01
-3.839886262649889748e-01,8.418710908190212283e-01,3.751823211098042621e-01
-9.413665740874772869e-02,-9.641435844601280447e-01,2.716002284699171598e-01
4.574508796232133745e-02,1.332878822918575068e-01,-9.967075998934717962e-01
8.867159909047821476e-01,9.302386555957112280e-02,4.321639797178918885e-01
-3.530232585242736032e-02,-9.608149654417077468e-01,3.390481748739931911e-01
1.936026392148421371e-01,-2.686033913455259658e-01,9.478689104564199663e-01
5.379577027878815754e-01,-7.799971209965211871e-01,3.019112643298616505e-01
-1.000470808707828896e+00,-4.470149229428219129e-02,1.281361699240005370e-01
8.505110677823214393e-01,-1.937741115219827615e-01,5.040493420606402264e-01
6.067045245861532043e-01,-3.617420744826438939e-01,-7.043330076418258257e-01
8.696548827238226309e-01,6.640405538091739834e-02,4.887490095016918668e-01
-8.049927201523717768e-01,1.388536140804482455e-01,-5.899041332059988818e-01
-5.215366060500832290e-01,-8.460037680640747348e-01,1.279685766164556093e-01
-5.517394269193882650e-01,8.150982498101171370e-01,-2.117208487330862199e-01
-4.461510857574949585e-01,-2.025349957143277591e-01,8.528471049223703693e-01
-2.069528625400352817e-01,-9.531222074697245361e-01,2.345856249178092934e-01
-6.721530858417632537e-01,-5.070818365692156826e-01,-5.559614867882537448e-01
1.833001527873940883e-01,8.787026464854555963e-01,-4.239801636513976790e-01
-4.141941247601180209e-01,-1.585546976016151757e-02,-9.124330948093198890e-01
3.513610473413652513e-01,-6.028132794493911151e-01,6.951625428961308861e-01
1.940950074397456981e-01,-4.287376816208928187e-01,-8.785944655137927217e-01
3.318667949638929859e-01,-1.525100412394156668e-01,9.337492743192442601e-01
7.981314670210268858e-01,-4.404300106856517405e-01,4.006054397691112823e-01
6.635461551433267935e-02,5.899994094326778127e-01,-8.025249809933626688e-01
-3.593991949964615573e-01,-1.628523217055607430e-01,9.190333357366869960e-01
8.957512472480074761e-01,-4.249868803225689828e-01,-9.390347049802683088e-02
-8.048102934346111903e-01,4.763647837738097524e-01,3.147612494432998065e-01
-9.772279072300504854e-01,-1.341903274294218608e-02,-2.396558238803627450e-01
6.111301954950555393e-01,6.365771799330770531e-01,4.477599714534716280e-01
6.407501159453048434e-01,1.237578906142247359e-01,7.591857523192711010e-01
8.600896347832741595e-01,4.838026884260552413e-03,-4.963737443794611903e-01
2.411968784872889071e-01,8.068348125660016468e-01,-5.641173588355684609e-01
-5.114515722371295592e-01,-8.626904104538754003e-01,-1.109214409940589008e-01
-2.463808142958596459e-01,4.630928558245028803e-01,8.595502057296403597e-01
5.977993814551927354e-01,-2.186246440233450827e-01,-7.716628094622103307e-01
-6.951949077438903668e-01,3.150412795155512202e-01,-6.185901234544197713e-01
8.651982296362387137e-02,-3.733327143925784242e-01,-9.284687173019792183e-01
7.034522481506354230e-02,3.047114491461429542e-01,-9.452512105537624887e-01
7.598425480873262083e-01,3.189153572841886275e-01,-5.677062813589505152e-01
7.223088585294460406e-01,2.710531489605130240e-01,-6.420965009919552546e-01
9.328437801667707197e-01,-2.988069648118312771e-01,-1.068236261173288182e-01
8.579088574989141014e-01,-4.880508194119721477e-01,8.226089648029748583e-03
-4.465347947742217757e-03,9.822403585661690917e-01,-1.870260019334268331e-01
-1.113849985722461799e-01,9.942341086090680236e-01,-9.442920705403640147e-02
2.013960749279092854e-01,9.266584940197207798e-01,2.236057943880984944e-01
-2.451547225594333246e-01,-9.004256454300152424e-01,3.407904037113194673e-01
-8.046403788389905332e-01,-2.104633822968796364e-01,5.490876332404003302e-01
3.268792956321263654e-01,8.370398578323705319e-02,9.468341017553076888e-01
2.097180828338230871e-02,-9.959118568771265778e-01,1.081196147540141594e-01
7.452181682759372316e-01,6.700462427690427880e-01,8.809021969424676857e-02
-6.534085864291420132e-01,-6.963257986976226777e-01,3.075425313123533733e-01
2.378758202104302721e-01,4.586421614900316746e-01,8.535983325315322778e-01
-6.751029590792130275e-01,-6.521802820181734628e-01,3.261026349770746458e-01
5.601215251778473014e-01,-6.493942180326940372e-01,4.969264845315657375e-01
-5.389418697641190636e-01,6.465980469282354148e-01,-5.638128924585759094e-01
-7.746966844213014625e-01,2.373498663296867359e-02,6.081160570391893616e-01
2.454494663526350373e-01,6.367393875230977773e-01,7.123490166976501614e-01
5.023865000283139759e-01,-7.817062559257286214e-01,-3.399499042364154122e-01
6.099257643591331490e-01,7.215527746743781723e-01,-3.050593752090706157e-01
-2.715862957301340419e-01,-8.562756899801942101e-01,-4.450339482379166434e-01
6.595767096729684420e-01,-7.554355739723624952e-01,1.247320994824838020e-01
-5.372829598967237413e-02,8.833497027081314013e-01,-4.784290042896269246e-01
-2.016546270580673872e-01,-8.090480700441401440e-01,5.410048288427597996e-01
9.419134506917664629e-01,-3.775987455326961784e-01,-3.406585406979738273e-02
-9.818860593717851359e-02,-5.131395268386319541e-01,8.369705509370825025e-01
-7.838150927313639604e-01,-4.813353162668218554e-01,4.034310142633618090e-01
4.555851509302831226e-01,2.080814821080947674e-01,8.706343814890951105e-01
3.336652603652507931e-01,7.404858242317017281e-01,5.806039104659268535e-01
-3.819090848246079473e-01,5.672144076286489423e-01,-7.345940921810087954e-01
-4.434603608662351371e-01,-7.261487105612536297e-01,-5.373586015225627621e-01
-8.036279993355470719e-01,-4.460583377345592737e-01,4.011301643837972275e-01
-1.791377162949724378e-01,9.579749653297287004e-01,1.667402718622846280e-01
-3.639302899230657529e-01,-4.287348260239408626e-01,8.202562825943320313e-01
6.637971232759098950e-01,7.187004211922869423e-01,-2.279580457549431061e-01
5.136592211910088190e-01,-8.329834214298824646e-01,2.685113365262387641e-01
-6.994550328475553913e-01,-6.745845017014003853e-01,1.458556998373264635e-01
1.503587492306293349e-01,-9.099938743605620051e-01,3.874728023284085832e-01
-9.276900051235639766e-02,8.881358193612077789e-01,-4.591778687713823914e-01
-3.636887257074771784e-01,4.532450172104358632e-01,8.168702354909760377e-01
3.580504955983069282e-01,9.279052927018077712e-01,-9.313450787701713562e-04
3.795051313921136704e-01,5.480019789432074573e-01,-7.382936999657728760e-01
-5.771425234585406683e-01,-1.118447971918341000e-01,-7.956116666636338097e-01
8.020543102468635777e-01,-1.189921741102867025e-01,-5.965294988304141732e-01
3.189766445812106804e-02,5.490212974848607264e-01,8.375418630022987143e-01
5.016792015705938690e-01,-7.851682483778770205e-01,3.833621104824875836e-01
-7.632262986942451866e-01,2.852626398589774293e-01,5.624269824748194813e-01
4.419404879051251900e-01,5.625118648696459944e-01,6.938035356990069902e-01
5.155401970885845619e-01,-8.626924480634860781e-02,8.717586411437866500e-01
-4.666601865506994073e-01,7.235634436840662209e-01,5.128681177931723179e-01
7.119675912946907825e-01,7.034183385162802171e-01,1.979132177610412879e-01
6.052977067098906927e-01,-3.060561266653770707e-01,-7.184682968097039213e-01
-4.025555078775950868e-01,7.685197243067044548e-01,-5.094481337319447523e-01
7.970606269268051269e-01,6.223521796992609323e-01,9.302913791631720053e-02
-8.852270888082975908e-01,3.487972833832534980e-01,-3.531796106146706249e-01
7.976719293408922606e-01,-4.969083642046831506e-01,3.196810082579482071e-01
-6.655442029795569647e-01,-6.953517638345786400e-01,2.670790718167643241e-01
-4.368802487966944592e-01,8.121360655874139134e-01,-4.255598076413669717e-01
3.885875872153615046e-02,9.804918806941256282e-01,-1.935958518378433080e-01
7.865335046082926329e-01,-5.516251237286824427e-01,-3.105568166081004722e-01
2.801189046729667398e-01,-5.746606842622168365e-01,-7.826343407945111075e-01
-2.224168428063098835e-01,1.084187273619179326e-01,9.710998718979615418e-01
-3.169745449065341503e-01,-6.604054421455642920e-01,-6.961433746451514137e-01
9.129748552208273304e-01,-4.192071017897048280e-01,1.877966716562626953e-02
9.112276462308807057e-01,3.126564690895333037e-02,-4.328870964973447477e-01
-2.040908372934667203e-01,8.191155293522991987e-02,9.694422544884604420e-01
1.711213777812584380e-01,-4.907791178873284754e-01,-8.641510643607843711e-01
3.736752028911825008e-01,2.554367493453221435e-02,-9.124229993612010814e-01
-4.244654598287786462e-01,4.194492549247390012e-01,7.990021981269861406e-01
5.154857627151002708e-01,-5.174573009782418992e-02,8.474554268575352767e-01
-2.345917848055685262e-01,9.211856726734583001e-01,-3.362107180213549373e-01
-5.206772680568355627e-01,-6.432793354369013006e-01,5.737790509185777266e-01
3.601719789499652213e-01,3.217354619340206390e-01,-8.814291273732711707e-01
-6.492660364189244138e-02,9.228646859432804161e-01,-3.953497182394359322e-01
-9.144609359830259410e-02,-6.848710807163339576e-01,7.069137358357420187e-01
7.741274212342462713e-01,-6.118484729914813736e-01,4.648834343847602774e-02
5.264889602161749727e-01,7.696106591610610836e-01,-3.624819776015077433e-01
3.741600825818802711e-01,-2.633324127908596712e-01,8.809794856716299805e-01
-2.558125668167264277e-01,-9.532454722611688469e-01,-8.635984540826496803e-02
8.719666629668426650e-01,-4.352502375251253164e-01,-2.325225059387338034e-01
5.197000699396463474e-01,-2.178368420184522425e-01,-8.318945838362306056e-01
4.748205565085338864e-01,-7.158186526020748897e-01,-5.175343647228267674e-01
-5.309527992893545711e-01,4.578442743908776591e-01,-7.009513856111624364e-01
-3.999769564337093963e-01,-8.574019507190249190e-01,3.110496394366307205e-01
2.402457613494732580e-01,-2.046094994737229777e-01,9.318457738754694075e-01
2.858699261747150167e-01,9.594076403981847134e-01,1.018102081103172823e-01
-1.313662735832064610e-01,-1.731936022912092532e-01,9.768819749333994551e-01
3.263519590241440449e-01,-1.207271658474780573e-01,9.575875595496796677e-01
5.941965519782428651e-02,4.545612996497093161e-01,8.766362288517420831e-01
2.735988471417194479e-01,6.077815186210707571e-02,9.626504488148414085e-01
2.015153769807564166e-01,9.313032435325853120e-01,3.071399425268743211e-01
-4.425462243148328145e-01,6.413561395949664012e-01,6.172391119241465995e-01
-7.929647164064697051e-01,5.256926746555597996e-01,3.113660740715745168e-01
-8.413166810321941469e-01,-5.370643880310725926e-01,1.586919199692596871e-01
7.536301820072613955e-01,3.479375948828947740e-01,-5.556791247493051422e-01
-4.228866612425519755e-01,-5.042508581201464724e-01,-7.815231020918065319e-01
-3.669182236928708596e-02,-4.386497268629147572e-01,-8.886404767124277404e-01
6.153474713621800429e-01,-7.222862733824408910e-01,2.610466438199091077e-01
2.193972068379837492e-01,8.643404933268242774e-01,-4.015745681474927609e-01
-1.960083473237647089e-01,-1.529043250019100075e-01,9.819689678397774957e-01
-7.343620073114546232e-01,3.880917973044959446e-01,5.675338898392944254e-01
-9.236446569750658142e-01,2.916573307222777856e-01,-2.421851471923865684e-01
8.050501012326428674e-01,6.185179438864019802e-02,-6.227578368989001856e-01
-7.695799370792111987e-03,-1.449847216588994181e-01,9.712787204122236284e-01
-8.266608265334410843e-01,-4.188777574677395865e-01,-3.513338326760744867e-01
2.393556426497196743e-01,-7.065485996099982735e-01,-6.529187090276679095e-01
4.163699350520598808e-01,5.094101198382358087e-01,-7.523588422698206379e-01
-3.479456096933867260e-01,5.618191139845840620e-01,-7.666019514258399781e-01
-3.802673785831259812e-01,-8.979459804504953402e-01,2.265656836407919095e-01
5.108408947658116955e-02,-9.566949711493196729e-01,-2.890791115937647593e-01
1.242089373807230557e-01,3.648179578695812109e-01,9.225680366661218601e-01
-7.003571513949786720e-01,4.463965684690788388e-02,7.346110884782340866e-01
-3.083181136240144005e-01,-4.847376326431061533e-01,-8.237851171107938297e-01
-1.185451736080075785e-01,-1.547667104128699345e-01,9.779174843535477502e-01
-3.010879019919313060e-01,5.109773195391826839e-01,-7.863480238012885426e-01
2.516882905049249719e-01,8.756793309863425412e-01,4.096976555872516856e-01
-6.819822590572509613e-01,7.245480648396868117e-01,-1.243578342301030065e-01
9.721461616875504141e-01,1.712695557025873949e-01,4.055063597208451165e-02
-4.460233056581628386e-01,5.581215103725654103e-01,-7.232302406584132370e-01
8.600661729225071994e-01,4.055914836429716508e-01,-3.094983978626362764e-01
9.497157820829846830e-01,1.179027108151225606e-01,-3.113999774033747170e-01
-6.005131745654278541e-01,5.528038354495276030e-01,-5.619272179036844950e-01
-7.203145411338912618e-01,-5.509578910472084923e-01,3.592814753854924881e-01
-4.232204292994782291e-01,1.119466365609144420e-01,-8.994381828425617176e-01
-4.137680396774325309e-01,8.624338283646532100e-01,2.589206456813912816e-01
4.079472936581021725e-01,-6.444791615159398690e-01,-6.392929765823832655e-01
4.988586127408210502e-01,5.067533784237077815e-02,-8.649273143514237816e-01
-2.989528530274414009e-01,9.671291368061483151e-01,2.425814473841015131e-02
-5.267661478511403983e-01,5.820965306673364648e-01,6.008560987150253219e-01
8.202886179731846417e-01,-4.858087031888211338e-02,-5.726336017622167818e-01
1.877384993568745331e-02,6.119133453549951973e-01,-7.786923724553219683e-01
-7.219072010815667795e-02,-6.364594241221360749e-01,-7.843075998112722935e-01
4.561648737288395150e-01,8.393294058578452121e-01,2.499622256790918484e-01
4.798636073669315105e-01,-6.253788850832522339e-01,6.320568632263291464e-01
6.737641653568893219e-01,-5.779279099378151902e-02,7.454135526574782178e-01
7.376197359173858326e-01,-4.918778293507093946e-01,-4.441962658980575518e-01
7.858978665531594077e-01,-1.045494797695148137e-01,-5.966164642139788477e-01
2.630501532742910986e-01,7.473577035423352166e-01,6.184424065005673654e-01
-8.075484337295728288e-02,-5.944467480493752926e-02,-1.001270273531919885e+00
-1.614312534809287103e-01,-9.219617143654105229e-01,3.940142085293908969e-01
8.816273778789006643e-01,4.417692662415711458e-01,1.148092316664080653e-01
-7.114604522532864683e-01,6.646923080336042400e-01,-3.068281728558274746e-01
6.350257531454430726e-01,5.553292408912464673e-01,5.106127636514352641e-01
1.973852667737229782e-01,1.897250221464776565e-01,9.517214153552951972e-01
-4.250162364486100297e-01,-5.421759088688261896e-02,9.170691560136956522e-01
1.699123695468660877e-01,-9.655593985546969682e-01,-2.645859738011770990e-01
9.188168720155724944e-01,-3.083548009449533778e-01,1.684109458571920737e-01
3.318550427589506135e-01,7.438739678869263905e-01,5.829852444755240226e-01
-2.339982886013227403e-01,8.807805065141975920e-01,-4.576196684033632112e-01
8.408986510884961518e-01,2.455739848710106199e-01,-4.902135252771485097e-01
1.479815487926147699e-01,7.269166507934304855e-01,-6.759604881229861473e-01
8.720113949896988181e-01,1.585783672021202628e-01,-4.770091632067182674e-01
4.659212978113393411e-01,8.569312888200418810e-01,-2.234283863473846554e-01
8.657491244456436696e-01,-4.776261298421264345e-01,6.939452950331956305e-02
5.715237409150181191e-01,-5.596791939636508451e-01,-6.102781847631409962e-01
-5.581611507855261944e-01,1.341177505860795607e-02,-8.416027323542476513e-01
9.080791816852376019e-01,-9.454000162945662422e-02,-3.970344674221301107e-01
-1.323759600369062428e-01,-7.930468985995809961e-01,6.003861619558706897e-01
9.898757795841266471e-01,-1.174862852405628710e-01,7.511374622665155376e-02
2.516450950328223968e-01,5.238906603138734352e-01,-8.135863463727195377e-01
1.798825496270106128e-01,3.839632312543272419e-01,9.088687318076031918e-01
1.629365705866298031e-01,8.781651969499539856e-01,4.374148925595829906e-01
-4.684801739931509501e-01,5.037140799406784053e-01,-7.267765069274640943e-01
9.889241277799898366e-02,9.779212284937562893e-01,-1.441589847206083408e-01
-7.036198825018022962e-01,5.441774413846299785e-01,4.589842600348632562e-01
-5.136985657718904363e-01,-7.939158706172554369e-01,-3.146710925656014957e-01
3.097189138711888279e-01,8.958489078559569441e-01,-3.015276060104019606e-01
5.084412886781546348e-01,-3.898004293302048673e-01,-7.790678608754316725e-01
2.671990672122528943e-01,2.607895077069412038e-01,9.146496892794585554e-01
-5.590326409699416521e-01,7.431253380483887616e-01,3.824937578347454847e-01
-5.598652289411035765e-01,7.883670519334865512e-01,2.488361854370900739e-01
5.125826007086020653e-01,1.733442091452220279e-01,-8.443462192777090314e-01
-4.007670290759159371e-01,3.055332551298805543e-01,-8.441367165231684622e-01
-3.429106827098581389e-01,4.367959073782350932e-01,8.220128206362953271e-01
5.636809646154613551e-01,4.547369446932664760e-01,6.884855275489570881e-01
-5.058987506683929603e-01,-5.998836589666552976e-01,6.059394269551634515e-01
6.875732802895133666e-01,6.792531570337045910e-01,-2.110567368791190501e-01
5.289969346819224372e-01,-7.299655379612063344e-01,-4.283146087079087727e-01
8.079157240932951511e-01,-5.525677037229057564e-01,7.213468919014633107e-02
-8.008363291209961154e-01,4.137519041498428085e-01,3.946758900229525024e-01
5.693008167976123524e-01,-2.150717434351651636e-01,8.016416416293800085e-01
2.257561309807591121e-01,1.907144721057040249e-01,-9.494494090209364412e-01
5.302857147410354743e-01,-7.397255556672235333e-01,-3.590266415497141428e-01
2.218487238159226327e-01,-9.316813823614865653e-01,-2.882604238435582666e-01
-7.425644708219321100e-01,5.687771743486061404e-02,-6.439679034403469338e-01
4.147118520851626466e-01,-3.979366898349324111e-01,-8.196708962470433679e-01
-8.483075806407704145e-02,4.121145138014589704e-02,9.952126170864910026e-01
-5.297022232893215943e-01,4.701737781589510612e-01,-6.897320105133788459e-01
-3.597050273315055557e-01,4.983656153611565887e-01,-7.863556495847576766e-01
4.643410630527710081e-01,6.814331843155611024e-01,5.621717229003660998e-01
1.521817384459604183e-01,9.670998866996790566e-01,1.428798432508864291e-01
-7.352923290456200300e-01,-6.239701989187648179e-01,-2.630738583224532801e-01
9.592245121441425049e-01,-1.284945917501756074e-01,-2.659167728406380271e-01
-2.555077291810785023e-01,-9.217049803224401927e-01,-2.780622280034138472e-01
8.180813359614964864e-02,2.762630055234236992e-01,9.539798364825404775e-01
-2.876335503318256381e-01,-3.237427439611381130e-01,9.041772322969209297e-01
2.935094345709234331e-01,6.979454908730379215e-01,6.621560810831949029e-01
8.746453568346957974e-01,4.368583619788771188e-01,-1.282936978463903033e-01
4.967410492702532543e-01,-1.157001178672142638e-01,-8.681535503248622998e-01
-3.541062165721210464e-01,9.229464394446111886e-01,-1.444095957690872539e-02
3.945511205166311042e-01,-9.320424393752956282e-01,-6.125738409769763276e-02
2.666428096458340335e-01,6.501727338272736967e-01,-7.164663168895470946e-01
7.904098608118754754e-01,2.362176623925421048e-01,5.485915039070440313e-01
-4.245711648514643444e-01,6.186847887432207482e-01,6.514675202880150229e-01
-8.859379272745360190e-01,-4.449826205641593257e-01,-1.612720921675154795e-01
8.980247656021027591e-01,1.976796935948947620e-01,3.568976524753445512e-01
-5.541407160598151721e-02,-1.000061410179830190e+00,-8.391634342571978322e-02
1.439775360484172873e-01,9.604335608874122743e-01,1.443326589584601194e-01
9.049959401437318585e-02,4.200411536323551132e-01,-8.991645989549615914e-01
-9.175253214682271841e-01,3.582103854309394153e-01,-1.585942474047186412e-01
2.182919574209596925e-01,-9.644424130639004389e-01,-3.876743684908739301e-02
2.696772603540616986e-01,1.606666298234848966e-01,9.355755901485871551e-01
4.418084485845704679e-01,-5.352580848957733117e-01,-7.237226695649333630e-01
1.156050134700368492e-01,2.636420072895358235e-02,-1.000211849901853967e+00
-4.388472231007592428e-01,-7.964214945185904559e-01,-3.584098435159031593e-01
2.860134327946137756e-01,8.391313234136941190e-01,4.787381095661462083e-01
6.774819152835784286e-02,9.444504534313729049e-01,-3.072771691534313954e-01
-7.789745880657803490e-01,-1.812922469651077617e-01,-5.973341977494995847e-01
7.066740151242353329e-01,-6.703999370648960898e-01,-2.307401595875975819e-01
6.247521220473828407e-01,-6.642452240761305138e-01,-3.889894697354360220e-01
-4.574724396039393515e-01,2.917606749141953282e-01,-8.282612377113969249e-01
8.523319514562196497e-01,9.155476925818693823e-02,4.870347766742683104e-01
-1.355155275664002117e-02,-7.468463282582342710e-01,6.606768490605702260e-01
3.856996734251242342e-01,7.547808470460326546e-01,5.207711704307140810e-01
-9.837605782099428930e-01,-7.630169627577869373e-02,9.711097162113259407e-02
-7.451697747428973617e-01,-6.269215657717808199e-01,-2.351688566768446731e-01
2.760966598509054792e-01,-8.771054228321535362e-01,4.218874111303962948e-01
6.068373229552351811e-01,-3.267591510161361179e-01,-7.481769886889425569e-01
-3.083012796051762816e-01,8.756421376979707238e-01,3.230094890744122371e-01
-4.369880772753749199e-01,-8.965217870561118518e-01,3.514469963552822179e-02
7.124697722148721768e-01,1.880263149496489150e-01,-6.849919746143963151e-01
-6.926641576223475649e-01,8.327202106813545723e-02,7.286904927631557838e-01
2.346969774595237257e-01,-9.781852090610950734e-01,3.317136380824911579e-02
4.767847941650268373e-01,-7.257272849987179697e-01,-5.010349161121903094e-01
3.137843111046480504e-01,-9.148171809749437999e-01,2.769947137730506270e-01
-2.861585276280037005e-01,1.249037600595688802e-01,-9.469460437019563415e-01
-9.965169011845035341e-01,-6.208608702682674209e-03,-2.140914173189464309e-01
9.761911371230851120e-02,-9.964417505928061525e-01,6.165692562682715400e-02
1.104473941889746735e-01,8.952648419323870899e-01,-4.281762305251592404e-01
-3.078119649290981252e-01,-9.454645385325600726e-01,1.934697872563097970e-02
2.872764637680031222e-02,9.705548008529776283e-01,-1.746523914457378257e-01
-8.822268132418370490e-01,-4.702454300023473643e-01,3.952064640626085090e-02
-8.512422487771140744e-01,2.229754702952368439e-01,4.934775087662805482e-01
3.702312043787622797e-01,3.135067787899859515e-01,-8.875131117266411573e-01
-6.064603608350672692e-01,-7.847358792242027370e-01,1.833040010909889328e-01
-8.903507477024549255e-01,-3.604499445528110968e-01,3.039427436473375321e-01
8.596673827490188824e-01,5.110596453121155625e-01,8.216472062200047555e-02
6.228498920366225267e-02,4.238961507163706566e-01,9.103254062749059905e-01
4.646818272963527674e-01,7.629914493345445192e-02,8.938808026477994551e-01
4.107704687293355361e-01,-2.425291657869612927e-01,-8.887676170903958672e-01
3.255479400090943720e-01,-6.846083228831514322e-01,6.403433291991290632e-01
-5.174775415178504145e-01,-4.916871225387963174e-01,6.949140103168154337e-01
8.249388088106416328e-01,1.826064975094879306e-01,5.594093425532820074e-01
7.236199953629821047e-02,-9.588657212942630625e-01,-2.996751797070587586e-01
9.661514934899627649e-01,-2.336939093091566777e-01,1.957029326996383989e-01
8.611245756080865288e-01,1.151979317645485529e-01,4.978170404405587446e-01
1.367674519318902437e-01,-1.735520436914372855e-01,-9.624600881883063064e-01
7.500751260441309576e-01,-2.454040710737927511e-01,-5.918389951048838027e-01
-7.318832832303183711e-01,-5.676592716445882925e-01,3.780410291740140538e-01
-8.641722883416341761e-01,-5.030055121299638055e-01,9.912686141485287095e-02
3.304139130958947956e-01,-2.911706922465125136e-02,-9.291589561971204114e-01
-1.751201655574771421e-01,9.031456490639031554e-01,4.225242759378411428e-01
7.230055463641050784e-01,-6.711025501078832223e-01,1.799813164762782969e-01
2.451170453445837283e-01,-5.070503764590897910e-01,8.333081832304530812e-01
-2.723551595809397541e-01,5.806519147004228776e-01,7.657097003056867468e-01
-6.940481585592820357e-01,6.929349310912600313e-01,1.715874396385763945e-01
5.784309638160231026e-01,3.582179390091248528e-01,7.245552800733039422e-01
-2.494572623944963097e-01,-9.016373617134821883e-01,-3.373683754869504781e-01
-7.979669901548971933e-02,-1.470158326395779600e-03,9.893833351574943258e-01
-3.503793792790112493e-01,8.662296514035550121e-01,-3.205655876474323152e-01
