-8.637442671683009943e-01,1.590019568985904241e-01,4.738884562661713207e-01
-8.811686017872170096e-01,3.674425699012986990e-01,3.239949190452113270e-01
-3.595954179304773346e-01,-7.768335586249008884e-01,5.491910928128223013e-01
-6.759284677358395887e-03,9.460144118032393079e-01,-3.434181898958757473e-01
7.533852752001177766e-01,-1.603724545413294233e-01,6.358767647986622862e-01
-2.085282640583658587e-01,4.648805838206501728e-01,-8.809909437870164783e-01
3.780044999812253725e-01,-5.212779233696330783e-01,7.835766253121638769e-01
-8.701238598703670002e-01,6.920723839127057575e-02,-4.981389261533053503e-01
-5.453243658255900739e-01,8.384445937299027651e-01,4.154059422969489518e-02
-6.532497571102293676e-01,-7.472860694576304308e-01,-9.179264790179977873e-02
-6.510573177783465226e-01,-6.541466374342583823e-01,4.330008919500495379e-01
-4.510430309945308580e-01,4.669667635814633844e-01,7.494643519787351771e-01
7.411156771548863542e-01,-2.637583955566544236e-01,-6.290452172882021742e-01
-5.370110060906079230e-01,7.945718284095901751e-01,2.905520866386542278e-01
-7.909574299508912443e-01,-3.942358239156878996e-01,-4.610698325026756361e-01
5.546566666745847973e-01,-5.595816180573074394e-01,6.235518556497106069e-01
9.799926590376322189e-01,-8.119392629637225967e-02,-2.388372695270427337e-01
-2.434510124652154162e-01,-8.979979772149319084e-01,-3.972632155827480194e-01
-7.334521820437543971e-01,6.678629153720657685e-01,-2.524854406594524009e-02
3.364253627442786998e-01,-1.859998411470762114e-01,9.184474975915966066e-01
-8.645804528265135236e-01,4.874697305760054555e-01,5.773008727515372557e-02
6.401191064451157153e-01,3.459557373617939136e-01,-7.086661644345716438e-01
1.244947972847253725e-01,8.876285447683236463e-01,-4.657503773598739572e-01
7.000403387277981393e-01,-2.637799891266761065e-01,-6.451236371565964856e-01
1.000418123249468882e+00,7.187347001646808564e-02,6.963209353739203966e-02
1.166758322180063978e-01,-3.088436781513002605e-01,9.414157654466264180e-01
-1.693795707666589656e-01,8.763981091320290906e-01,4.417938443762466361e-01
-2.121489984678009699e-01,2.684101899304703887e-01,9.413222917435541959e-01
-8.077407520148497388e-01,-5.733145693681644950e-01,-3.303454406287618939e-02
5.611207128831654511e-01,4.511029730714554709e-01,7.136636254102871613e-01
-3.123029159052335135e-01,-4.693304058021654512e-01,-8.147656329382797491e-01
-5.036180769254401390e-01,1.443276206046421040e-01,-8.347826652764568367e-01
2.622366809687400324e-01,9.330715591310209112e-01,-3.241016070757145595e-01
5.943191418216428601e-02,5.191491982750672668e-02,9.929502922847001090e-01
-2.786954046880298595e-03,-3.242941746845239281e-01,-9.567631467635796527e-01
6.997290790958888840e-01,8.502364776478879560e-02,-6.923405124101429386e-01
-5.646706883507622843e-01,-6.585114605954931477e-01,4.736304174361828379e-01
-7.819828469396702397e-01,1.942435355494872562e-01,-6.005313111764120082e-01
-5.158694907163944299e-01,5.575412023390385885e-01,6.567268116689243262e-01
9.193466070728532058e-01,-3.343502894308198470e-01,1.330711656224259076e-01
-1.924796673426338589e-01,-9.959107407776851550e-01,-7.491732535727484155e-02
9.770901118248104256e-01,1.526536551692146693e-01,1.107741628336282314e-01
-5.182460422577950254e-01,-6.229038695974979944e-01,5.388527351291763079e-01
-3.180956610141228436e-01,-3.555062875869418049e-01,8.736214270513033009e-01
7.851709661774982640e-01,4.294380029783815833e-01,-4.491334636745266118e-01
-6.548176605299231845e-01,7.601683224929526306e-01,-1.751726422931542404e-01
5.016131720017140694e-01,-8.209288651262789394e-01,2.469033443584637000e-01
9.189509734206619332e-03,-6.145582326423680852e-01,8.166448832768123944e-01
-3.287114055789459033e-01,-5.414283284889845893e-01,-7.636836201694576776e-01
1.170014103772681474e-01,8.183330020108391389e-01,5.847018834615098637e-01
-2.470218597284644935e-01,3.524379419594090845e-01,9.092376128411276959e-01
4.989861031753999865e-01,4.818190407408013409e-01,7.034699860775246449e-01
-4.908699133307554141e-01,8.847926675073674030e-01,-8.711447254310572541e-02
-6.959761228123967358e-01,6.177401212259271412e-01,-2.730728044180411040e-01
-4.971575927873133627e-01,-8.680414337404145364e-01,1.753482288321023819e-01
-7.611668721884934374e-01,4.139835457961377752e-01,-4.678010408522921826e-01
9.824955824310004360e-01,-5.632587094796640687e-02,1.967344567859376780e-01
-7.526188060640821575e-01,6.360809234484910979e-01,1.660845430919684340e-02
2.730717385540238906e-01,-8.068939507505159536e-01,5.172717091549134949e-01
-4.030604472052538578e-01,5.254350062248402953e-01,-7.793262239536792313e-01
-1.214103348218330963e-01,-7.022132383999559746e-01,-7.165580482400452089e-01
6.336721059563452663e-01,3.813068067432062169e-01,6.720019937817588440e-01
7.297296688961041333e-01,-2.405590735728645457e-01,-6.475316957534446027e-01
-7.970796376114892556e-01,-5.961733957757550106e-01,-1.793691659448124961e-02
-5.217178281071108842e-02,-8.778710576876105343e-01,5.140384151310305461e-01
-5.058248744220266158e-01,-6.392001625566398060e-01,5.792746356200428881e-01
2.557897228803091005e-01,8.762723940537329170e-01,3.887239467477647814e-01
8.232508785738719137e-01,-5.079755640537527706e-01,2.589316585491576173e-01
1.846278541358922221e-01,-3.849834335411521646e-01,8.937416535856944622e-01
5.258400637561832375e-02,8.613291497103333638e-01,-4.554734725731254263e-01
1.689017796202056665e-01,-8.989655500395352661e-01,-4.035406053903878854e-01
3.130179925423920428e-01,7.321754157156764586e-01,5.915662568300225077e-01
-1.749340466174225117e-01,-7.407456153616241989e-01,6.417532826100197374e-01
1.699618204413738121e-01,-2.071477904102430601e-01,9.630421546182775794e-01
7.178108028561810405e-01,-2.931470814598715613e-01,6.451459767165225179e-01
-2.733736428092659043e-01,-7.506028547334365753e-01,-5.963427873057595141e-01
-2.472368330338736708e-01,6.024691382422423525e-01,-7.364467200653900258e-01
2.697864607591514141e-01,-9.784767431762573242e-01,9.011075189371570843e-03
2.667307130317914110e-01,-2.940996718876257576e-01,-9.243090099630487666e-01
3.062880745827495921e-01,5.745192146052342519e-01,-7.482395383162361302e-01
-6.579518699917282776e-01,4.854679861038440070e-01,5.690304154044691920e-01
7.409733136561899025e-01,6.424784246392477582e-01,-2.110810424888414083e-01
-8.815968611406183042e-01,-2.716544528114733792e-01,4.048103283421627396e-01
-7.972507482945452306e-01,-1.063422404552161887e-01,-5.781039876247752174e-01
-4.448292535937627412e-01,2.637148129748295711e-01,-8.657848874114525417e-01
-1.350959719739885934e-01,8.316784566390473810e-01,-5.804381747177403961e-01
-8.300321511911153138e-02,7.017493568698857098e-01,7.100042531951680225e-01
2.854846447103621121e-01,-7.781190839511359369e-01,-5.681251812377587918e-01
-3.575283388691640751e-01,-9.283345388343159366e-01,-9.020274835690808568e-02
5.902494513189718850e-01,-5.100586835705720468e-01,6.110338840045742570e-01
-4.004999778282919976e-01,5.683279164116604443e-02,-8.999108238695406881e-01
-6.707199367589480321e-01,-6.859088218975587514e-01,2.973055617326820221e-01
1.916437090633885953e-01,1.683229564101284409e-02,9.861591243104892435e-01
9.068656306454336846e-01,-2.860496766528439205e-01,-3.280352972258091526e-01
-3.042254474852008617e-01,-6.049445019082058117e-01,7.282649147664824740e-01
-6.244123031924598416e-02,1.952883215257320282e-01,9.819737123700503778e-01
-4.497826029675843634e-02,-4.429305585227907294e-01,8.944054725699015496e-01
-3.565829076984113888e-01,-2.216560242717511009e-01,9.119421316708455905e-01
-6.476798139183490566e-01,5.753555532275889811e-02,7.586149344396587724e-01
7.868929984753457729e-01,3.409309578276890629e-01,-5.033927099851270848e-01
8.291089767280355183e-01,2.617954274867893560e-01,-5.002150375704450536e-01
6.509172079997614935e-01,7.432254666143514044e-01,-1.296245077947738855e-01
-4.840782546066385028e-01,-3.094372171189400667e-01,7.970623271054251280e-01
5.817366682219522467e-01,-1.995818399855180947e-01,-7.748565863484846439e-01
3.091827041078860083e-01,-7.784740720559664151e-01,5.635931031122863866e-01
-3.523025048884358412e-01,-9.243118066375800579e-01,-1.011368135603540191e-01
8.705382342826309960e-01,4.138421749706616692e-01,-2.096431075241182440e-01
-3.634313462457484101e-01,-9.294801604197998612e-01,-1.407586419578959157e-02
-2.408966515952206400e-01,6.240169772000125903e-01,7.337780160793954121e-01
-8.578805272649642211e-01,-3.109172405430973285e-01,3.970800181001180595e-01
-2.120752029383304038e-01,-3.152945250801308386e-01,-9.158197444656641650e-01
1.532640175809711902e-01,-4.676779147655786284e-01,8.740286004992240398e-01
3.928943446307198717e-01,-2.812353028384154130e-01,8.706170248489468744e-01
-8.190277245480432899e-01,-5.695237045396378539e-01,-1.203783239641447733e-01
8.856342303715412090e-01,4.835659073526873963e-01,4.939833487137006152e-02
6.745147810839302593e-02,8.257005826943601967e-01,5.357374230468485710e-01
-3.278636174875276255e-01,8.733018695291048239e-01,-3.103616281114249253e-01
-8.552855581453737699e-01,4.805025354770832702e-01,1.697085755894052195e-01
-6.495792126978291448e-01,7.574574997975619395e-01,3.273045778856518290e-02
7.003144211101374195e-01,4.604559305246971324e-01,5.486919184881181577e-01
4.185911537752227962e-02,-7.176556890773743147e-01,-6.859718553298858046e-01
5.301925641358478103e-01,-6.597936642697980192e-01,5.306627610068304080e-01
-2.982795928554686227e-01,-9.078119835779902003e-01,3.344510282409808855e-01
-3.366700119848570205e-01,1.319818942331944800e-02,9.687162998595806318e-01
-3.758132602209390827e-01,5.389678257702538167e-01,7.353563259291178156e-01
-3.981975331126562101e-01,8.490813261462999417e-01,-3.599869158943905800e-01
4.381251931076312056e-01,3.791046222498932750e-01,-8.141500670869161738e-01
-7.105506487660423476e-01,-4.658915830612874592e-02,-7.190837350439098774e-01
-6.110025634971852915e-01,2.317969524643507806e-01,7.479613982025554719e-01
8.606768958639966494e-01,-5.046967276708516081e-01,7.409606683422721718e-02
6.041221918514928513e-01,-7.765214130803861359e-01,-1.629962386496595916e-01
6.867546559298074449e-01,-1.825313711518831983e-01,6.893469476292580778e-01
-4.948550071968543240e-01,5.894197262288381617e-02,8.618188068819793157e-01
8.605137149676564956e-01,3.348121217979730391e-01,3.568925732282091090e-01
-6.025714646435469807e-02,9.836689972303687135e-01,1.322328977682689921e-01
4.661582188720445052e-01,8.666656698989289032e-02,-8.762623064309298382e-01
-9.867161693457605631e-01,1.789882282434460681e-01,9.448302596728071212e-02
-4.257863289163811293e-01,3.459551332097809406e-01,8.612397754433053221e-01
5.936695254224684248e-01,-4.790092337756402668e-02,-8.057174389908041690e-01
-1.506403322894896979e-01,-9.781533156797415085e-01,1.239664058217846143e-01
2.648558339937020500e-01,-1.200009384282095179e-02,-9.757111338646868859e-01
9.395820429110888217e-01,-3.082574246077270791e-02,3.547245209805282573e-01
-2.678776952682380141e-01,8.985911492306519754e-01,-3.367511019321055565e-01
-3.530583331248587364e-01,9.256323444930342204e-01,-7.624750229158615278e-02
-6.245300533289054323e-01,6.105829254645006587e-01,-4.878369681324133400e-01
9.086739293502824610e-01,-3.681001225772980723e-01,-2.593430136518368734e-01
1.556978214523160597e-01,8.585629326596803113e-01,-4.816189571365196431e-01
9.855969840869627241e-01,1.480082188897899609e-01,-2.472002333271188304e-02
-1.770088115283152963e-01,7.303546740236992463e-01,-6.353163776718566691e-01
7.807962454824916021e-01,2.880899342402308827e-01,5.320324410142406313e-01
2.623832024311154032e-01,-8.983640033145148251e-01,-3.746680131242020040e-01
9.706956481624265942e-01,2.525104809351376156e-01,-1.421399111390564685e-01
-6.103058515566336384e-01,-2.936773466075018324e-01,-7.311594451173809572e-01
-3.773995095503220876e-01,-7.515147864954042634e-01,5.177282622670122958e-01
-8.078920812837522281e-01,2.215374791514652664e-01,5.179797867846771542e-01
3.655462163536273845e-01,8.651462224027602899e-01,3.588723342226631807e-01
-2.154927133331404482e-02,5.515277701973041458e-01,8.283913359803035670e-01
-8.615562957388595011e-01,-3.195423227281475875e-01,3.932408361108954420e-01
-6.956688369915754455e-01,4.453159790021692932e-01,5.729431836700601410e-01
-9.714146779914619723e-01,-6.506382082234085651e-02,-1.482123243377968802e-01
-5.342298222210546399e-01,4.407647100675838314e-01,7.241182034769129139e-01
-4.619716061713891597e-01,-6.479755100217594599e-01,-5.853139047158287811e-01
6.186994923429368631e-01,6.922257379049927550e-01,3.529382298010907970e-01
4.011631692913350533e-01,-2.675960494126767841e-01,8.829692087300676784e-01
-4.158932484100961724e-01,3.181151609995097607e-01,8.635554234518014738e-01
7.457943322610689763e-02,7.562253164410623896e-01,6.413783599940824365e-01
-7.217875532205068057e-01,-6.116747521374857888e-01,3.026173354232538082e-01
1.328339613790557594e-01,9.139838576792530533e-01,3.395445082515084478e-01
1.121285008428028890e-01,-9.718757859664381993e-01,2.301197266837947952e-01
1.090559354950213916e-01,9.645075694689033696e-01,1.534499415847613013e-01
6.009342290215793358e-01,3.000718758084413018e-01,-7.340793586545467653e-01
9.722505559759784255e-01,-2.589842644659784421e-01,3.054883833863690501e-02
-7.456015707757750466e-01,-4.859241285027279811e-01,-4.397731952259902322e-01
-9.946424280817177666e-01,-1.000951792316269878e-01,-1.582748056403751602e-01
6.551888442141143853e-01,-8.790883136863972616e-03,-7.637230550877858182e-01
4.651578819940992426e-01,-4.320769014560599253e-01,-7.555566166025173835e-01
-2.673233036584029068e-02,-7.397372749928916580e-01,6.458411184351207091e-01
5.148723404185263641e-01,-4.263563385889257984e-01,-7.518673299971440072e-01
-8.218115274567351358e-01,-5.387298472877218858e-01,2.188276602242954227e-01
1.686328168699709751e-01,-5.990737658999254478e-01,-7.929984436293288086e-01
9.008332827857773450e-01,3.705033416936354684e-01,-1.504003177614779974e-01
3.758538656006007450e-01,3.680557487081154711e-01,8.569414731794472440e-01
9.756945151364025959e-01,-7.178349005433443120e-02,-2.275992541483845000e-01
-4.939916977262939768e-01,7.048700576303080778e-01,-5.237041317435027210e-01
-6.041690873947416218e-01,-3.914086054069745302e-01,6.819964910084366227e-01
-9.119710736208938018e-01,3.768638265854508673e-01,2.492008733463457748e-02
3.483786151928130459e-01,-8.568844195015371534e-01,-3.820423054712372424e-01
3.011035639402471209e-01,1.507550780970644821e-01,-9.356767627772922813e-01
1.751136999943799233e-01,-7.681713895324496777e-01,-6.056064604053867928e-01
-1.982004817193534219e-01,8.344412736090648375e-01,5.052052622001886872e-01
3.333749559270668961e-01,9.225517981102763221e-01,-2.019343604067273812e-01
4.184336516629520997e-01,-2.054439228391759520e-01,8.993390123112698920e-01
-3.925020315664574655e-01,4.968273811755343772e-01,8.073390189205296164e-01
1.699683104275859225e-01,3.171822320803437956e-01,-9.286885145626486704e-01
9.578498568179943939e-01,-2.393836457843098384e-03,2.539870023155256229e-01
5.992628153554395605e-03,-6.188502654853991203e-01,7.741546487440977842e-01
-1.840922824417813020e-01,4.756538884863112937e-01,-8.491849346768383100e-01
1.270421482057984830e-01,-7.381618327375946143e-01,-6.482502243672149111e-01
-9.365759263732911233e-01,-1.614608298897513283e-01,-3.398092578562521560e-01
2.879257400771904063e-01,9.368203089115278992e-01,-1.901833487554191182e-01
-4.295790759714998575e-01,-2.535691261646103034e-01,-8.628182692579654534e-01
7.246461288330664496e-01,6.434857855001605564e-01,-2.424746590830045567e-01
-2.957628445796535166e-01,-1.914669382967017219e-01,-9.518539425507670515e-01
-7.619010952641311896e-01,2.292005141843649618e-01,-5.870054374018521814e-01
1.959321461598522995e-01,-4.426704795381496416e-01,-8.925055407353051917e-01
7.939942692079445807e-01,5.717182260922969439e-01,1.556022897344800926e-01
4.809288906276370512e-01,-7.008707789609893712e-01,5.210872772141295073e-01
3.228874804747627336e-01,-2.313789642810356595e-01,9.266796277200635146e-01
-3.591008827552544802e-01,1.441262397156951314e-01,-9.215943088173099706e-01
9.008423134832351797e-01,4.124249036896318055e-01,1.275103888473716474e-01
3.315892637027681999e-01,9.089299259647706242e-01,2.618360099526888529e-01
-4.616653413068783629e-01,8.437747424643947669e-01,2.517659818111023240e-01
5.782651846280048025e-01,-5.159276341279314115e-01,-6.103124910275136150e-01
-5.156472628797857949e-01,4.571881362324672349e-01,-7.157683470006070969e-01
6.849128793735593801e-01,6.407058424575322597e-01,-3.575782353696220772e-01
5.544967271835801181e-01,7.240307769319517250e-01,-3.787427667866478109e-01
-1.382871683803716667e-01,-5.837182208469453570e-01,-8.080235307789189747e-01
-7.059755570757122456e-01,4.648007909183901054e-01,5.203358915570140963e-01
-6.206006399052862443e-01,2.936104307710989958e-01,7.235198016623217709e-01
5.242087599442823986e-01,8.252490120560550535e-01,-1.861382885262477804e-01
5.369496145951367927e-01,7.825768514959535738e-01,3.310799906027714901e-01
-4.938224833864278684e-01,-3.315319613685450695e-01,7.979796869629417477e-01
-5.487859804935319996e-01,6.877324307003472581e-02,8.376913879521350470e-01
-7.529096654041549375e-01,1.985360895961999494e-01,-6.570934468248401661e-01
7.025283087558725770e-02,9.846636283783442023e-01,-1.723576700894111080e-01
7.458294494898241034e-01,3.385911706903245721e-01,5.641337811445555905e-01
5.786714266441493892e-01,8.274970093869895571e-01,4.539465314960541842e-02
2.602029220238657459e-01,-1.080126915225639722e-01,9.562053372539974783e-01
-9.875981407170671966e-01,1.778073259519966087e-01,-3.126411236351375484e-03
-3.859067613720200685e-01,1.456772256186184833e-01,9.047806817553323278e-01
5.597044127868815444e-01,8.149639829786579082e-01,-8.539631960902779872e-02
9.350846207730543203e-01,2.491179007391062239e-01,1.653600751348031084e-01
-6.182639700748829847e-01,-1.837092865387412455e-01,7.516551863529916666e-01
-2.297341021255633609e-01,4.457288404535504345e-01,8.960883251553847240e-01
-7.326865049828102938e-01,-1.812027051273853717e-01,-6.582033642569390386e-01
-1.627146844412058202e-01,9.231387494155320894e-01,3.516867048040666077e-01
3.420155931222184642e-01,-9.056415697174593493e-01,-1.866670212185337352e-01
8.393482555428004588e-01,-4.374395122569471051e-01,3.186055849790820904e-01
-3.558113638266283130e-01,-8.858719644903051416e-01,2.332938739137677131e-01
-9.900837290794993750e-01,2.068739579125428163e-01,1.352943927286129056e-01
-5.314545407158881574e-01,-6.106467690172959761e-01,6.099323250399278917e-01
-2.745918463106480911e-01,4.385873568109449061e-01,-8.495850763724913657e-01
2.227554068481998606e-01,7.111974486608297896e-01,-6.710034490715349742e-01
6.607881743875678726e-01,-6.347582278285134327e-01,-3.894873526549923470e-01
-5.424405579285330320e-02,-1.130499461973726860e-01,9.851513004948635466e-01
5.285961833197119208e-01,5.114964700897172145e-01,-6.645638043871608946e-01
7.737113471798253705e-01,7.217443754616481577e-02,-6.480644147671499322e-01
4.558811666842580435e-01,-7.646063460443420778e-01,-4.816912231084983786e-01
-3.917977350274006176e-01,-6.758681063296930747e-01,-6.298548209805896470e-01
5.766761407779446014e-01,3.087879205662863447e-01,-7.559165834410673801e-01
4.950530800731783865e-02,-3.075093819877001700e-01,-9.385112804759716543e-01
-6.006674444960413695e-01,-4.750773898184421640e-01,-6.475657883998714448e-01
-1.833959435252700276e-01,-9.214636401462802384e-01,3.560209758022280235e-01
9.498166686975894057e-01,-2.766428345631299912e-01,1.459611792751179249e-01
2.104771966583362519e-01,9.522745400611758448e-01,-2.305173687678307159e-01
1.782771280249368651e-01,-6.864019182641258043e-02,-9.859583634435752364e-01
4.885081497360200253e-01,7.915387427851490187e-01,-3.370516014343362121e-01
2.062904633959061762e-01,7.454778429856006028e-01,-6.220870374526402680e-01
1.489980173339936209e-01,1.868622442077829127e-01,9.643088135835508057e-01
-1.567130682731062707e-01,-9.161659080042757752e-01,3.928275340565005602e-01
8.767363136537158486e-01,4.832234579698366783e-01,-3.731825940601973812e-02
5.688608220100298540e-01,8.444211342920611152e-01,-3.357352855726870866e-02
-6.670928887285153541e-01,-3.087268128326492098e-02,-7.595345848356096496e-01
1.460004276317908301e-01,-1.546267927997661273e-01,9.870330046395168200e-01
1.333797288813970972e-01,-6.733089486273527990e-01,-7.417746697386233823e-01
-2.872776897426447817e-01,-9.371887211315910182e-01,2.390107562077376790e-01
5.545480341828040727e-01,7.531205659075979053e-01,-3.146369886872258936e-01
-6.275274494693285909e-01,7.864909329120041148e-01,4.290360997716229086e-02
-9.996640653529668963e-02,5.706274870714210801e-01,-8.258364462183029886e-01
-5.362650040101758497e-01,6.037138493761398106e-01,6.108551842924224706e-01
2.872268524702776826e-01,-9.223381429784864860e-01,-2.539225106640191632e-01
-2.023190606486123810e-01,4.602568800735755694e-01,-8.695189166113574952e-01
-1.524255280362592502e-01,1.852971572494920005e-02,-9.759706899881938069e-01
-8.020541314177548342e-01,-8.146854768026163748e-03,6.125495113602842379e-01
-9.133987510984651337e-01,9.787491546695364919e-02,-3.421137264992385463e-01
9.860973523322151824e-01,8.945643121782953511e-02,1.078608787012790976e-01
-8.338265355080207719e-01,5.028771983846165305e-01,1.803320377177370926e-01
4.457934763219363883e-01,-7.457640710480247792e-01,5.130248535850967517e-01
-3.950994099206597276e-01,-8.375706184088109740e-01,-3.836470963508776255e-01
-4.501657077040547295e-01,-7.115710345299978146e-01,5.185022129778590338e-01
-6.276824849052412003e-02,6.991181426841712732e-01,-7.303907631745713003e-01
8.820487313824968423e-01,-2.328116529245952415e-01,-4.278814280528892011e-01
3.946671645963050201e-01,6.652983441041617763e-01,6.406442118236491678e-01
1.434723009961588469e-01,-5.070146083982823848e-01,-8.600659454200915155e-01
-9.875348017205480555e-02,-2.120819203348202342e-02,1.000394516353021013e+00
-2.207711027005347937e-01,-8.466540357061141941e-02,9.650652759458155927e-01
2.217476871131665583e-01,2.464913500920871969e-01,-9.304207850633601229e-01
5.340129785843550358e-01,-8.289633453141690422e-01,-4.176283678494096402e-02
-5.835157480679614705e-01,7.966027759469418434e-01,-2.081196067206367573e-01
4.030656829621099835e-01,3.298826799988703873e-01,-8.574143762483682485e-01
4.863753637850373734e-01,8.618772164530286162e-01,3.597994752000949897e-02
4.513276711901129667e-01,-2.286324000454872385e-01,8.524125227217888012e-01
-9.531321986378681055e-02,-9.339472828272628036e-01,3.667073417954775372e-01
-9.165758223548305106e-02,-3.885377687524892432e-01,8.996836678456815450e-01
8.171931619016883364e-01,-4.543958362533945250e-01,3.377740126322568148e-01
-9.705975889552429514e-01,1.919482318904957852e-01,-2.002473732762316827e-01
-6.554993817797936106e-01,-6.683764492890199582e-01,3.575526475329137144e-01
2.202697987918825484e-01,8.065556749200625264e-01,5.378949983231615661e-01
6.199876748298975560e-02,1.417976169293972688e-01,1.003200334052350984e+00
-4.760690188537605172e-01,-6.944630377879864591e-01,-5.376502763880462998e-01
-3.959728554203138517e-01,6.658910692534578124e-02,9.287460010916953612e-01
3.759355424851549832e-01,3.869499693787982197e-01,-8.314873248631720060e-01
-1.286913287175440145e-02,-8.380096514578257993e-01,-5.035095991306375307e-01
-3.828500827678673057e-01,-9.339261071435572825e-01,-1.262878669616496752e-01
2.449204213825566523e-01,-7.782875922630879684e-01,5.571961319168182714e-01
2.693392291164288174e-02,-2.290625400422696689e-01,9.687147291018740614e-01
-7.714865008448683614e-01,4.168359693238209429e-01,-4.725571754392024482e-01
-3.275207261970862760e-01,-7.195633140453373544e-01,5.977825528394568044e-01
-8.684408792071520722e-01,-2.916408467978075514e-01,4.081472510050275782e-01
-7.007367157657468093e-01,-7.428182531783195097e-01,1.497004451427690896e-01
8.185769686652151489e-02,9.853920490360419393e-01,-2.254411387449553883e-01
9.729431452915849876e-01,1.844030973625538083e-01,5.743620317677477355e-02
6.797652125833952841e-01,-7.134066518267365709e-01,2.423577922500168569e-01
-2.635364548535643614e-01,-5.401979434342373265e-01,-8.045020484142477724e-01
-5.434561802064824532e-01,3.234164835417042139e-01,7.772601201109828883e-01
2.813049238504081173e-01,-1.942563809182594470e-01,-9.453446950955424199e-01
4.948580770925185557e-01,-4.879658187952526371e-01,7.250284201376482329e-01
-9.526664162361102584e-01,2.965263518014443211e-01,-6.625994261878183356e-02
3.896459590599479217e-01,5.198925129069416062e-01,-7.539007755724433935e-01
-6.961545051656570227e-01,-4.828197840009247344e-01,4.994241700898273684e-01
-3.551184127541074931e-01,7.814336602254139397e-01,5.233326236889378480e-01
-8.431004690796339851e-01,4.310772523352842112e-01,2.698854187705754248e-01
-6.946297418700738691e-01,7.250162488234068725e-01,4.366639845297657502e-02
-3.772618666958771350e-01,8.774960844136546756e-01,2.841370943611445377e-01
-3.129720561842050386e-01,-8.586826044032653815e-01,4.315362519916373651e-01
4.721860207925729358e-01,8.958886149324499781e-01,-4.502803504101236115e-03
7.293255337513464553e-01,-5.578048735008649395e-01,3.463057496467266683e-01
5.103539678751602970e-01,7.828918574088732374e-01,3.663665312080605085e-01
-5.536774116142381130e-01,-8.321709208288848858e-01,1.445016882137212244e-01
3.308576063111179910e-01,3.427273781860012969e-02,-9.551062672112593521e-01
9.499633000883944689e-01,-8.257075958017517925e-02,3.006803027777961157e-01
-3.687139832568065989e-01,-7.444795045071770367e-01,5.637610879711478784e-01
4.306429581177821375e-01,-9.421575656216950312e-02,9.037268286659544403e-01
-8.480701468423933465e-01,-4.553352558085014823e-01,-2.711130134301750205e-01
-5.175817615001685468e-01,-8.489314926373858761e-01,1.308625808000679902e-01
2.115728400990816993e-02,-7.265792420260439588e-01,-6.947454344106610558e-01
2.092428729970812196e-01,-6.587278726066434498e-01,-7.260191029965958887e-01
5.412002311010231104e-01,-6.295276729530769888e-01,5.645171776437641897e-01
1.346183195002397248e-01,-9.500356811495855869e-01,2.574086919663816087e-01
-5.905254928475694998e-01,-7.377979660110572935e-01,3.338244028536507257e-01
3.978396975952818715e-01,-8.806864304134377486e-01,3.021467376288141105e-01
1.582277958659860095e-01,-5.695690136678047688e-01,8.003866773504351162e-01
-5.819575210070525584e-01,4.943089776297160953e-01,6.114036332946705121e-01
-1.936772044408090199e-01,2.566905081672468669e-01,-9.647592913075569987e-01
7.899023143048905515e-01,4.316853097899557845e-01,4.552878648503371206e-01
1.476244197266142694e-03,2.894977379588246080e-01,9.520227373984376795e-01
1.410599662468315918e-01,6.222449953972197800e-01,-7.542666106974394991e-01
-6.550597557498266665e-01,-5.895442628699097964e-01,4.854313693609764724e-01
-7.000773108822105906e-01,4.426663582184635071e-01,-5.639524473197552457e-01
-5.767963862616870552e-01,8.036138343141517870e-01,-2.072390237486243514e-01
1.000668639178963898e-01,4.794356230824751708e-01,-8.713524407840446129e-01
5.558030785389760364e-01,-7.874881314661348330e-01,-1.845453897665890186e-01
-3.719942770742101779e-01,-5.597492018586577300e-01,7.452355896087791143e-01
-8.144892668883619846e-01,3.160100892444234755e-01,5.314906500845729687e-01
8.063030179005969966e-01,-2.810577982841800382e-01,5.434269670034779232e-01
3.965884782620808235e-01,-7.660803199018667575e-01,4.822871466725316414e-01
3.368609626314407191e-01,-8.751279872086332734e-01,3.870097320598092083e-01
-1.966882916049549901e-01,9.734676816064704585e-01,-1.665351211382161967e-01
-1.272414864281085356e-01,5.734376299911475572e-01,8.127844434798461304e-01
-2.947154970484587300e-01,-9.293594704635451675e-01,-1.495601125334689030e-01
9.281246505239512112e-01,3.075537024968562627e-01,-2.051753671539309487e-01
4.774890552586315562e-01,8.052089004574333186e-01,-3.670269392152018528e-01
1.764718629395996552e-01,-4.519893526789991456e-01,-8.720737871538545294e-01
-3.324033565871270524e-01,9.214946984657219620e-01,-1.554417823927669966e-02
-4.803331116017332536e-01,4.438024152547076495e-01,-7.261337672529728504e-01
-7.643431167253594838e-01,1.941332121370127339e-01,6.045409823640165436e-01
-2.986523337444178527e-01,9.004871084510677193e-01,-3.047978083660980442e-01
-5.672859170752926616e-02,-2.698176065231863152e-01,-9.591454866154114356e-01
-2.559269786026656113e-01,-6.044382214917469742e-01,-7.649522984150717297e-01
2.577728148857454382e-01,-4.185356917845076685e-01,-8.516690766671255464e-01
-9.845459906066168498e-01,2.163042930405537911e-01,-5.050769878396269008e-02
6.660666165198786404e-01,-5.472435999749751812e-01,5.127639214834824877e-01
-1.589397259373306615e-01,-2.868284804730867471e-02,9.867034841707797987e-01
6.130812938391491107e-01,-7.406383647086068889e-01,-2.885714149296452202e-01
-9.723634681447600459e-01,5.897795984604050148e-03,2.700991233679260195e-01
6.105359890329971062e-01,-7.607211389875053742e-01,-1.529441519695509399e-01
4.427519858772116512e-01,-7.858653357938421014e-01,-4.424507186502432132e-01
-9.052823215744245644e-01,1.022135310405545561e-01,-4.056246462795249363e-01
5.647345337278837363e-01,4.130041010890969089e-01,7.101396261768502249e-01
-9.514499917039931365e-01,4.297885554824115023e-02,3.549870206676347673e-01
-1.959962491966617537e-01,-6.877402795158852333e-01,-7.044481922573081478e-01
-6.200722405182000907e-01,7.493879825752990387e-01,-2.248991073038681399e-01
-7.825311050441412508e-01,-4.811288282884170764e-01,-4.012630826826525388e-01
3.403367626411101798e-01,-8.870012676879069913e-01,-3.480442525387293928e-01
1.620382511456016916e-01,-4.468316542912638134e-01,8.666843731498703463e-01
-6.373717824419274924e-01,-7.524389201699350771e-01,-1.327276826508760887e-01
8.267056838660253931e-04,7.324542912393067207e-01,6.859858781701382302e-01
-1.303436159443003284e-01,7.399889321196372050e-02,-9.926304715357601172e-01
5.687733207279928316e-02,8.160281978066691311e-02,9.892576494104020624e-01
2.880528305979749293e-01,5.625199933243871797e-01,7.697054671755574340e-01
7.959885651960580955e-01,-2.670462226941501885e-02,-6.047707141605808134e-01
-7.478320104626192677e-01,-6.385149840010173605e-01,-2.158522852596553854e-01
-2.678494039887332479e-01,-9.224643943000742086e-01,2.268589667613383487e-01
3.562343353709094829e-01,1.475783802608022222e-01,9.259920328041956195e-01
8.161453286957601194e-02,7.935793649539690797e-01,-5.922349278748012535e-01
5.501248957533718675e-01,2.602991259320988071e-01,7.879839688964437316e-01
-6.749651792385327198e-01,-5.357311169355013503e-01,-5.216620872285431254e-01
-8.424229321323227770e-01,-4.849039950484405614e-01,2.186734462418424840e-01
-8.933505868788824689e-01,3.861691799062862973e-01,-2.161643019933181253e-01
1.086311188813111756e-01,-7.798353980277425990e-01,-5.931156431669545315e-01
-3.267816050009447748e-01,4.449811420473273604e-01,-8.259260775119655618e-01
9.007578555173602064e-01,-2.972640366709762283e-01,-2.928969842224282694e-01
-3.301991643347093608e-01,-7.410636084764268272e-01,5.936571153898576592e-01
-3.274422470484009695e-01,8.648738952670689262e-01,-3.776019906465531983e-01
-5.263424884989762464e-01,1.008648101906596817e-01,-8.275569824618745907e-01
6.539350923086573175e-01,2.917465181311157951e-01,-7.183365094965349362e-01
3.144773985785095927e-01,-8.457848809107951782e-01,-3.748977569397338727e-01
1.121301833879554538e-01,1.643668196681222216e-01,9.862284991160766845e-01
-2.374142064858841827e-01,3.072531772855776611e-01,-9.281229001067571316e-01
4.338384339478427720e-01,-6.110771975308754156e-01,6.542953763855745564e-01
-7.270925203610120180e-01,-2.026357912690166796e-01,-6.390553957361053694e-01
-1.747084750212725412e-01,6.726804625472680987e-01,-7.256397926717299551e-01
-7.238589332206128990e-01,-4.548039910835134925e-01,5.357805922516510888e-01
4.718266235922620178e-01,2.102606735828052575e-01,8.599998950762643979e-01
9.241265045238988840e-01,2.274722468483432736e-01,-2.852595045508745097e-01
-2.454995696848833731e-01,-9.252237536799714501e-01,2.833841543261199081e-01
4.844271359270147514e-01,-8.699537257942108193e-01,-4.431187878502445762e-03
1.697944018795941312e-01,-7.929715041725741154e-01,-5.670510180347831941e-01
-1.079868086864836096e-01,8.178706730997951091e-01,5.578295123539322997e-01
5.036932123717663412e-01,-3.632179701844459596e-01,7.827717937425970884e-01
-1.875611870394386094e-01,3.304972549755473832e-01,9.346898800604306334e-01
1.649599022037543106e-01,-5.958321150325237570e-01,7.888439217724336761e-01
5.632210373009546300e-01,-2.759805887314561446e-01,7.755160913984635584e-01
5.317954504344709621e-01,-8.196387269372872320e-01,-1.903827641694123274e-01
-8.790759541482420225e-01,-7.342402212183849960e-03,4.799074461581765427e-01
5.435664541095189262e-02,-6.591264458449083152e-01,-7.434807346583924836e-01
-8.340908398421070791e-01,-4.724444115011821044e-01,-3.492671496472706250e-01
-1.007795522889246703e-01,-5.180337436188298117e-01,-8.492914137946715458e-01
4.054523250984563842e-02,-9.601779332593883831e-01,-2.819215078494067828e-01
-3.336947843349873377e-01,-3.306678203792614013e-01,8.793342226145698382e-01
-2.948808448864237430e-01,3.409028968219296463e-01,8.971301710746399927e-01
-8.336589491882083758e-01,-3.832074649953863266e-01,3.993097841890527189e-01
-5.603436792753523354e-01,-5.758202539603708425e-01,-5.869832281792962680e-01
-3.141138237521199361e-01,7.898614290242398361e-01,5.070904310986598107e-01
-8.454960780513768315e-01,-4.732568131399674249e-01,-2.658847339288371581e-01
-9.267308082095178021e-03,-1.402894983365957360e-01,9.901056992700766335e-01
-7.585298777207352128e-01,2.440604141195860666e-01,-6.552559050425571519e-01
-1.409750010114141916e-01,-9.743810718525540704e-01,-2.602459865928202221e-01
8.258958730505868706e-01,5.249906866482998424e-01,-2.104803710979649134e-01
9.501328959541653907e-01,2.993464589942636603e-02,-3.624048087592902645e-01
8.910112476884507471e-01,3.529577746215692979e-01,2.031625317820650312e-01
-7.323668823257327709e-01,-5.724308390898396048e-01,3.253973217521747285e-01
6.995570155387653699e-01,5.992979697588887156e-01,3.571118571083227167e-01
-6.502587696602843970e-01,-4.660205146416137034e-01,5.739590883338743232e-01
9.945723352411096618e-01,8.534504300820679179e-02,9.149461825215191024e-02
8.631901505105232797e-02,-5.115820028092822325e-01,8.569898153052383227e-01
3.496294197417249006e-01,-7.155989814718192177e-01,-6.070448888851733837e-01
4.656018997282779237e-01,-7.443272318173648205e-01,-5.032636434371891010e-01
-8.825191879360444469e-01,4.300497370305911837e-01,-1.064427438666629491e-02
6.406748049110518872e-01,-6.046574994364308786e-01,-4.886396681671491549e-01
5.136185579824920078e-01,7.580468077095222634e-01,-4.381597396027200331e-01
-1.392518658427479572e-01,-6.786168986708841500e-01,-7.223264899120247495e-01
-2.358684493087632172e-01,9.775547815575617028e-01,8.553733679413834390e-02
9.454644003756741411e-01,-7.840037502161922855e-02,3.158700638256022319e-01
9.297775112667712172e-01,1.946339540518726707e-01,-3.353144570914033396e-01
3.150090139445766435e-01,8.730274883133063435e-01,3.854050166887589279e-01
-6.091691718212003392e-01,1.601911391974449872e-01,7.681657369029514237e-01
4.383995762121135620e-01,-7.538670365885438152e-01,4.860386147384731514e-01
8.990355301160974921e-01,-2.852899271736616393e-01,3.436636552256154276e-01
4.129739651155274749e-01,8.013155867164543089e-01,4.113652697332871311e-01
5.034086827339331327e-01,4.772496468079047149e-01,-7.343006883891703973e-01
-4.158759274387222038e-01,-9.099117433791741316e-01,-4.789343295713275467e-02
3.033721156048457823e-01,5.751771012352525636e-01,-7.636977933035689059e-01
9.544704228868767792e-01,2.102593689463813087e-01,-2.127644919100161180e-01
5.682623947814107596e-02,9.980038077142874275e-01,-2.922463808198175195e-02
-9.533475577315919658e-02,-1.366441567710170203e-02,1.000115555168517467e+00
2.615444444499579468e-01,5.924620217615932383e-01,7.583476504680056740e-01
-6.951335715119245640e-01,6.018521639766243325e-01,4.047318624374113827e-01
-7.920724702929314853e-01,4.420193933288077415e-01,4.461479204663781895e-01
5.579728329679906063e-01,6.790687756353206428e-01,4.742198582769865389e-01
-3.561130558160756632e-01,4.722999545467449489e-01,-8.077247858102679645e-01
-3.406790985329575805e-01,-6.579607254868081734e-01,6.588579562767986619e-01
7.966114551114021891e-01,-7.898598021385580537e-02,-6.145205717006272383e-01
2.510985585051221380e-01,-8.562299116992975190e-01,4.623541628947116511e-01
7.413871064344583761e-01,5.092891437641045016e-01,4.440177176881315302e-01
2.123264674618505488e-01,8.885009399726883084e-01,3.990675624643496011e-01
-1.996733805909536863e-01,-8.695117676593469014e-01,4.463283824432349722e-01
-4.575370658582395694e-02,9.447728764173002336e-01,-4.126344546944979430e-01
-5.878876831398434089e-01,3.820385798700174362e-01,-7.310973425353327615e-01
5.052117316469293545e-02,2.932822273580735217e-01,9.575697914042975434e-01
8.767548357123331471e-01,-4.081041270777899244e-01,1.721539764409471540e-01
-4.970488486642738457e-01,4.034011995164326070e-01,7.825876478558501104e-01
-7.229295529398276354e-01,-4.139369177848333664e-02,-6.730680624806575363e-01
-1.465227084878581443e-01,-7.974832838166487914e-01,-5.920568912782456783e-01
4.204521339062541330e-01,8.859356364254361571e-01,-2.097835181611941713e-01
2.063898125971183328e-01,9.565086845075928546e-01,-2.119057377769968387e-01
-5.064185053150962457e-01,6.275570498227546201e-01,5.913723599726872227e-01
5.895940106035337802e-01,5.324939773173809066e-01,5.962321050419217006e-01
6.400872692228378735e-01,-5.839679870750988933e-01,-5.109961394629446430e-01
4.880940977401884151e-01,1.190413542284791959e-01,8.695750033604042750e-01
-7.460397937488770781e-01,6.484166018435187917e-01,-1.357547725901859237e-01
-1.013865911954911631e-01,9.340798318307421688e-01,3.542648030124740943e-01
3.315382562769907393e-01,-9.621649636829227026e-01,-1.105907292707890982e-02
7.769560317377737224e-01,6.233643186456714336e-01,1.925729163400713428e-01
-7.942582112167779762e-01,-3.540643381335677464e-01,-4.858050687508393417e-01
-1.243147793656094839e-02,-9.388570380543336258e-01,-2.713247305666144915e-01
-7.157210624776072505e-01,-4.126758347131130877e-01,-5.661903752165968751e-01
-7.027959913962482374e-02,-7.757216233053714216e-01,6.356201182730563115e-01
2.267535427399976905e-02,-6.990068050294143687e-01,-7.161530509399892663e-01
8.189156326127622343e-01,-2.572616691113149279e-01,5.138346384001800660e-01
