-8.826886315299483643e-01,3.760297737392406803e-01,2.745331298321277980e-01
-7.530925407435278274e-01,5.960024734014732761e-01,3.067206078733648589e-01
-8.151799467714059277e-01,-5.709311600329514125e-01,-2.095456124870191394e-01
4.702252900948133973e-01,7.956266056826574173e-01,3.984864982722499116e-01
2.168831414270061264e-01,-8.441131940157657887e-01,4.879370612364228310e-01
4.389134837932127664e-01,8.496914827861623554e-01,-3.480263998384603985e-01
-2.713190207047042612e-01,-9.380685035992543108e-01,2.739048643107824810e-01
-4.098902182697946039e-01,7.849697622829060473e-01,-4.752473507331507196e-01
-1.915893638950747491e-01,8.501851723250114512e-01,4.925163043878962310e-01
-7.053942056198653221e-01,-7.577909055516356129e-02,-7.001957933973775861e-01
-9.476383432872195201e-01,-2.662198428910110826e-01,-2.652956696061200548e-01
-6.018187655917848211e-01,2.109729937753316020e-01,7.592754166074646704e-01
8.332211098060749999e-01,-3.007338947035149146e-01,-4.793960057139769471e-01
-3.283882480501824075e-01,6.972191343222031712e-01,6.404626167796301228e-01
-5.117289946409303569e-01,4.142629585658291758e-01,-7.484253927420649877e-01
-5.975460118976828883e-02,-9.886333829413741503e-01,1.691920317536824980e-01
8.770418742663547151e-01,-5.037346923089432993e-01,-3.271417579546492815e-02
-2.682450256433453473e-01,-2.655542608253608217e-01,-9.386225896401011459e-01
-3.597241362316017654e-01,8.772616007861299137e-01,2.926449993593847609e-01
-2.693567588848647665e-01,-7.562346237320267672e-01,5.889651108075446562e-01
-5.636449474452053243e-01,7.934004755102036510e-01,2.031721420225061081e-01
9.857699349021191715e-01,1.999117134125901196e-01,-1.412038156267637901e-01
6.198172248674419516e-01,7.398474049492099747e-01,2.979248683760788996e-01
8.089682744006884141e-01,-2.694161420075711910e-01,-4.988047104497753126e-01
7.806964379858682967e-01,-5.614712628741930223e-01,2.934517646074622510e-01
-4.943512818785060214e-01,-7.222136580822751117e-01,4.788377104758376746e-01
-8.952871853020683002e-02,4.675599977264521256e-01,8.748240638530787594e-01
-5.742991338159221248e-01,-1.499906462797297169e-01,8.067355176695825136e-01
-8.040764611832224018e-01,1.004473626131738989e-01,-5.706114009830894895e-01
2.155654314186671860e-01,-3.650383264557815477e-01,9.208391183968123173e-01
2.892687528604347830e-02,2.580740993295893571e-01,-9.561423392215505634e-01
7.996450136005942011e-02,7.848207775485964710e-01,-5.907501615503750747e-01
6.697085230019513835e-01,6.229680085787864252e-01,4.558879440385337767e-01
-4.534485671235385373e-01,-4.746092229977318944e-01,7.492049630718035091e-01
3.941311332039461601e-01,2.440242520509192936e-01,-8.975984693071202836e-01
9.427383125812912601e-01,-1.528888940446423809e-02,-2.952895422938440206e-01
-9.015629286854406343e-01,-3.382692166933120026e-01,-2.226529249678293743e-01
-2.473653423179801580e-01,8.661390951396353843e-01,-4.455098596041385250e-01
-5.765985853594272070e-01,3.527152233797864467e-01,7.425561739559763952e-01
5.558425414830276967e-01,-8.145995283819605914e-01,4.650712350303927434e-02
-4.263034535871183528e-01,-5.139894253777506083e-01,-7.671893297191518801e-01
7.660984867315956404e-01,-5.141347669720114366e-01,3.728775807581191648e-01
-8.874816875071498412e-01,-3.725621120310032564e-01,-1.432626547641043802e-01
-8.189345597021649992e-01,-4.704885956872605912e-01,3.142779599759854547e-01
9.920302052256136927e-01,4.768391184542339345e-02,1.274112600737791756e-01
-1.902722603304824456e-01,9.649218742395191395e-01,2.646691240670495660e-01
1.221155846221013037e-02,-9.513421331169203965e-01,-2.851320062269526168e-01
-6.106637547603226412e-01,-8.034641820617761665e-01,1.618957088550833645e-01
-3.331631363037702159e-02,1.952671177805354596e-01,-9.721981643281142338e-01
4.526070763489601495e-02,1.958616104847879791e-01,9.923831027463498877e-01
-5.589237143946634845e-01,-5.883711257830271518e-02,8.343187726475088661e-01
1.811704068965298842e-01,-3.040239270210645661e-01,9.223629849241052892e-01
-6.682965575091952271e-02,9.111082160495594939e-01,4.436393618400109595e-01
-2.166743898202074248e-01,9.409539871036699532e-01,9.062108121006066941e-02
-7.584069859336756148e-01,-3.734750825753040959e-01,-5.627999737856363982e-01
-2.309926532131357513e-01,9.364427693777314099e-01,-1.982738791958382762e-01
6.600731769229456480e-01,-6.969734544345665972e-01,2.927559130773147444e-01
-4.067059193741926482e-01,8.471960772163770192e-01,2.969157305804553393e-01
-3.056153878068961771e-01,-9.397745082367866543e-01,-1.289928356564221390e-01
2.505144910293901628e-01,9.532157924392791193e-01,-2.729673534295625759e-01
5.631481890042314836e-02,-5.324459757013848271e-02,-1.007617483018775406e+00
2.729666233937364517e-01,-4.331737693338964523e-01,8.581209742551427766e-01
8.410826536597040270e-01,-2.699510706273045568e-01,-4.789339659396752436e-01
-8.106425538060707536e-01,7.192822346316814219e-02,-5.733806590135207548e-01
-5.844654165529677980e-01,-7.980963979085570204e-01,-2.430170726031103678e-01
-9.037750141913053481e-01,-4.098515377460277831e-01,-1.233174586177864518e-01
2.756719630326244230e-01,2.481245240133925500e-01,9.202321375978298468e-01
3.595389704699799016e-01,-9.346427587909692525e-01,-1.195282556756434343e-03
-4.394624761630113174e-01,-7.890342916439769816e-01,4.066588873154161621e-01
5.491138891429361291e-01,7.588803509696472327e-01,2.732830323081963941e-01
6.215423303593255872e-02,-5.005474021433539145e-01,-8.631923545993974711e-01
1.703052913525827106e-01,2.260036552517765210e-02,9.769836592640722683e-01
-7.054122090328716066e-01,-6.975496028782278701e-01,-8.349508941216005065e-02
-4.313906600805516578e-01,-6.957703736949588658e-01,5.736315058772917252e-01
1.421515105353822750e-01,-9.161410220872518995e-01,3.973404925758588502e-01
-1.421200047640922559e-01,-5.535906589523187371e-02,-9.851394785295412015e-01
3.760947134113483692e-01,8.941156401470994330e-01,-1.598714303007840731e-01
-9.745743168358425579e-02,-8.086439624575856300e-01,-6.057059202388292984e-01
6.007234438135392596e-01,9.339678286982912303e-02,-8.014957399637852031e-01
8.129994723603315432e-01,5.626023856720172578e-01,-7.910456914675938200e-02
-6.663792489576594313e-01,4.286282625679797564e-01,6.038145009018064391e-01
8.998452191655530452e-01,1.006001054506640846e-01,4.318951082195222613e-01
-9.960198818182132152e-01,1.336762481385157797e-01,-7.039619978538352862e-02
-3.654726013668004314e-01,6.648177628931919436e-01,-6.368428126789127397e-01
1.802437585058458969e-01,8.449989805610531590e-01,-5.200874436819848956e-01
4.558375846333174719e-01,9.070014024568401334e-01,1.280976343565908282e-01
-2.153660560388756806e-01,1.737328726130685508e-01,9.627471547724806289e-01
2.783264633481745132e-01,-4.087878483891908554e-01,-8.747364674804782858e-01
-5.282033700731459946e-01,-3.668519398868537729e-01,-7.643225228547361194e-01
-9.437099269026666404e-03,-9.702850776599325489e-01,2.009340491247134375e-01
1.683013986997236588e-01,6.985728952048596563e-01,-6.761214673744375681e-01
-9.025740955485513917e-01,-2.110799197654140147e-01,-3.866936928326480949e-01
-3.559354292388741126e-01,-5.707347216503793064e-01,7.463861625031323888e-01
8.011378455949563770e-01,-5.548721465939866482e-01,-2.492627109593699986e-01
-8.105086763310148656e-01,-5.744193587521577715e-01,4.470844718032456616e-02
-4.995263525791088233e-01,-3.041065564164408541e-01,8.150468900483474055e-01
-6.403109262918182942e-01,-6.956263306763426080e-01,3.229204215851083082e-01
-8.274505437669785746e-01,-3.778746621911384107e-01,4.248029566383020872e-01
-8.911827316036553537e-01,4.819850652945856240e-02,4.491840859806479069e-01
9.938761269751303917e-01,1.393131610369854889e-02,2.923853931935417941e-02
1.000915513760718856e+00,-6.438031705564367657e-02,-1.403331908471208873e-02
8.175376876066053899e-01,1.803115288615765588e-01,5.403699666134376134e-01
-8.964248191475462368e-01,-3.077781451135962465e-01,2.590109229719125827e-01
8.027083968912055445e-01,-9.669651016958559497e-02,-5.700545639629448491e-01
-2.921391875060105336e-01,-9.638599740924321813e-01,-6.986885375088561223e-02
-5.170993292427851218e-01,-3.619628570739354401e-01,-7.683028046889914808e-01
9.302456204533766648e-01,-1.263251569347022818e-01,3.028818845977295227e-01
-5.728817999225839230e-01,-4.006184683926587997e-01,-7.124079786899165656e-01
-3.775085875174120087e-01,2.016871923976268632e-01,8.959174650816973395e-01
-9.854817642094143570e-01,9.767783077851567575e-02,-9.790711969433413264e-02
2.094512031612492109e-01,3.508822900612378892e-01,-9.033958963907683382e-01
-4.800499363134884123e-01,-8.164070705232402414e-01,3.304088972474088504e-01
-2.294960508692112378e-01,-8.290373395662630207e-01,5.014597868250042501e-01
-7.663785402581435591e-01,1.512272119371315948e-01,-6.320196736596364051e-01
8.292515673737912429e-01,-2.126408268358696840e-01,5.364232368366901316e-01
3.371728649478603068e-02,2.526851344727140680e-01,9.530787522663723976e-01
1.752250735862959374e-01,9.164169474578555130e-01,3.097599057297682479e-01
-6.167460904334601812e-01,7.298798591615580644e-01,2.794579115464084218e-01
-2.951973735803682386e-01,8.606876730388173247e-01,4.109033226271506800e-01
4.149129163086367478e-01,-3.600645482320734003e-01,8.376894214272124772e-01
1.651931547324732852e-01,-1.720934983755431913e-01,-9.645902287274298326e-01
-6.226389318521143718e-02,-9.966041467316011371e-01,3.062976848919856873e-02
-6.957917165518988645e-01,-5.904154214505925591e-01,-4.384453450823255216e-01
-7.675102059295876300e-01,-2.607028484150882841e-01,6.284061325367185091e-01
-5.121467014043356025e-01,2.221765463295742316e-01,8.129047843130813300e-01
1.376111691135220028e-01,9.645668403240486022e-01,2.444686689230546051e-01
8.906889252311719352e-01,3.886123627697781191e-01,-2.327402009913485115e-01
-2.044857554233008301e-01,7.219655507464153299e-01,-6.790327764567807289e-01
-8.018383929648985609e-01,1.477725908470126359e-01,5.672024911218606080e-01
4.865117097835076621e-01,-8.656208040354708144e-01,-1.223957228850979517e-01
3.209366195293800184e-01,-7.848737322407919326e-01,-5.248712338823796619e-01
1.291852642930464423e-01,-8.460284264602944138e-01,4.976906089251469378e-01
-8.231165703233845887e-01,-8.818848179961881473e-02,5.529820914974560297e-01
6.025518166643079043e-01,-4.438987005826496302e-01,6.479510562004878738e-01
1.919347793680301617e-01,6.239376248810275527e-01,7.500560244349664396e-01
8.535329916181453314e-01,2.081986888150597348e-01,-4.698775869548281747e-01
-7.765473437811113433e-01,6.415050130353181501e-01,-4.262394994595632494e-03
-6.779205895552171679e-01,6.271373055150504527e-02,7.610542458651290421e-01
8.758394459208412863e-01,1.180581150246050662e-02,-4.865022951163788800e-01
-4.910477596099480091e-01,-6.214012217400115556e-01,-6.062810469262606139e-01
7.145025037858828698e-01,3.061793059316119114e-01,-6.465641781781521491e-01
5.517480753905285029e-01,-7.309093460865732084e-01,4.134485659066237662e-01
2.445305672167008282e-01,9.112831582638406536e-01,3.199900387695413517e-01
4.975765314736630557e-02,8.536760175276015827e-01,5.059847215260164788e-01
-5.038099774119177837e-02,9.977833807374446584e-01,-5.219467450972384986e-02
7.410694920748829295e-01,-6.431879148951533676e-01,-2.560666376180631976e-01
6.437363730152718677e-01,7.101953710727550995e-01,2.730475375817018602e-01
8.419342193707175515e-01,-4.573184958554630253e-01,2.755458057291592655e-01
4.193356068466225772e-01,8.901597353784316269e-01,1.225819344745176544e-02
4.334142915438644050e-01,-5.127576965598448222e-01,7.245196353211135198e-01
1.215422115782470447e-01,-5.677640438005548962e-01,-8.241058359213557782e-01
9.240176149290874053e-01,-3.232716359940127071e-01,2.605805736134250150e-01
-1.961214745742146937e-01,5.061399335749783290e-01,-8.358663083236450575e-01
-8.049943220744252281e-01,-5.288427806492336236e-01,-2.180753825244844402e-01
-8.416719709365233504e-01,3.642771615499243443e-01,3.591127568052081553e-01
3.748756613670785054e-01,1.918429379462374684e-01,9.129928260251518601e-01
-2.753314903448279560e-01,-1.789909157283591304e-02,9.564265005040388790e-01
-9.891079800217644769e-01,9.590835941950420773e-02,-1.072002442986221410e-01
-7.109635231072864991e-01,4.218336516446269946e-01,5.719375689538936935e-01
-7.146204810217944292e-01,5.868712880341838689e-01,-3.387422764701015221e-01
-6.629000885628585360e-01,2.535962572168830587e-01,7.073009374423839812e-01
-2.654216081059395105e-01,1.160000142978246662e-01,-9.444457423185219636e-01
5.247317594331278867e-01,-6.573789049590041123e-02,8.407532566062470014e-01
-2.250813347504523609e-01,-8.306566403801060039e-01,5.210778215985893969e-01
-6.800050774557945266e-01,3.744501577113264201e-02,7.457099868796879250e-01
-3.741694331372966142e-02,1.519795958142825254e-01,9.819914442420540901e-01
-9.225996773209891311e-01,-1.349841745856484865e-01,-3.424757423582118210e-01
2.154717802623520861e-01,3.674314963133918921e-01,8.870557107110773609e-01
-3.356861046741523302e-01,-8.192521183422428743e-01,-4.756166927039064407e-01
3.093229072946518943e-01,5.036234871617844000e-01,7.851099638927405699e-01
9.534887762428978508e-01,2.041838728239506739e-01,-1.980042492500123374e-01
6.748706526757938251e-01,-7.460326642272683273e-01,3.552591199863661120e-02
-5.155674605236820751e-01,3.171528534436778846e-01,-7.867964701531203753e-01
-7.388172809198119140e-01,5.818162773153128242e-01,-3.741956221168439289e-01
9.150981707163051704e-01,-1.774467273060882297e-02,-4.182141444558391541e-01
6.271450933366504721e-01,-1.930410738731062059e-01,-7.371243318101980968e-01
-5.895422090204015531e-01,-7.841415530959849889e-01,-5.097658534843715200e-02
6.664957620263883831e-01,-2.196267489747446844e-01,-7.209197088689474064e-01
-9.355180725314211632e-01,1.104502981611816745e-02,-3.717169933997089282e-01
3.587824111565061092e-01,-1.152266276846201087e-01,-9.349710911203142905e-01
9.098626482817503414e-01,-2.008410761607218875e-01,3.212575424045751027e-01
-3.219465501357082760e-02,-3.820008402116119584e-01,9.295798584119315811e-01
8.707308601100770540e-01,-5.003926140164037806e-01,-1.921140000980161439e-02
1.015296519043671630e-01,1.002339101818272127e+00,1.198615542171944416e-02
-9.575997737294672518e-01,-2.380009947832139039e-01,9.848043528194760921e-02
-6.188975738723776487e-01,7.630016617269413937e-01,9.556595062809199181e-02
2.066812899671333914e-01,-5.862229175331090669e-01,-7.843471338727626696e-01
7.735076276220982372e-01,3.741289846430266852e-01,-5.005945535574423122e-01
2.133185826022242770e-01,-3.207352114303791968e-01,-9.160433302917309062e-01
-1.585901798039049682e-01,4.259948880547083094e-01,8.855425101212728300e-01
6.592961591394457255e-01,5.166210709268992396e-01,5.490440883636484859e-01
-2.003895195703590815e-01,-8.071990266565801653e-01,5.782545781501279292e-01
-5.760942671182397445e-01,1.694074525589080171e-01,8.319303416465219092e-01
7.179556924614624025e-01,5.566641054146694856e-01,-4.081921721232830147e-01
6.276182398962522058e-01,-6.743915506322938347e-01,3.650792480952138042e-01
-5.924285000132077927e-01,-7.841518899435562240e-01,1.283014759294779372e-01
4.451391333881274948e-01,8.275622475130255395e-01,-3.134382264283271380e-01
2.067623926325994899e-01,-2.527663675098423823e-01,-9.352055541816115536e-01
-6.174552491788746211e-01,5.944987725296843051e-01,-5.329489862056636662e-01
6.215656693998666826e-01,5.466271436734261302e-01,5.581739097761921897e-01
2.851265609226348932e-02,4.916771180593177970e-01,-8.664476268310569163e-01
9.035399371456536155e-01,1.256790081822268257e-01,4.071858265658159781e-01
2.006077240705325115e-01,4.984227002760120429e-01,-8.610996048871522035e-01
-2.274930460460881931e-01,8.712994080963114563e-01,-4.082717154764573531e-01
4.813342702489444291e-01,2.039021899873970020e-02,-8.937640957487942295e-01
7.288512980121414353e-01,-1.522064598045684003e-01,6.535362890701404970e-01
-1.092852715536052066e-01,-9.909158536772256776e-01,-1.367104490293964171e-02
-2.986299239005374417e-01,-7.824796930584850818e-01,5.613139772825528340e-01
2.398514368919733575e-01,7.430160211479783783e-01,-6.240675985443617790e-01
7.783423873793359204e-01,-3.059377517784074851e-01,5.463106206679916310e-01
4.121657195592799972e-01,2.868349090613184771e-01,8.674723631270206958e-01
-2.329296107283498063e-01,7.050347322077922252e-01,6.611706555865788371e-01
6.150376660551815089e-01,-3.832231595079657605e-01,-6.692697240007509096e-01
1.066128084565556994e-01,9.423581788682779958e-01,-2.963649607969565114e-01
9.310398385684945932e-01,2.017491219695490834e-01,3.161232893728587734e-01
8.646421654120981515e-01,3.422097719603237609e-01,3.322945494008789358e-01
1.277078745797435022e-01,7.880947124982251584e-02,-9.951040621922224716e-01
-6.856470897164708145e-01,4.658481389260052397e-01,5.459526374070069465e-01
-7.773418057036965978e-01,2.059876144558715205e-01,5.900355603707474472e-01
7.720786692124271822e-01,3.346790267120764995e-01,5.313781101847553368e-01
4.995438472985971323e-01,5.170244842863246787e-02,8.707113061981665014e-01
-9.115721059757527778e-01,-3.172638842948980464e-01,2.427459384651610153e-01
-8.502959998762600335e-01,-3.908623617445122767e-02,5.320635784696575721e-01
-1.934863526004500511e-01,8.793001259326395092e-01,-4.769231184200595219e-01
4.544499402200709581e-01,6.951323215635523134e-01,5.607774916020878964e-01
4.047810604395030154e-01,-4.744831410394190208e-01,7.747067274801671122e-01
6.954949034806308106e-01,1.941003382481927275e-01,7.073079195214517778e-01
-3.250707911294196117e-01,-6.786860299590306012e-01,6.537699921575479411e-01
-7.268027583475197284e-01,6.879069052296824527e-01,-7.427750233404234459e-02
-7.317576107478879210e-01,-1.139112730028702947e-01,6.635728939684252259e-01
7.445913919424499428e-01,2.592496634621329621e-01,6.025787298671343439e-01
7.345913755415083291e-01,-4.520727626376956354e-01,4.688204978290623770e-01
-9.398912623286281853e-01,-1.254279352740595710e-01,2.861069832700063320e-01
-5.090808570189436777e-01,-6.182104594249967491e-04,8.917749392105461803e-01
-2.959919582379504921e-01,6.163017353788656782e-01,-7.317489564570779370e-01
-2.266188958182186602e-02,5.378175577967302390e-01,8.441465932095907343e-01
8.461893437155701414e-02,-7.083318147715661484e-01,-6.805230133345151478e-01
3.633855874442596390e-01,-9.256570121278944185e-01,9.207795872221763434e-02
-6.819296802592725859e-01,-4.943723709795618815e-01,-5.063247630694188706e-01
-7.917187194223703761e-01,6.424242922570704284e-01,4.289167504745351051e-02
-9.311284665973573738e-01,-3.908195931155392655e-01,-8.723915873315593594e-02
3.618554165140343004e-01,8.552588019845124290e-01,-3.565773307110598478e-01
7.493424407812431243e-01,6.644110189028110680e-01,5.207029222324138784e-02
5.283220412525785337e-01,-6.151469455952791598e-01,-5.776932344559275734e-01
-5.914117386905048956e-01,-5.148715791059431668e-01,6.094138209450405963e-01
9.261917571213214018e-01,3.528216175807118438e-01,-1.932224738980924464e-02
9.744035054597024459e-01,-8.756990981160897580e-02,-2.582541448280053498e-01
3.728744374948128604e-01,-5.392393756527074089e-01,-7.711436225354175722e-01
-1.952622465827003329e-01,7.840548604719195513e-02,-9.811959501832224761e-01
9.483293664626047947e-01,2.343712534612782949e-01,-2.122657782286970496e-01
4.314188415049052816e-01,2.163299751643151803e-01,-8.630731974473407897e-01
-2.889005068453812108e-01,3.402905197455580733e-01,-8.980981097941557190e-01
-6.200791306357330557e-01,-6.759136038964114190e-01,-4.100279493426350341e-01
5.914327520805435778e-01,-8.000238686636109708e-01,1.007806392182351990e-01
5.859131030543929253e-01,6.207462109817410978e-01,5.250196991413785819e-01
6.333174431711426910e-01,3.233443855050507909e-01,-7.092006269685942055e-01
8.117189827235171684e-01,4.050356773586620829e-01,3.947606475711105123e-01
7.215577183422403618e-01,6.732350677268961192e-01,1.067438734572878356e-01
-3.250772128372316216e-01,-4.229542114348404658e-01,8.381192851606832361e-01
-6.163905305057088002e-01,-7.053595261303475805e-01,-3.751840629209128863e-01
8.672232256324029498e-01,-1.662777723377217021e-01,4.731170107348323106e-01
7.341253448380343771e-01,2.487366698413426280e-01,6.610347311749052990e-01
-1.439877852398679658e-01,7.267199048476521428e-01,-6.884798673912783107e-01
-4.464288763402441962e-01,-6.586123628459521484e-01,6.216033590996582481e-01
2.808310307825659935e-01,-1.686720031384856822e-01,-9.560588060108238251e-01
-6.465861917343062037e-01,-5.705941614624427949e-01,-5.237613112732092402e-01
8.404363005957935506e-01,3.308202480696357251e-01,3.974107846638789132e-01
-2.738738300175886931e-01,8.623881192050703026e-01,4.421303701678791498e-01
5.295830009467236144e-01,8.309713182069335957e-01,-2.159707405302729311e-01
-5.544266618996995799e-01,4.170184394884636769e-01,7.374966578452285537e-01
7.088780480313051913e-02,-6.557081415534986579e-01,-7.501368597966336926e-01
4.364209874742424611e-01,8.375644163430960853e-01,-3.418407735622586707e-01
3.928678373121626266e-01,5.667446229447742345e-01,-7.074963423558177089e-01
-9.583320026186762375e-01,1.633385183085136749e-01,2.710985172004449217e-01
-5.164855397681170635e-01,7.542825799506615025e-01,-3.538630472916117764e-01
7.549395308887578704e-01,-5.598462660911193156e-01,3.296405217238028706e-01
-5.982168219831136557e-01,7.272892501409393695e-01,3.063638234611821276e-01
-1.470729099194316436e-01,-9.966147933257606395e-01,-5.673523142997136115e-02
-3.767933159070958604e-01,-1.446929709441275302e-01,-9.175532247923975371e-01
-8.506460805099960165e-01,-4.608326306086390489e-01,-2.046010232550748709e-01
5.497453292864730168e-01,8.491474733945745257e-01,-5.390119418698959691e-02
8.501147473925406706e-01,-4.575263405704877440e-01,-2.885624901012406873e-01
1.886075753862492543e-01,-9.222785615728824882e-02,9.822068359958211481e-01
4.026019347381852853e-01,-7.607153605315479343e-03,-9.247785454436358021e-01
-6.058756367590699687e-01,-4.356205241240012627e-01,6.738996196380718784e-01
-7.042826573926727063e-01,-3.905840826628524387e-01,5.819700250460421165e-01
7.377946347986092945e-01,4.807971910280290917e-01,-4.473320887775895094e-01
1.856978029026628285e-01,-8.372788713453965803e-01,-4.884410315514259859e-01
-1.050705452081642371e-01,9.638031827750311864e-01,2.800428306413457746e-01
8.699295454341767764e-01,3.968322459888985465e-01,-3.036292055557573422e-01
6.378938319515379263e-01,2.745338937702415105e-01,7.059819315612284596e-01
-1.571149428887404775e-01,-8.190738674794775243e-01,5.357326239446813521e-01
-5.596157666589771651e-01,-7.400056061502197080e-01,-3.937490420062835228e-01
-6.630595801793979227e-01,-6.352015915839061000e-01,3.544916691521374230e-01
3.304939359543317967e-01,-9.333183413415281349e-01,8.978950654675334209e-02
-6.062454606455657258e-01,7.817658919655210426e-01,-2.007768550447185107e-01
-9.163518666551218050e-01,-2.370219892970277520e-01,-3.291963643527051619e-01
1.479350400899342444e-01,1.509908335808521629e-01,9.714416412295679981e-01
-4.285460555747560019e-01,-4.213673218595976322e-01,8.180215033232330901e-01
-3.160148567711160705e-01,7.048535897806282313e-02,-9.450687095316970820e-01
-7.770407407965563840e-01,-1.720383247173420671e-01,6.248265742631599062e-01
8.527935383002536174e-01,4.379039541783020240e-01,-2.518179704912177352e-01
-1.101509481869377381e-02,-3.076795614661885780e-01,-9.279868868018241734e-01
-5.312789151601525761e-01,-3.387293998682244789e-01,-7.985899403276810471e-01
-3.397788342689558316e-01,-9.236873695537927142e-01,-8.681650542133413639e-02
-5.547929027439622018e-01,-6.306916614702311463e-01,5.348234970995492388e-01
-2.358161256128216143e-01,9.465493109199661914e-01,-2.017153619954626942e-01
-7.970388875182699007e-01,-5.746418377820978751e-01,-1.300036135724124409e-01
-9.935810527893403910e-01,1.112504431801941140e-01,-7.904526002380542204e-02
-8.674213662394169022e-01,-1.609654086073113166e-01,-5.356224752343970996e-01
4.915287270259555141e-01,7.143205531761336324e-01,5.259919559239938369e-01
8.005345402279474554e-01,-4.651810855779930365e-01,3.559112125863111986e-01
1.897770077105857545e-01,-9.803923100565753446e-01,-1.805067874065497957e-01
4.007290513352919359e-02,1.780877566840071424e-01,-9.875058178175466495e-01
-7.347097342621554672e-01,1.556546695522216528e-01,6.633621681804464654e-01
6.545730183411394565e-01,1.612952912673234762e-01,-7.456960419165352683e-01
-1.375979659036221381e-01,-9.552354793792842136e-01,2.779448605348464052e-01
-6.289496719650943257e-01,7.767396416194028985e-01,-3.145468493934393261e-02
8.649993029158841162e-01,4.810932178539515380e-01,-1.039427702494857692e-01
-9.642750668210665621e-01,-1.583810401451145045e-01,-1.107229975426615720e-01
-3.092612600205634776e-01,4.724882967594532523e-01,8.317072621441247149e-01
-6.747294002926901291e-01,6.421759339832960878e-01,3.191150950700294975e-01
-3.468420047215549085e-01,8.598704845414809617e-01,3.878004219665512342e-01
-1.721802011276054034e-01,6.633394473020959303e-01,7.234601154236180998e-01
-7.425868133204651667e-01,-5.957966622632231424e-01,-3.392668886857261867e-01
6.583728539333266738e-01,3.246209873629356535e-01,6.976838278218174816e-01
2.238354486128093790e-01,-9.554143876123725176e-01,8.409709207889517688e-03
4.601538549882978058e-01,5.034576393972899772e-02,8.906901828948132760e-01
-7.759744189967080485e-01,-3.023971803134048453e-01,-5.712858320515883381e-01
7.707032654962179263e-01,2.890285385072283719e-01,-5.876634567161481693e-01
5.718920169404424492e-01,-7.453640712795647216e-01,3.420946777375695746e-01
-8.198548225753063967e-01,-5.511888151101924649e-01,-1.790398234700852909e-01
-1.580813255251417304e-01,-7.425451426190203819e-01,6.593096030733601731e-01
-6.751413987873475797e-01,3.157702091514119624e-01,-6.667298567295447675e-01
-7.454702012135704381e-01,-3.277694078894011209e-01,-5.852708504933776812e-01
1.505223429461384765e-01,-1.619009632307451818e-01,-9.809012930072201764e-01
3.374437090368256897e-01,-2.102018708787996570e-01,-9.201932648500809053e-01
-6.165182231599227597e-02,-9.990536105356797592e-01,7.728752223443048630e-02
-3.251820874594974486e-01,-8.307602086711083356e-01,-4.370848976874964209e-01
-8.741862723508853072e-01,-3.091231292117815888e-01,-3.804552280007388876e-01
-1.176997492221021763e-01,-9.576655920970014169e-01,-3.069218915348946863e-01
-4.697384521841799776e-01,-8.516346205817878490e-01,2.100666312418957293e-01
-6.253204582538391954e-01,3.704866024754123743e-01,6.546329706815621208e-01
4.289969314228397335e-01,7.431049712078303671e-01,-5.458186523593917538e-01
5.256509202320134300e-01,-3.860496321967032962e-01,7.695724165097644898e-01
-4.036213460228951777e-01,-2.640840932353570314e-01,8.703492476233585240e-01
6.999091668210141171e-01,6.922485526837880432e-01,-8.321038333381589047e-02
-9.578430184450353879e-01,-2.461365591824093146e-01,-1.851023557264147856e-01
-1.234280546342949175e-01,9.662853793268130209e-01,-2.348663232071301898e-01
-9.799366895058242433e-02,9.641649482259626591e-01,2.867411242356898704e-01
6.835068033194648951e-01,6.771073699677991886e-01,-2.710553990357912890e-01
2.903458174488454668e-01,-7.540303942252218894e-01,-5.570000817522809955e-01
-8.589765505640879484e-01,-5.135476606746978145e-01,7.418275388174508378e-02
-8.243038105033237972e-01,4.242791845448229959e-01,4.315644274724367846e-01
2.691679121198486402e-01,-9.104159376649657576e-01,3.508879688009018394e-01
-1.765169911636960409e-01,-9.670692359088058909e-01,-1.018882440028547887e-01
-2.085565088770201247e-01,-9.594608638621509034e-01,-2.550291516116235946e-01
2.359374871596051915e-01,8.385746583656632502e-01,5.051589871109833929e-01
-3.442588592111297530e-01,6.493469561365891596e-02,9.396323675147396637e-01
-4.477460553949855759e-01,-3.753021987160322648e-01,-7.947365641009396242e-01
9.402993661622603971e-01,-2.321121500992509579e-01,2.450767836569500147e-01
8.228632280574567082e-01,4.347804679990325827e-01,3.806941002100407978e-01
4.523210135165169343e-01,1.563968445532561147e-02,-8.894439187419004300e-01
3.325874283779645113e-02,8.100135097928973238e-01,5.501436741668449537e-01
1.358510348697106462e-01,9.181088947862939831e-01,-3.058942357597274064e-01
-8.607530028176982873e-01,2.796380597014761493e-01,4.102252152226019688e-01
2.040534912390991329e-01,9.149745931687167655e-01,3.378692343070095472e-01
3.696300868751088986e-01,3.123481274666995988e-01,-8.728069572055898728e-01
5.370540864926559230e-03,1.121828108885536551e-01,-1.001689759885393549e+00
5.167525389679399339e-01,-1.872490436498736380e-02,-8.364062152862095090e-01
-6.876341649238230103e-01,7.343439719726123638e-01,-8.104053615810552502e-02
9.025928436821438472e-02,-9.915980946287878961e-01,1.209694789805417364e-01
-6.488850198254074719e-01,-3.993878320772836776e-01,6.473838880932107909e-01
4.046833120249406224e-01,-7.061777314424906304e-01,-5.875642520026927995e-01
-9.108826495906257037e-01,4.344481560601863857e-01,5.160716497632606217e-03
3.257537671892543618e-01,-7.828918932692763288e-01,-5.057741842402491139e-01
3.353504818703434975e-01,-5.645487443672223549e-01,-7.603953280875812570e-01
-4.756155827308648498e-01,7.828599799265476555e-01,-3.942525975124742676e-01
2.083162230003657300e-01,-3.907050322869000669e-01,8.931683484922726679e-01
-9.268345256425233325e-01,4.064128323088749828e-01,9.447976181133078966e-02
-4.674765897484683790e-03,-6.503219582236131023e-03,-1.003785002897137346e+00
-1.401768692100507085e-01,9.615508956185212508e-01,2.289582076041428438e-01
-5.634357399614211559e-01,3.231747647688371083e-01,-7.635117416559534798e-01
1.731470935995216842e-01,-6.178292105387392930e-01,-7.823313321051028613e-01
-4.627187720722997222e-01,-8.041177655561251303e-01,3.410904306222967697e-01
-6.730919949501059651e-01,-6.876112848449021653e-02,-7.295497439689735408e-01
-1.266621305016821242e-01,1.573327455580012246e-01,9.829901877017769296e-01
4.364786720448000090e-01,5.987947923086006652e-01,-6.772825946305159883e-01
-4.442401913396925583e-01,-4.516803430519839013e-01,7.662638371447427765e-01
4.513248231479455481e-03,-1.607529056054666228e-01,9.828467918424103056e-01
9.385313633949834422e-01,-1.866847147163502585e-01,-2.904586832837994237e-01
-6.817866378658906656e-01,1.101394515132066015e-01,-7.325179802339960577e-01
-6.202129437891465980e-01,-5.661991989956857152e-01,-5.185587952986514537e-01
-1.528956498456620350e-01,-5.499753559846956019e-01,8.247990985095592364e-01
6.221076690450160207e-01,7.626306625768056735e-01,1.361905681909507948e-01
1.082787559007541284e-01,-5.208137041932088263e-01,8.416297093565541232e-01
-4.324730631323439600e-01,2.826158999673191730e-01,-8.647615040227530914e-01
-9.349168766530447927e-01,5.868664494745330640e-02,-3.392825791899267140e-01
-4.756837412765519968e-01,8.737443100178027278e-01,-6.499823873961306508e-02
1.503648445334288264e-01,-2.961775374710557962e-01,-9.281160563215477000e-01
3.101025340452087109e-01,8.782268260892699407e-01,-3.456911627087764227e-01
7.744764129953392029e-01,-5.755985792735803797e-01,-2.332205531098381357e-01
-8.037636938602380487e-01,-5.853888837044478599e-01,-1.480517134512665534e-01
2.079207217173109357e-01,9.427387831334157475e-01,2.565562384029227982e-01
4.452183057970585112e-02,7.656159604537268182e-01,-6.196052711653162737e-01
9.847671174351868562e-01,1.606254701540462126e-01,-1.821748045867250809e-01
1.795245266883486179e-01,-5.627631564562973754e-01,-7.783733045300998965e-01
-3.728219132586513829e-01,-4.271366527829865145e-01,8.311404109695806897e-01
3.910579172769533818e-01,7.842997754926172016e-01,-4.940948346149995341e-01
-1.878537538274441532e-01,-9.679493949156345867e-01,1.323574845916943299e-01
-3.082429641716375457e-01,5.897080929169732366e-01,-7.316742691078372829e-01
4.500894415013853012e-01,8.937724640255972908e-01,-9.036283441946507677e-02
-9.964114429564944198e-01,-1.412366246156589455e-01,-7.138431728915142771e-02
-7.086021783349081421e-03,-5.433747311567111993e-01,8.432813427040897203e-01
9.536910272790867227e-01,-2.446336531241558032e-01,1.332449047164421529e-01
-6.327584577637761498e-01,-6.079250179518284058e-01,-4.760877216321863781e-01
1.140279801775592322e-01,-8.537789334876593195e-01,-4.995677360889060892e-01
1.812418052289895276e-01,-3.525613040502915685e-01,-9.066602105074108575e-01
-1.195498200384857573e-01,3.379103327387055766e-01,9.291242119206729599e-01
-1.215042027703675392e-01,-9.051865284212203822e-01,4.052652274834067647e-01
-5.318423545725985413e-01,-1.197882703068572918e-01,8.490272589834573225e-01
-4.666235405860146290e-01,-8.674106960655483256e-01,1.853741278565296524e-01
-4.308746722705190241e-02,-8.781150896653823201e-01,4.710263152975526224e-01
2.642339858780700101e-01,-7.587461088949846166e-01,-5.876600919193616379e-01
-9.501865199851973198e-01,2.716368381099011353e-01,1.627839252814173021e-01
2.234194792585877387e-01,-1.129623508611978522e-01,-9.630623878526192172e-01
-6.287218599104412720e-01,3.337486384989900023e-01,-7.309031824125301613e-01
1.995837049986061984e-01,1.205242859269778782e-01,-9.723433675577103363e-01
-1.222892355319144808e-01,-5.254270215384929665e-01,-8.438229102695888884e-01
-8.265023571138646608e-01,-4.477656617244292758e-01,3.321473429874526317e-01
-5.942428057244985018e-01,-3.315070427747521253e-02,8.085719264515126570e-01
-9.900899224897079520e-01,3.471783145434698820e-02,-1.407129208790625641e-01
-3.200278577859728690e-01,2.212840351666135186e-01,-9.158159531040690471e-01
-2.656010941299326578e-01,4.622432081444511343e-01,8.339523679236870990e-01
-6.814420973614170318e-01,2.999006174145358306e-01,-6.747048306764370507e-01
-5.668228749637893582e-01,-5.611983030027312136e-01,6.031953375104524007e-01
-1.846226660722658508e-01,9.118536568816288934e-01,-4.457922630916411055e-01
-2.821685183546571718e-01,-4.407292993512320622e-01,-8.735897261159154548e-01
9.301050910789979698e-01,-2.650121082506685932e-02,3.690845515335411942e-01
9.525267598471121033e-01,-3.537424350580780641e-01,-5.044709927809597899e-02
7.124937737582395236e-01,-3.759020943097695078e-01,5.574993151049697504e-01
-9.305469392422218711e-01,-1.137568954543455718e-01,-3.017672869540725666e-01
5.576092680845695648e-01,-1.759168222707792051e-01,7.963618077371158455e-01
-9.613630063538226578e-01,-2.092987909867930207e-01,-3.762723446919441495e-02
7.688995487054647304e-01,-5.596252312035215892e-01,3.169262629746410487e-01
-5.381129981045186250e-01,-7.988474625761949888e-01,2.754556122158115516e-01
3.691386509013454553e-01,-3.856274828080710759e-01,-8.472627877275727970e-01
3.981864345164979335e-01,-5.210670574074599548e-01,-7.707263696753382520e-01
-5.603091544710656624e-01,7.983353905725382171e-01,1.122962579425813567e-01
5.734133921801353173e-01,-5.361877571634674489e-01,-6.313029330800815631e-01
8.737871320971127842e-01,4.167166999937990113e-01,3.053951258928596646e-01
5.255381803084949871e-02,-2.456443558395197263e-02,-9.991507494096292241e-01
7.487940294322543988e-02,7.432952202169709199e-01,6.785788111403693312e-01
5.617202617449391644e-01,-7.472720241326479274e-01,3.547933453383051439e-01
9.739339625790867094e-01,-2.457320882777471183e-01,7.663392843548849642e-02
3.234056698086306136e-01,2.134721990620667698e-01,9.272448943343248873e-01
-8.333670443841793007e-01,8.955780533899551643e-02,5.332031968805104327e-01
-1.414374023385269463e-01,-9.848286604618928797e-01,-8.277199434114597409e-02
4.454724122896264737e-01,-8.710724320402192244e-01,2.248267842346962642e-01
3.651818916161737594e-01,9.710050815400561586e-02,9.160181373054701037e-01
9.317514032233498167e-01,3.779517832686845047e-01,-9.683387999214368436e-02
-5.907812488554418096e-01,-3.412790509575118203e-01,-7.332748966527553591e-01
8.189379831759808770e-01,5.721094718368057164e-01,-9.016091034897792678e-02
9.346447007024556441e-01,-3.081851267906393077e-01,1.787532670671101442e-01
3.734588019672066550e-01,6.432623268136410388e-01,6.684586773406304694e-01
-6.006488834826901879e-01,-4.324510228849927085e-01,6.794950972456514915e-01
-1.229029520281543731e-03,-1.202019339981420937e-01,9.899787306666546494e-01
-5.738549771316969750e-01,6.057990974167539733e-01,5.594126462536852529e-01
-7.225389847852193848e-01,5.357719943669172480e-01,4.611872664426329704e-01
4.092437350774446037e-01,-9.750822737815545427e-02,9.057396255275883545e-01
2.859070742754706851e-01,9.045273610202042569e-01,-3.199851297245380199e-01
-8.199556865101528258e-01,-5.554122187096472985e-01,-4.752168428502858560e-02
9.276986281782946264e-01,-2.170601038080423317e-01,-3.327526035048665731e-01
-3.099524765368820711e-01,-9.335901790005353140e-01,-2.056462002576478210e-01
5.173419108951278211e-01,-3.012582430102945241e-01,8.048495669464813540e-01
2.396111112779220065e-01,2.763073398992682561e-01,9.273683937887713391e-01
-6.637187214844106897e-01,-6.752691032649571490e-01,-3.140354994517914333e-01
4.749056240252366723e-01,8.503482577566623402e-01,3.410701858570989176e-01
3.365155263592098378e-02,9.414224706495485373e-01,-3.723708279660883358e-01
-3.663769173677728919e-01,-2.924570176233834418e-01,8.864217994245422449e-01
4.785353721100201740e-01,-8.576955224709548187e-01,1.572578964998378598e-02
-6.755378470597671603e-01,1.794501241767996469e-01,7.305339023133111676e-01
-2.366410848314055848e-01,7.105321687521400920e-01,-6.453729364503076882e-01
-5.833197881420402325e-02,-1.615216740396324679e-01,-9.891855152814954533e-01
7.210391339756614393e-01,4.459640927336558369e-01,5.356208253558001342e-01
5.743066983469935494e-01,6.170073170210106372e-01,5.402623871429897973e-01
-5.131031246608483976e-01,4.249710945863811040e-01,7.457436380397810538e-01
3.248460623952772464e-01,-2.712828273115173716e-01,8.986346975571982698e-01
5.910768939676017686e-01,-5.114347611389534753e-01,-6.331745156053577572e-01
-2.777318359516503174e-02,-6.178249456571160980e-01,7.912574584364916452e-01
-3.182912421355495458e-01,9.244528589869970281e-01,1.988125206689781710e-01
2.812716421530721614e-02,5.085412477219295457e-01,8.653800238966026237e-01
-3.285622283867549454e-02,-8.237711091332025060e-01,-5.967603909328957901e-01
7.122787503313251500e-01,-1.258208325432925434e-01,7.114465384317846253e-01
-4.888691898043284190e-01,4.546380551198052067e-01,-7.392735491982553864e-01
-1.631834847919899079e-01,-4.858581138443726077e-01,-8.321882193756532375e-01
-4.030462339397248295e-01,4.089941320329404939e-01,-8.206138300612393355e-01
-6.300904957821459318e-01,-7.780568361406815514e-01,-9.115766853075323028e-02
1.715233561586636535e-01,-1.342481326165888278e-01,-9.770143574792351515e-01
3.020548644813982331e-01,-8.877401205455983657e-01,3.485867934505759158e-01
