-8.730180179288056230e-01,-3.643257319802363503e-02,4.891196448080332715e-01
3.281327544034835508e-01,-8.896562641418981343e-01,-3.167853068381615289e-01
2.520148387611457763e-01,-9.239195818507199842e-01,2.952343033650033366e-01
-9.808803613116919839e-01,-4.135567188762791224e-02,9.934031322735184522e-02
-5.617126037076345529e-02,-1.007869137526785419e+00,7.373190903765350357e-02
-5.650479183665327865e-01,4.873217008587554799e-01,6.498200719461983965e-01
-7.073634360217395667e-01,3.852283721471350120e-01,-5.777905036767435609e-01
-8.236672392716635205e-01,-5.328497635002948929e-01,2.067779196288463406e-01
-7.698204088813503931e-01,-6.337299521178263451e-01,2.733800398677442914e-02
2.046222777190845887e-01,9.466668654718130016e-01,-2.139304257943026866e-01
-8.054099167585884733e-02,-7.694314994234827676e-01,-6.497453818354645971e-01
-9.584523406163497627e-01,1.124380678580164522e-01,-2.297550842419840422e-01
-2.297426164174088681e-01,-9.773464996401260985e-01,2.457664948268658764e-02
3.536306489006099674e-01,4.626368089756954793e-01,8.030752982282861607e-01
-6.665334398845578212e-01,-4.669955463702699094e-01,-5.741647942915407699e-01
-9.670275022960719280e-01,1.874410665877067617e-01,2.475913483796548797e-01
-9.384384963251989342e-01,-2.956376727095645918e-01,1.572188996136534012e-01
1.736832326421278438e-01,9.804206588720331128e-01,-1.108676908259561694e-01
5.790821436633742936e-01,1.337431147666583442e-01,-8.126008934538206940e-01
3.045162090940964350e-01,7.708191593674036390e-01,5.411927216960551457e-01
-9.513898546447055460e-02,-9.250995182542759432e-01,-3.569155364820649212e-01
-4.098777456671904296e-01,-5.007372716369457022e-02,-8.917213809504549449e-01
-7.105270658005861106e-01,-6.450744358496453001e-01,2.783709598378100170e-01
-2.036451319518883252e-01,9.779961721597060231e-01,-1.676117385469427096e-02
-7.997793737329023100e-01,2.562983054463746635e-01,5.288511914520208634e-01
1.999837135402370014e-01,5.260713169770886433e-01,-8.144160281379457800e-01
8.940513314176006254e-01,4.489979576992006449e-01,-4.766292618636196882e-02
2.618037460185958509e-01,9.164841799947671674e-01,2.584897261890340969e-01
1.465939873171752672e-01,8.827085523222502061e-01,-4.433043334404496716e-01
-5.296278271011110039e-01,1.947680979188667616e-01,8.425645281982360180e-01
8.130349159687830785e-01,1.099023700488417354e-01,5.783181449462714285e-01
8.259709954029265111e-01,-4.975229998202564952e-01,1.664804807890461757e-01
7.729744093148757100e-01,5.714423485703266081e-01,-2.102821845095988462e-01
-2.361519356968088124e-01,6.849424933219107059e-01,6.788251759366562554e-01
-5.982966589661082857e-01,-4.903738355734271193e-01,-5.978092603553525342e-01
-1.793711569630920821e-01,-4.543796580087991477e-01,8.774702010619418457e-01
-4.078116552886108526e-01,5.396576232416300245e-01,-7.393357225984504844e-01
-7.756934908107807614e-01,5.571497272306192849e-01,2.226825702670578166e-01
2.688158823606962358e-02,9.909399385102600766e-01,4.469167809189850127e-02
3.556976520457152402e-01,-7.129689720319746238e-01,5.913979200436406680e-01
-6.838873149003774632e-01,9.150210571875007359e-02,-7.050031342086700015e-01
-4.012611329906180524e-01,-8.140762965586776367e-01,-3.815309536342824659e-01
3.706160818678029267e-01,4.809200270071156691e-01,-8.054442924351059574e-01
4.194924863541826809e-01,-7.560632488970031595e-01,5.172248211260459527e-01
1.451402931034870454e-02,-4.616629856595310666e-01,-8.704756912338041941e-01
-3.805047103911272655e-01,-2.375494943309935936e-01,9.021237931780224928e-01
8.401470959204302424e-01,6.631651876233699006e-02,5.528012703507979575e-01
-4.565341600526328092e-01,-9.016992401059212847e-01,7.889178235501413672e-02
-9.596646760990605873e-01,-2.240479881449466415e-01,-4.485445373914234007e-02
-1.920020096930692144e-01,8.556787705946781175e-01,-4.517068943643474666e-01
9.311798932710210197e-01,-2.442941182541457368e-01,2.549196332494722550e-01
6.087743141840622485e-01,3.440743812415740788e-01,7.042526414697258819e-01
8.630295647974610684e-01,-4.524230242088796983e-01,-2.181713240198068504e-01
3.766600506484917288e-01,-8.938030527059883656e-01,1.893216318290680267e-01
9.868756105587137561e-01,-1.064051063272221653e-01,1.822208646364525675e-01
8.758963004369707539e-02,1.012928195776344298e+00,8.136822531684032023e-02
-2.424216381653826469e-01,-4.930316871616073904e-01,8.430906505536251982e-01
-3.686232333021005059e-01,-8.376972499980946951e-01,3.519489997344841248e-01
9.604248033526097128e-02,9.392848971215047582e-01,2.862645526226034187e-01
-1.241598393649722826e-01,8.052267212171627664e-01,-5.905644443617662498e-01
-1.672440670868146073e-01,7.900913716880612059e-01,-5.728559422636887444e-01
7.020309066228963557e-01,2.883091526451218023e-01,6.565930811011829737e-01
-4.115360251148170723e-01,3.452022931464795996e-01,8.449743959450467523e-01
9.948564397189305075e-02,-9.793113988272178494e-01,-1.897452294630095904e-01
-7.315445279852336169e-01,-6.704267302443001064e-01,2.066198899699668856e-01
-6.236162310580947166e-01,-2.006076302321160854e-01,7.502534121486660323e-01
3.678109707014340923e-01,8.985998107657050538e-01,-2.787618923218335154e-01
3.944019233066195507e-01,8.782735919650843659e-01,2.603277348089604315e-01
1.728244872007725710e-02,8.622650731912815392e-01,-5.010210878693290848e-01
2.905950321317920526e-01,-9.488032856107216917e-01,-2.387599008606994810e-01
3.344760259736558883e-01,-5.085544037469953010e-02,-9.317369649574324120e-01
-8.115461174676367184e-01,5.627922145216850414e-01,1.103370517988844640e-01
-1.087190003671489880e-01,8.291867388533119554e-01,5.515994209278506366e-01
-8.619598663734064914e-01,-4.701799250444469447e-01,5.336259239441652584e-03
-5.335475929674458051e-01,-7.963827759175285959e-01,-2.474135172810533467e-01
-8.785025099406581495e-01,-2.484388822777043038e-01,4.184034628259650779e-01
-6.114650267520583826e-01,-5.640604202647756527e-01,-5.497954637868973649e-01
-5.895267170308862159e-01,3.709634768627257384e-01,7.250424579110295031e-01
-4.415434962499040772e-01,-8.355514578404239501e-01,3.368071346315208436e-01
7.426140642617822252e-01,-6.163977300800141945e-01,-2.643228074340728262e-01
-1.790217729719900952e-01,-6.955782495733309201e-01,-6.709194785831867902e-01
-2.654409091144694852e-02,-5.366009414931826038e-01,-8.380881109316851152e-01
3.925967925824002669e-01,-7.500796100801198074e-01,-5.347182072252090190e-01
2.126692039926481592e-01,-3.574729469391562109e-01,-9.083740309748608022e-01
2.565258531328320490e-01,9.532661459246869473e-01,1.005093083444010965e-01
-4.469505668761143968e-01,-8.756605264409899059e-01,1.296036123872558732e-01
7.036913765551602307e-01,-4.335018153102809246e-01,5.790127194308047898e-01
5.792496272326236317e-01,7.749705225013591159e-01,2.653586196008955733e-01
-6.208698913671462094e-01,-4.872112734665287603e-01,6.192369633024846776e-01
-1.230725680945844308e-01,8.742461197610639223e-01,4.723736122725722408e-01
-4.334431406009750520e-02,3.189937188098170839e-01,-9.582058166835961677e-01
7.999981976695482722e-01,5.905334062683593732e-01,-3.513785774811972740e-02
-6.579336921258938098e-01,2.418519226579617099e-01,7.105953914369769198e-01
-4.132525244159503952e-01,3.235387654865086726e-01,-8.635717358176835390e-01
2.284269802037489083e-01,-9.531644221465859212e-01,-2.188292585760115982e-01
-6.727071062217359135e-03,-8.342257344630683580e-01,-5.477077001547542290e-01
-3.524598393693432752e-01,-9.229022788094590757e-01,-1.954999975897599440e-01
-6.626986890473666181e-01,-5.930735767354390342e-01,4.503669687787197340e-01
6.034881414827267809e-01,-4.962350400566556408e-01,-6.317848798940227661e-01
5.753872552632502968e-01,6.586025348780962796e-01,5.029233687256462471e-01
9.420845773920791810e-01,-1.940537078258598447e-01,1.990825161329110027e-01
4.690222706408463949e-01,-8.581466531917288920e-01,-2.184971339918542754e-01
-5.483800890128696093e-01,-3.394156313776380274e-01,-7.625908518097181954e-01
8.660152036575770040e-01,4.464897970579478348e-01,1.644027568263879691e-01
4.039216508760777868e-01,-1.436942065774907129e-01,-9.003383735510649410e-01
-6.054340648391522972e-01,-4.501361478379688474e-01,-6.385652200854839977e-01
-4.962452508716067578e-01,-1.867771830339860772e-01,-8.421492812186611721e-01
-4.827714220040631443e-01,-7.984348152924038988e-01,3.614858710271758313e-01
-3.223606233129415188e-01,-9.311676564261530675e-01,-1.087148773826422249e-01
-5.831255921050090274e-01,-5.386320855667201535e-01,6.325932425080941224e-01
-7.571202385682720415e-01,-6.683916555032911599e-01,-1.581348938892307432e-02
-3.614798643191696748e-01,-8.940269087972567696e-01,2.398181361008166201e-01
-3.284861501407142503e-01,2.709106268234301451e-01,9.164962720722383827e-01
-4.521468356286808543e-01,-3.662994363873655068e-01,-8.475496008569936013e-01
-6.265346076659956687e-01,1.001395176167119011e-01,-7.615996496139428862e-01
3.000980734289189766e-01,-8.952212695917856067e-01,2.699162800295563658e-01
-1.002624443390299991e+00,-5.994992699036955086e-02,-9.178320813976161008e-02
3.609841781718281517e-01,-4.212330112084917699e-01,-8.244878870543289606e-01
-9.426597877715390261e-01,-2.939071601015115220e-01,-8.608790599927527987e-02
2.459799227580651837e-01,9.215605684591725577e-01,-3.158442784338155729e-01
-5.149729453243238053e-01,-5.466503196162691980e-01,6.534893918213751096e-01
-7.709396154476381643e-03,-9.815567563896152592e-01,-2.409107374059132056e-01
5.538143318352283240e-01,7.905509285011110832e-01,2.389059775459160817e-01
3.483616065481585089e-01,5.835829735744727520e-01,7.364244126416225056e-01
4.491904203470549195e-01,-8.873106203694510752e-01,7.473832034398815438e-02
7.480763610379529416e-01,2.627937823622024105e-01,-5.813600359955271024e-01
3.118475855302125233e-01,9.407327992323498700e-01,8.697301866915969903e-02
-4.789169443223466605e-01,-8.470189387502028433e-01,-2.658466912241361224e-01
-3.546263325029927471e-01,5.828511518808039416e-01,7.252209339274896527e-01
8.467472730491381050e-01,-1.711395049005131064e-01,5.096979592280758142e-01
6.299987957540725825e-01,-6.891050945050304355e-01,-3.602888825176502885e-01
1.258880816379774059e-01,8.043698454049313940e-01,5.666636884019592424e-01
-7.812213861686687078e-02,-2.596976016717844615e-01,9.639845618412519190e-01
-5.232944937277463904e-01,2.839989425564134473e-01,-8.069100383842973123e-01
9.086253271691239197e-01,8.166799587784491499e-02,-3.853812861495078401e-01
-8.206481433848368257e-01,-5.853595440158107510e-02,-5.660000628590609040e-01
2.953467969347088329e-01,8.587936658769667053e-01,-4.368937068419010972e-01
-5.631038270307804350e-01,-5.815635366218369073e-01,-6.004297265330615918e-01
-3.876687043611973943e-02,7.141781177485053700e-01,6.887502636111859644e-01
2.169252158163180177e-01,4.683863418251300592e-01,8.489100927609084524e-01
4.118607725482413828e-01,4.772559784421719770e-02,-9.279018889430719064e-01
1.192702399982968481e-01,5.445981799873844675e-01,8.403300107744390290e-01
8.100481440488087603e-01,-1.516676619854491204e-01,5.694029550791801508e-01
-7.181167857585070147e-01,5.498570740761230535e-01,4.355041037683742289e-01
-7.202828723908573094e-01,-3.273659264797940671e-01,5.943838849647987699e-01
4.406339479660331127e-01,6.822958230938828139e-01,-6.041488608117449033e-01
-8.240296513443797766e-01,2.915043137697154729e-01,-4.892154457404722101e-01
-4.969387317563482287e-01,-5.562195792498760838e-01,-6.668995343147093857e-01
-7.971696034172742751e-01,5.907237158863916093e-01,4.587606542587560621e-02
1.193332659692557668e-01,9.654914239202739834e-01,2.343903523752644547e-01
-3.414754548737019002e-01,7.786768364299293532e-01,4.793584607307562750e-01
3.981816260976168143e-01,8.118056434846980807e-01,-4.206771021277381228e-01
7.459030533850191658e-01,5.969160034122807934e-01,-3.058792021648380488e-01
2.378605887211615311e-01,-6.697429890689634568e-01,-6.842679485666499639e-01
1.355468307676724604e-01,6.294384243772868648e-02,-1.002034804347919916e+00
9.432848114305844578e-02,4.828699716499207928e-01,8.716348124028544531e-01
8.110970221110753720e-01,1.788145649182612817e-01,5.717008986329088494e-01
-2.660028709706840910e-01,-9.526856959853439166e-01,-1.676013118481859965e-01
8.348337419108147195e-01,-5.070133059489946303e-01,1.049580179472059394e-01
4.055796403884933121e-01,7.428637511392565118e-01,-5.358728429654061598e-01
6.343828742084315353e-01,2.994207248240626229e-01,7.278864976911675333e-01
1.193001836207904960e-02,8.363326377268726075e-01,5.554586802764597264e-01
9.143492117563539745e-01,3.148598369878019554e-01,-2.109715417440496954e-01
-2.229481846359697150e-01,-9.758951281586547566e-01,1.092220851254477182e-01
8.492895278764537315e-01,3.932139517682998187e-01,2.879327122429736763e-01
3.409623161416840964e-01,-5.752153031509477099e-01,-7.389784600740493259e-01
-1.297014064873900085e-01,-9.473697149562386732e-01,-3.032039627766477397e-01
-3.569056277384076714e-01,-7.241097295981467896e-01,5.682609663890816343e-01
-2.472014746892021164e-01,9.540265201048948596e-01,-1.664362329692064824e-01
-3.084957149221946859e-01,-6.030289718627892537e-01,-7.356997869449071192e-01
-6.677176811838249071e-01,9.894502359357350285e-02,7.410680357305771127e-01
8.776947918563962059e-01,-7.346527924141037225e-02,-4.820106842219209486e-01
4.895090882297895574e-01,3.518975695145836191e-01,7.881509838197269247e-01
-1.113189694332363672e-01,8.498584401124623655e-01,5.448176301403582222e-01
6.836200258173125155e-01,-5.808525417696298598e-01,4.242320069336286692e-01
5.523980866374186283e-01,-5.736268261459597229e-01,-5.870022430759169740e-01
9.333597571407669102e-01,3.963833787893026872e-01,9.149183219178729171e-04
5.722070113236078504e-01,-5.805149819447254916e-02,8.166270095570660192e-01
7.628318290109046274e-01,-6.468495658682270610e-01,-1.584383512602092758e-01
2.718580863605228881e-01,3.995506283913649037e-01,8.717536612931623408e-01
-9.828129737610515892e-01,1.633322355425498584e-01,8.137044175778092303e-02
-9.063384802579264876e-02,-8.145281545022395875e-01,6.004888698535939540e-01
2.037353938787772323e-01,-5.124736163513270437e-01,8.467260517599718428e-01
-5.299722229676328000e-01,-8.003162843386464331e-01,2.691212227388758427e-01
-9.155790034091568774e-01,-3.419608242061363823e-01,-1.380679614120039478e-01
3.377473026606392925e-01,-5.474952896326678031e-01,7.520496255371640348e-01
-7.318702433152396436e-01,5.739443340333040267e-01,3.692597392952703950e-01
-8.373949183223157178e-01,-5.322729436625462940e-01,-9.262989007201749558e-02
9.912082819260482902e-02,9.787669718520528583e-01,-1.426357855367182403e-01
-4.167926708004469072e-01,-9.034625899928472315e-01,9.321477787783211122e-02
3.731345179947315877e-02,1.363350947263729795e-01,9.891845616864530788e-01
5.192674988684864434e-02,9.064004665325416932e-01,-4.155692236520913130e-01
7.016567845996840580e-01,-6.002381437356479887e-01,3.994911429038741080e-01
-8.814064927230763624e-01,-3.531525356038332092e-02,4.849327167509994707e-01
-2.148527243977822049e-02,-5.009379175892433311e-01,-8.545665446558519118e-01
7.327758382346821753e-01,-6.316468307179141650e-01,3.216009469143400468e-01
8.169414336227360796e-01,-2.315970307938320649e-01,-5.357749009808319141e-01
4.078857029298337267e-01,-9.004589960918850666e-01,-1.083847774531192798e-01
4.920490084998737079e-01,6.699279675117048027e-01,5.730996703127240188e-01
1.830786731916923815e-01,-6.747252947238078225e-01,-7.254041618507319766e-01
-6.221695677226531940e-01,-7.479816982932385727e-01,2.201388250088272547e-01
4.273469955405754389e-02,-5.026474672674600130e-01,-8.631940552442044501e-01
-2.434223669414687097e-01,5.953672844522666097e-01,7.756054666462738334e-01
6.883075767410393730e-01,-2.353197667314816111e-01,6.891705527780576102e-01
-3.465111111588435322e-01,9.441570528551410657e-01,4.609532770756245845e-02
9.450747295212283960e-01,2.470811114422562793e-01,-1.149090082408659869e-01
7.082319669529322237e-01,-5.183005781067281381e-01,4.858743014646553227e-01
3.539057232126385788e-02,4.349584710777229524e-02,1.007407838589699400e+00
-8.174355831935713468e-01,4.622600100824571512e-01,-3.218558940424180448e-01
-5.749787960626514538e-01,1.828754830367536333e-01,8.001863927816109667e-01
7.108131517440531288e-01,-6.054477583333800483e-01,-3.134757913331368551e-01
-5.795388624589911108e-01,-5.292270276523508565e-01,6.143863332530735688e-01
7.007208225520958900e-01,-2.449089204585093715e-01,-6.740122692443599739e-01
2.337438366086959374e-01,-8.260519807224911970e-01,-5.044592107655483382e-01
-9.449895477203844596e-01,2.977640926887248352e-01,1.219831261029337421e-01
9.480024157296624843e-01,2.224140938926251476e-01,-2.283294174059605774e-01
-2.075555885830479841e-01,-9.315789391827096200e-01,-2.844000085854539450e-01
3.280532129881036374e-01,9.278623736908846453e-01,7.190385751946984372e-02
1.727871531682178552e-01,6.396607123727213740e-01,7.573428152267643876e-01
-1.602830507376987457e-01,8.071261314656869024e-02,-9.731363890116617732e-01
3.180509667476643654e-01,-2.767809296634545779e-01,-9.080064056069714340e-01
-7.183888660284942773e-01,-6.385969322335526277e-01,-2.495513489910146376e-01
-9.181639622804788070e-01,3.567885788989012541e-01,-2.388798690487720644e-01
4.999900970161264557e-01,-2.780942357398517029e-01,8.311404935624171486e-01
5.674650477410079219e-01,5.880110710719500533e-01,-5.883973613365083288e-01
-7.396587795064063497e-01,-6.458176164780083939e-01,1.909157486835880713e-01
-3.888427780757112151e-01,6.433563394571882865e-01,6.325303335064622612e-01
-6.058850488206481977e-01,-4.203187750662755739e-01,6.820209596135271557e-01
-9.287320416938437129e-01,7.594668464838713606e-02,3.506939759540805834e-01
-8.849904337116831776e-01,-3.511667248474698022e-01,-3.079480288760730877e-01
-9.088287715834663105e-01,-3.670978124027142742e-01,-2.162343019247011666e-01
-2.902785805573199762e-01,-8.678317772455278467e-01,-3.653775575828931421e-01
-8.206911728556737229e-02,-9.405906005180159069e-01,-2.877896121471604229e-01
-6.056916854890035395e-01,6.896005830666954717e-01,-3.967157731818289346e-01
-4.973684360785917691e-01,7.811123032679742062e-01,-3.902731918151664536e-01
-3.249234951133516680e-01,5.488673111380257819e-01,-7.364952762283237808e-01
7.833048023086934819e-01,-4.435482012928508300e-01,4.203615824656097844e-01
8.360501930627146638e-01,4.580321218738880318e-01,2.906283770299155633e-01
6.032551988807578480e-01,-7.057831220261026606e-02,-8.009076814875134565e-01
5.424365456202927538e-01,-7.186640376914543715e-01,4.396074264730039927e-01
-5.148020480315674829e-01,-2.353581340997881743e-02,-8.640005147063679614e-01
8.118276061420667267e-01,-1.908630282318412100e-02,5.890385880970823163e-01
3.865797549628653962e-01,2.506143553585343242e-01,-8.850515179235178831e-01
8.142274571181946641e-01,2.940582874625008794e-02,5.688716898039396508e-01
4.960384640551800395e-01,-8.024951387791950941e-01,-3.038623024073414114e-01
-5.563907378631078871e-01,7.792200442353961476e-01,3.311764189381435353e-01
7.636664405189945715e-01,6.114375296602281296e-01,1.161083813545003007e-01
1.872389061737015636e-01,3.591607713913728683e-01,-8.994824856853088635e-01
-9.509144739181965567e-02,-9.412534423329744770e-01,2.898661368351303502e-01
-8.055606375440915734e-01,6.740131437827678873e-02,-5.764010662134071428e-01
1.397147139435449825e-01,-4.720855736543291270e-01,8.732911302760599792e-01
2.090466258961960755e-01,-9.842957975663194636e-01,-9.350791464886962223e-02
-7.762366037451550183e-01,6.234513698542761828e-01,-1.444052064264850499e-01
8.860338098862543532e-01,-3.879256281895939185e-01,2.288392182721696588e-01
-1.983898002984447184e-01,-9.233851301957772817e-01,-3.727514347474891743e-01
9.486997754227785018e-01,-2.172138884294723682e-01,-1.620485799447302921e-01
8.370510778272297614e-01,2.346745901949203461e-01,5.030702727987831357e-01
4.367091235019862072e-01,-7.755490534144972303e-02,-9.011827435559199850e-01
4.547647487924987345e-04,3.597213517327761956e-01,-9.313178861203121883e-01
-7.147734208698020009e-01,5.969982911019888761e-01,3.740417233407453135e-01
6.809645330670913155e-02,-2.694727325472865975e-01,9.671869662067480444e-01
8.260842152609472189e-01,2.734210463533743307e-01,4.985150062584633446e-01
-2.452747387133752399e-01,8.278262560859160901e-01,-4.818222350021246214e-01
9.937618703996885516e-01,2.478651939044469732e-02,-3.003580365094863161e-02
-7.619681867026698585e-01,3.593768504775177175e-02,-6.536319699664413507e-01
4.145681120459303037e-01,-9.250949294640840037e-01,-4.624030373179088826e-02
6.884606462301648966e-01,1.210431869743489909e-02,7.010355926397405790e-01
6.798322214364452831e-01,-7.182292198072648404e-01,1.510189256352052201e-01
-7.485967166873042089e-01,6.557046137205523317e-01,-1.337536974010950785e-01
5.808347024407114478e-01,6.574945297053897963e-01,-4.850871141475500137e-01
-5.639462907855095075e-01,4.194282951785193725e-01,-7.037426684085472672e-01
-9.889496164542775913e-01,5.829281954253810738e-02,-8.937843359830269230e-02
-3.763241748237824980e-01,2.378780759039962334e-01,8.833995764214918056e-01
-7.201078363699700002e-01,-6.975171097296072320e-01,-9.062164583004284069e-02
4.074059880018849333e-01,4.557982941520942188e-01,-7.938428650302608025e-01
4.892256981574384933e-01,-8.710484272486637147e-01,-1.306543568078599726e-01
6.010475482363877298e-01,7.867369840694301564e-01,1.731759948101629519e-04
1.345295059162977258e-01,1.686544590846314196e-01,-9.729089497924136021e-01
5.524265717640995943e-01,-3.300734970859666162e-01,-7.868059323320205634e-01
2.482256784731394494e-01,8.921593109281423795e-01,-3.831256575419634824e-01
-4.296515786775356727e-01,3.429288643345421855e-02,-9.247098845905461495e-01
-6.589278326457446155e-01,-7.084441513444938998e-01,2.004329207711754157e-01
-6.194835343054695409e-01,7.782225191022931199e-01,1.510654362204931767e-01
-5.077210026867773340e-01,-9.299905071502520548e-02,-8.745586653116320663e-01
-1.209026813174411963e-01,8.249996618627424283e-01,5.786021781726160551e-01
1.950103523964575869e-01,-8.743618466555295177e-01,-4.276174691089638102e-01
7.832562766117466824e-01,-1.406589199813897302e-02,6.197629772910424606e-01
-5.595852406715097205e-01,8.415571346168689848e-01,1.008783341172784370e-01
-6.261083357266431504e-01,6.578432195894174939e-01,-4.190278456846810440e-01
-2.829481143574708035e-01,-9.688844218676266884e-01,-2.396057147964466422e-02
-4.660631511076133160e-01,-6.836749467578721040e-01,5.801652527840873708e-01
8.133937626325056236e-01,3.280011069647366106e-01,-4.848347082742575642e-01
-1.368701588969002958e-01,-3.252599379482736253e-01,9.469405158540554757e-01
-1.258417192874988488e-01,-9.280464405382268245e-01,-3.640110194023801760e-01
-6.983689092298159817e-01,-6.485152115722369048e-01,-3.322852527973249592e-01
8.176422421159514897e-01,2.961800702364177917e-01,-4.815800941291377701e-01
-5.306074817148930256e-01,-5.565008717917442338e-01,6.524310006177703736e-01
-8.840845763202326291e-01,-3.301690197769340251e-01,2.866779493446112159e-01
6.045214184063933960e-01,6.733168581206168124e-01,-4.191794125608201971e-01
5.168233467454507180e-01,-3.076760581266986261e-01,-7.904511143455114075e-01
-6.127674516850073472e-01,7.894100811148206942e-01,-1.341706746621779411e-01
9.527155811537396657e-01,-4.586471400548318422e-02,3.230556756665672324e-01
-9.918849820412307672e-01,-1.051234491236501534e-01,1.235641991600022194e-01
-7.235911084490763701e-01,6.678287424297113528e-01,-2.064382975415420263e-01
9.213443046421880833e-01,-3.581352193774713366e-01,-1.285338106270638141e-03
3.713011503641903271e-02,-9.679334445545769716e-01,-1.936986983811185559e-01
-8.434495280663800720e-01,1.536521990224802570e-01,-5.156241570658699480e-01
6.941991640983907752e-01,-3.588769532055582911e-01,-6.121759830483187725e-01
4.678237793101882591e-01,-5.167671211972593159e-01,7.040367011656065710e-01
-3.056556875885166336e-01,-9.363995052966539445e-01,-1.832100256105297365e-01
-7.597933557475551325e-01,-5.974614699813965979e-01,2.744877037345006543e-01
-2.585866924398813604e-01,-8.926865080712967915e-01,3.767445338232006669e-01
-5.819921913967697202e-01,6.245120313670265988e-01,5.041179539422642186e-01
7.963108619545159472e-01,-3.089704564609548898e-01,5.121501900185001510e-01
7.571218939727681896e-01,-2.193851782797336392e-01,-5.886902416628848611e-01
-4.693060719288498772e-01,5.020268276806886254e-01,-7.350311753664555692e-01
9.154984111499745447e-01,6.367104800402899334e-02,-3.991994131852693029e-01
7.071668458595005147e-01,-2.159117700915177407e-01,-7.009648661593858021e-01
4.726841029977198461e-01,3.729237354378555080e-01,-7.849492815582307381e-01
6.462539189010131357e-01,-4.875373459989208735e-02,-7.650000948837277770e-01
-2.598612605573934475e-01,5.604584351678661980e-01,-7.877992070192321172e-01
3.616242743773648849e-01,8.269454325492497926e-01,-4.166030670882774345e-01
2.980241915217515247e-01,9.547776490593780085e-01,4.093756049532155938e-02
6.870436461932466488e-01,2.098467766970689707e-01,7.108940840048439957e-01
-8.865150281523604958e-01,-3.248500499996946345e-01,-3.261316616376904176e-01
-2.392665424840846322e-01,-1.487090340002397704e-01,9.820985490924037942e-01
-4.981110058604380497e-01,-3.783557506147802729e-01,7.695285058883842844e-01
3.196721567498468364e-01,-9.164193190588358906e-01,-1.627288091666703462e-01
-8.059956264188268271e-01,4.293179084768571352e-01,-3.500556244518754356e-01
9.339427655966285879e-01,1.232777222493410679e-01,-3.723111231375401120e-01
5.467259566654579794e-01,8.411876032130997105e-01,-7.410574567808000945e-02
9.179274346023426345e-03,8.215222592094567622e-01,5.673217913927685041e-01
-8.264209977265205564e-01,-5.723632200160961858e-01,-1.708429462175364011e-01
8.523701423814432632e-01,-1.833194036146782412e-03,-4.877744636041685955e-01
2.159977190019408966e-01,2.336893263491999495e-01,9.386141081112249207e-01
-2.852859264295824482e-01,-7.373324578068580770e-01,5.981284767699825977e-01
-9.958936220806372530e-01,3.785607354877300584e-03,-8.419016110277197096e-02
-7.505344457026590366e-01,5.665320089964726025e-01,3.743326657793227819e-01
7.398813846446603559e-01,-3.600903095355217354e-01,5.702216916780835643e-01
1.932781834545068134e-01,-7.509026445639380709e-01,6.326376110912943496e-01
5.275639233900722980e-01,2.684443528524581568e-01,-8.057702656131348062e-01
8.284559912221075573e-01,5.878601099672137176e-01,-1.508149548970749362e-02
-3.245222184092355633e-01,-2.178452941742766991e-01,9.251385347218160637e-01
9.030469474080324854e-01,6.817136758841413346e-02,-4.173573702000539787e-01
-7.600333987874975383e-01,4.957787668137779158e-01,3.829459589154545762e-01
-1.698711234792294467e-01,4.961967806399552039e-01,-8.502623192745395464e-01
-1.861396809819685638e-01,9.775929598541843735e-01,1.232825813877787419e-01
-4.046459174390831803e-01,-5.427072830476742382e-01,-7.195667174758941798e-01
-6.778064132921030049e-01,6.357731343421967329e-01,4.121521300228940810e-01
-7.542451187346308483e-01,-3.322076131836549373e-01,-5.663567200065832141e-01
-6.549868476510960491e-01,-6.007020997661842721e-01,-4.722078764934455331e-01
-4.886063423336823308e-01,7.544860877942838329e-01,4.171150166219243505e-01
8.105110594459804529e-01,1.365364101330565627e-01,5.252813014519212009e-01
-6.206204706187654629e-01,2.821457479943524360e-01,7.320250230057137042e-01
-4.029835430614702591e-02,9.300729750691210107e-01,-3.396708751314674868e-01
-3.652017429487731115e-01,-8.075536684220969708e-01,4.527191773097479222e-01
-9.035806609204548590e-01,-3.936243006009192968e-01,1.677172133959209110e-01
-3.201841019504751418e-01,9.027167784935273831e-01,-3.284578996815842866e-01
4.069721824950039424e-01,8.407845267312938908e-01,-3.237313997504825402e-01
-7.403147573921561309e-01,-6.571420711651267954e-01,-1.524503784733484690e-01
-9.184827308461709361e-01,3.486547923943684735e-01,1.264180345633010294e-01
-3.090570931355972051e-01,-4.855018689421319311e-01,8.331879488936491107e-01
-3.568244097475683496e-01,3.132891517371852452e-01,-8.657757249081724504e-01
6.232129006738275079e-01,-7.164741794931639429e-01,-3.451581383771703537e-01
3.792339801366773067e-01,-4.312425688654846767e-01,-8.265294651755322741e-01
-4.003474059172954513e-01,-9.056325172294356074e-01,5.374657915947712167e-02
-7.209494805957923358e-01,-6.760264716780302052e-01,-8.796199044635535924e-02
5.370875608430336623e-02,4.170792963911970075e-01,-9.128910999575005070e-01
-7.489215180336179500e-01,-8.699541806111651954e-02,6.664424444857443008e-01
8.053747687114716225e-01,-5.113745210125933971e-01,3.481209991671819770e-01
-4.373261717131828319e-01,-2.787319028463140502e-01,-8.465591671982757305e-01
-2.943963608310252167e-01,9.367127975101191550e-01,2.793479637437003560e-01
-8.068273672859536949e-02,1.219348870280390421e-02,-9.827081368228210989e-01
6.055339410028337532e-01,9.523595161764397687e-02,-7.778103495240727971e-01
9.200477712822824339e-01,3.454156767592856947e-01,-2.424753474595301994e-01
1.734052360698347950e-01,-8.366833260116779414e-01,5.487007737120997986e-01
-5.904562677017911182e-02,-8.375485958841405454e-01,-5.125381329643858841e-01
1.462876197435255534e-03,3.636386319983996307e-01,-9.333342649298453919e-01
-6.919623912280875588e-01,7.478731362873650701e-01,-4.265069494118147592e-02
-8.183076029494679160e-01,-4.519262018330821862e-01,-3.658712872915146352e-01
-9.367698274360118926e-01,3.524638422866209209e-01,-7.389497799797260791e-02
-7.786693474946622118e-01,-5.344998632442399256e-01,-3.479549637290301201e-01
-7.497964544999189407e-01,2.719497325446148528e-01,-6.043035273163979149e-01
-4.054509461529922504e-02,-9.324014342425147595e-01,-3.338375770288475874e-01
-4.414498466841728086e-01,-8.564644368721552325e-01,2.896728337605645742e-01
-4.785849303680884126e-01,3.101379712639962816e-01,8.335405258698618258e-01
-6.098418763015857058e-01,-7.330887467345921227e-01,-2.861044490382312344e-01
9.009220548348367830e-01,-4.182365264076123301e-01,1.425762277971967806e-01
-2.490683049140490490e-01,-7.587817425905823976e-01,-6.012606819820770498e-01
-9.913267365591347247e-01,1.215498146776036181e-01,4.697195713562763580e-02
4.871474092894071961e-01,2.424682084961344852e-01,-8.424514441583162982e-01
-1.160552143298264199e-01,5.618898948321098263e-01,-8.123208483807450309e-01
-6.471010716418515996e-01,6.118282965863766076e-01,4.564339791831926729e-01
-6.071908465352191531e-01,6.195750416202866484e-01,-4.840841817334376462e-01
3.754278209437615921e-01,9.212342132033198849e-01,-1.107160937199444806e-01
3.047678769830765022e-01,-2.475089059557204763e-01,9.160034962937159131e-01
-7.733139976610879929e-01,3.997030445827857159e-01,-4.812617849729012853e-01
-6.331511038556840720e-01,-7.078921838734321126e-01,3.397233967288209588e-01
5.169525797501355324e-01,9.446054475297314956e-02,-8.365571102577447071e-01
1.681302186511511310e-01,9.568252097631642084e-01,-2.593684330058245724e-01
3.977181195838360578e-02,9.765376991089107506e-01,-2.041652652315638639e-01
-9.490966811667576053e-01,-3.129549457665959933e-01,8.357252611002750908e-02
-6.743655624521454062e-01,4.111822506641415464e-01,5.853988577751797484e-01
5.849800231507304993e-01,6.318842180052662849e-01,-4.925486634433182687e-01
1.355720819119201337e-01,6.879478502659310511e-03,-9.900035978544464710e-01
9.529970401962748472e-01,-2.167969163477264857e-02,2.725493931557651517e-01
-7.387632743646533884e-01,-7.075646905562078988e-03,-6.579252031661972921e-01
-2.000962527777511435e-01,-9.312594128222544398e-01,2.980909981880105475e-01
1.778588363403472636e-02,-9.460900132133288620e-01,-2.604988427243333238e-01
4.200567910894704715e-01,8.881494539861738424e-01,5.514854519116026144e-02
5.360777176823461332e-01,-4.665818253234486623e-01,-7.126785231135023269e-01
-9.362821785525321516e-01,-1.133793594504535068e-01,3.151393720430590850e-01
-1.402379482193825688e-01,-9.322378684522691916e-01,2.618450702435462518e-01
1.194806270544194887e-01,-8.505033124832848124e-01,5.125520672730474736e-01
-2.718071436178862155e-01,4.881091526323992902e-01,8.106799988428101678e-01
-6.275795818821164884e-01,-6.532159306192287795e-01,4.262073719693772467e-01
8.134421832187387347e-01,1.873731745263325088e-01,-5.500417279397842307e-01
-5.791509790900168930e-01,6.336223527751790874e-01,4.903926292629831596e-01
-7.326094933791152952e-01,5.271051848136614204e-01,4.260923083664873157e-01
-3.500560197711526794e-02,2.254615593643644889e-01,-9.715670571974934777e-01
-3.906265526944701083e-01,6.037477070740665530e-01,-6.795261028917179980e-01
3.488197484070614252e-01,3.231046437428327506e-02,9.362063288815506423e-01
-5.072875842708334249e-01,-7.796119909120705627e-01,-3.770924360895775429e-01
2.986772393033391149e-01,-5.134691404402337289e-01,7.995525133488023961e-01
6.096350464265739566e-01,2.372126127537175777e-01,-7.517756539537571170e-01
9.844487678018012389e-01,5.598097134294769545e-02,-1.811232877603366487e-01
1.006791533891863849e-01,3.649841370029054399e-01,-9.318672973855690600e-01
-6.282325857982457018e-01,-3.017149994495533782e-01,-6.975678309805198873e-01
-8.280366196647940269e-01,-5.119358674522223041e-01,2.571104788924500339e-01
-3.105106722059485791e-01,9.051284704634071643e-01,-2.485064554791133751e-01
2.389040956444633823e-01,-9.470780689355747795e-01,2.722023641147108264e-01
-9.773584828443016015e-01,2.115761259960270424e-01,-8.457478292214003213e-02
4.111618227201805503e-02,-3.201647255570042594e-01,-9.366446382263765580e-01
3.931154796726369915e-01,8.017023279072647002e-01,-4.360906659235139204e-01
4.029920091339521671e-01,2.747563877611339245e-01,8.780720922899035719e-01
-1.349179875935074269e-01,-4.411048604597973544e-01,-8.718516582190779518e-01
4.178320603554482315e-01,-6.881901370112374350e-01,6.017027512122089528e-01
-3.833385038990415050e-01,6.047586039014823944e-01,-6.717981055667258117e-01
-9.526628930804269535e-01,1.494630395263140121e-01,2.514277932898226764e-01
4.329301173929905877e-02,8.734323071388606641e-01,4.801679404713034005e-01
3.369270118858063712e-01,-8.466684602256800973e-01,3.859224897201753990e-01
5.794475397271694472e-01,2.295953908094837750e-02,-7.984702147494963098e-01
-4.964332639872439112e-01,-7.608941995675618797e-01,4.243400247450161422e-01
-8.602119154658534050e-01,-1.605572217563027981e-01,4.987385827625906431e-01
2.431738932537022002e-01,-3.052394716987572032e-01,8.961177493167223895e-01
-1.099103399124574804e-01,4.532023885926560469e-01,-8.931195616367293422e-01
-7.115200038079860789e-01,6.007173565477744726e-01,-3.519569247058130790e-01
-1.101131390874392907e-01,3.468546416458282988e-01,9.295393405510076201e-01
-1.340656780159842631e-01,-9.911749076177619466e-01,4.079162906737457406e-02
-2.342180923763458045e-01,-9.461166364107393978e-01,1.812593026195514212e-01
-6.343153244586807737e-01,4.419437340161445071e-01,6.186693845985330453e-01
3.603273802034737128e-02,-4.728279060764560282e-01,-8.644017109905282048e-01
8.842718501457403901e-01,-4.609075132349866877e-01,9.194606184928550904e-03
-7.351649734633278199e-02,3.281648790833790463e-01,-9.362500274251892574e-01
4.756119022977534083e-01,6.326319720267568059e-01,5.971662007062790156e-01
3.762966068065903835e-01,3.978174209684887802e-02,9.275943675294723301e-01
6.459917643135780763e-01,-7.778033510182659205e-01,3.533926423246457060e-02
-6.737905036832615435e-01,-7.273340356961807140e-01,2.275597578045829572e-01
-3.363463594855919947e-02,8.732966865990469119e-01,-4.498394944758720704e-01
6.059453868384967468e-01,-3.391008387916598088e-01,7.167885696350927427e-01
-9.011438418180444110e-01,-4.242102138270418266e-01,-1.420089699906925684e-01
8.028944561246204037e-01,6.097052361154010613e-01,-3.643784253592443484e-02
3.952104607580105844e-01,-8.606553806714581922e-01,3.407496460161662521e-01
-2.414157543567523323e-01,-8.995065027374352651e-01,3.710071486960535014e-01
5.329868753269851878e-01,-8.453051805607676439e-01,1.160227667610128355e-01
-7.153273373970875371e-01,1.922831115075456232e-01,6.674791886608921754e-01
1.971167047357329782e-01,6.606776154464600870e-01,7.507128008100889538e-01
4.770696659322035127e-01,-7.764853004403265979e-01,4.191686321895000122e-01
-8.017125793423499625e-01,5.239205717958489439e-01,-2.824833146283826091e-01
5.684571779557715532e-01,-4.648061678689944798e-01,6.706991636370284171e-01
-6.025061483185837341e-01,6.595793275739469941e-01,-4.186249023149884452e-01
5.750619990231717882e-01,2.741062487796425140e-01,7.714831544452122047e-01
6.068706793045436365e-01,7.957702144182741133e-01,1.277075665722719189e-01
-9.966587307043082156e-01,-1.185683672215652185e-01,1.251003010988248620e-01
7.356216517256491949e-01,-1.273046058801916569e-01,6.781292274014332211e-01
7.399230182595647465e-01,3.849253634448560613e-01,5.651337890312496670e-01
-4.877532273489526005e-01,-2.171155759387245476e-01,-8.496579471996137389e-01
5.130171220920860531e-01,3.522968793533435838e-01,-7.905441499499432645e-01
5.133590148190111391e-01,-1.761135106622966906e-01,-8.521855447879782552e-01
-7.540325831837388915e-01,-5.458241883055995336e-01,3.885504734056688947e-01
7.142006936765717962e-01,-6.518614711849191057e-01,-2.229430146728248185e-01
9.785934822359708685e-01,7.285781705016861065e-02,1.717301639211928632e-01
6.205240732757749678e-02,-3.813618814915229471e-01,-9.367606940091989243e-01
1.779267530465179215e-01,-7.681773318387943306e-01,6.266662598080980917e-01
-8.920011037557649958e-02,-8.138309579781096703e-01,-5.967274936130716467e-01
3.048644709965012481e-02,-4.608344024249881321e-01,-8.884425327711850118e-01
-7.446391153200931923e-01,-3.148963853481681618e-01,5.670166871996152880e-01
-6.384269803326236836e-01,-7.519968298510308902e-01,4.583406357278402982e-03
8.376394032871179451e-01,1.343881601347248211e-01,5.301936072524895405e-01
6.316506094888841849e-01,2.440985446252159907e-01,7.423394317082149252e-01
-8.562283261374145082e-01,-3.412800711824492961e-01,3.517932490860511408e-01
-1.528763705364760868e-02,8.112273053804628375e-01,-6.054274908882176787e-01
1.909860670256555149e-01,-9.619307279233840768e-01,-2.090993161011206192e-01
8.166142342784524777e-01,-4.497130792814828526e-01,-3.774709487120638252e-01
4.467923729892250839e-01,6.809383566366621343e-01,-5.782256082511998407e-01
7.130923734693922489e-02,9.927509426109606405e-01,-2.577737732487254269e-02
2.040709669373201585e-01,-6.897655986889610069e-02,-9.702989746738385213e-01
2.393636966171316105e-01,-5.091500347547717187e-01,8.200411827638327544e-01
8.267425958739471614e-01,1.526802647434481741e-01,-5.276689069408185828e-01
-5.320159889969979794e-01,8.312832145871418277e-01,-4.253256370861367708e-02
