1.510134839849551491e-01,1.300888971242148036e-02,-9.863730261869477767e-01
7.174272229532072109e-02,2.574111410929756372e-01,-9.721303105845899850e-01
5.287165970388406633e-01,-7.799170360312028816e-01,-3.828554240850393642e-01
-5.407929912440694320e-01,8.463068760977082716e-01,-6.505859290799598238e-02
-5.580497784119987648e-01,-7.780473719815969025e-01,2.843777221261024057e-01
1.452145049901013840e-01,9.870500172328697808e-01,2.009677789607907106e-01
-1.546200231046691020e-01,-1.002347343748225983e+00,1.689399360588071403e-03
6.294751402428524489e-01,6.557239424980723097e-01,-4.287595155348114528e-01
-3.337516439490911813e-01,6.595635341809521490e-01,-6.750402997058403409e-01
9.359072320429918657e-01,-2.153414417698180927e-01,-2.670268178384955227e-01
6.457301099650748499e-01,-5.337502228162778195e-01,-5.808756764204252576e-01
-4.123715988133199728e-01,-1.108377630245918344e-01,-8.949073939605346473e-01
5.691685469523272839e-02,6.800353714612634992e-02,1.003321889590646165e+00
-4.112120750598873831e-01,4.506962231845942912e-01,-7.949360162596521562e-01
9.087053244073908242e-01,3.130771213471870151e-01,-2.643071712603777823e-01
-1.546990563351135495e-01,-9.633746250120354127e-01,2.399376079115958238e-01
-3.695328316868145557e-01,-1.665244252563063687e-01,9.272197198338610891e-01
9.530753161806250207e-01,-2.112148679270675622e-01,2.655608146194493036e-01
-7.972762749686092276e-02,6.547127744961468432e-01,-7.413670847675589703e-01
-4.332397513554273050e-01,-8.750888867319357445e-01,-1.945418453710452134e-01
8.754616067433011739e-02,5.195062915241382973e-01,-8.431534518890143604e-01
-2.991474666777956259e-01,5.400146190270737057e-01,8.065609584410496913e-01
-5.176047947285272732e-01,8.588145423876786255e-01,1.217770927015534299e-01
8.589393532646388829e-02,9.154223695904166458e-02,9.798281055647584115e-01
-6.220580972906946116e-01,-2.971420650196969215e-01,7.318477725999501526e-01
-2.347349186287714939e-01,-9.049381099880954293e-01,-3.482066137464414068e-01
-7.331221340579424650e-01,2.863460418724819156e-01,-6.103136623657769988e-01
-4.776072765722766955e-01,-4.438833527466897744e-01,-7.602616280349216993e-01
8.678571377472310555e-01,-1.023790806725656671e-01,-4.675131135257972192e-01
-9.324304147684437938e-01,-3.911974548960720499e-01,-7.214007119317290828e-02
8.539178081214470195e-01,3.794645295515247096e-01,3.293603277505587346e-01
5.186478816422710469e-01,8.376074023837351001e-01,2.723861342831684906e-02
-6.847972812330181958e-01,7.455910061901168673e-01,1.399256878419087025e-01
-4.883387294197022443e-01,-6.971865689612253281e-01,-5.173333235749936199e-01
6.409181354069052317e-01,4.825092009703553786e-01,6.139861664057324475e-01
-1.481392184402066103e-01,3.459585891872019037e-01,9.135385139464434756e-01
5.851288460369088451e-01,-5.909329325155142643e-01,-5.340773400389086101e-01
5.339274837788284822e-01,7.824508520727875283e-01,-3.354961786221635212e-01
-4.042602528328577693e-01,3.191905948386537101e-02,-9.185959125446090390e-01
-3.090737576975778889e-01,-5.756873752824380741e-01,7.401038395671699632e-01
8.610389367483589629e-01,-5.193410190222315093e-01,1.529577946349313100e-01
-6.856418210110573064e-01,-2.687939507503530612e-01,6.692714288945039725e-01
5.066298923870913296e-01,-6.288155594541269267e-01,-5.430171319211180014e-01
6.265957255504282786e-02,-7.586165427125590721e-01,-6.413725024999746838e-01
-5.476743059307562778e-01,3.640912469804523655e-01,7.550640576917480029e-01
-1.262672435186723285e-01,7.976468273788132057e-01,-6.205994067498828981e-01
2.230543495282283628e-01,-8.427181884367594966e-01,4.759979510596034635e-01
9.860714799161333921e-02,-9.771641948102809394e-01,-2.830227915302930275e-01
8.937773423313828403e-01,3.020384334411301275e-01,3.071536127455908871e-01
-9.057258642843996066e-01,6.333064389679479711e-02,-4.482013086144143177e-01
-5.064641084172940566e-01,-3.575534115695857551e-01,-7.922089392839182231e-01
-9.169502460505259966e-01,-3.462971347712685555e-01,-1.236417454242654812e-01
-3.427141924695624176e-01,7.652609138581493164e-01,-5.729947500767659241e-01
4.097450013892414006e-02,7.899321435442161476e-01,-5.611440780618986990e-01
8.269950709066191674e-01,-5.290292805929446285e-01,-2.600303387726384252e-01
3.066758907043639071e-01,8.199784363933899645e-01,-4.507554317367472585e-01
-5.725459287273073627e-01,-4.641384443739355881e-01,6.811323540056393178e-01
-6.386053778704331441e-02,6.101930013506206008e-01,-7.712951328688788522e-01
2.223422322101959170e-01,-9.610430646101397745e-01,1.420429617660675381e-01
1.633340834369617078e-01,1.009252267292161331e+00,-2.491729044531935250e-02
8.790786025511714286e-01,1.059745654786476005e-01,4.871237420733844359e-01
-9.032165296529904852e-01,-4.266272945102741465e-01,2.666365546885073393e-02
5.395645580800842445e-02,9.926250104456557644e-02,9.984523079816081115e-01
8.723890539416170320e-01,-1.307787583325441261e-01,-4.614267595560790913e-01
4.510846356517658196e-01,-9.084552789517227334e-01,-9.405657181342919060e-02
4.947590722162818477e-01,-6.717571278171464710e-01,-5.513171288430726014e-01
-9.403147402093167129e-01,2.000043105014658318e-01,-2.453455987233578439e-01
-1.837224115849369621e-01,-7.476377633640141074e-01,6.403988107584733802e-01
-1.958819702606592050e-01,-9.387168351966697077e-01,-2.480217511090529459e-01
-4.639354030231205850e-01,8.558499585189227599e-01,6.628617057872164542e-02
7.337007290190968867e-01,-3.279219426392289694e-01,5.946951582854507201e-01
-9.517286948902874411e-01,-5.337503564931109917e-02,-2.745456904514100849e-01
3.636809988012678074e-01,-8.775472405155169131e-01,-2.979936825818080837e-01
-3.467133296597835201e-01,-8.717729527235034137e-01,-3.450350779085754049e-01
-4.460166119516008054e-01,-8.582068915171018331e-01,2.862708587243209535e-01
9.457524156740868548e-01,3.356236969423211786e-02,3.133503624946549215e-01
4.981753849911803485e-03,9.815895952367039712e-01,5.390671840933108222e-02
5.632875955142064850e-01,-7.037549956236881510e-01,4.666033237090785879e-01
4.596711514604768234e-01,3.994744813396782224e-01,8.006932043243045749e-01
-2.686639602823185924e-01,8.104997619952032384e-01,5.046354441902163313e-01
-2.380585915192985069e-01,9.086195877969310830e-02,-9.630408370693747111e-01
-7.793110681104570281e-01,3.408123923041346814e-01,5.318800208206838631e-01
5.034914135552034375e-01,-2.043630602677654062e-01,-8.482998911422527932e-01
7.516955272218326378e-01,5.808547488154069960e-01,-2.805053357820398441e-01
4.129865063393788338e-01,9.181139600615283447e-01,5.925319085861301821e-02
-2.883047284187477688e-01,9.816856882697730935e-01,-4.695164369930257368e-03
-7.655688060792626981e-01,-4.177947761638838714e-02,-6.446755862843803753e-01
6.520500772468532658e-01,-1.675276450678399864e-01,7.459907490252069007e-01
9.073998125607092291e-01,-4.173921266279671527e-01,1.332132471558787265e-02
-2.047255753870496076e-01,-9.335028183468816465e-01,2.618713611502369032e-01
5.541334673220061902e-01,7.988937228596501017e-01,1.678529396015616681e-01
7.366692989709014983e-01,-4.506878264519131316e-01,-5.127626835113689996e-01
-5.313316019052294337e-01,-7.531524003389004074e-01,-3.999608062567198141e-01
-1.432133621855920247e-01,-2.105879008971706379e-01,9.731287246158050186e-01
2.981313029732445274e-01,-8.159961175815099166e-01,-4.838892658922575585e-01
-5.223310751823715403e-01,-5.630547817954889567e-01,-6.453281089104976331e-01
-2.993066684767032443e-02,-9.086621814402218167e-01,-4.142570073492711225e-01
-3.020799621991513209e-02,-6.902704455971719888e-01,-7.283786127931255461e-01
-1.175367811770797188e-02,-3.186493906595208592e-01,-9.469004789952926160e-01
-4.612641834530735729e-01,3.465928088657432293e-01,8.099058633118542128e-01
-4.277564066391842945e-01,2.819528345418401138e-01,8.623808211159134096e-01
-8.383864750735964266e-01,3.723626062172911144e-01,3.890167436243573418e-01
1.510125585505635859e-01,-6.260122231284604988e-01,-7.420885424703809186e-01
1.576941753230583221e-01,2.598206989444746817e-01,9.414238911790980824e-01
1.626148003304903611e-01,-9.868870954629412884e-01,1.373437249414500572e-01
9.062541752704939002e-01,-4.085311261942829453e-01,2.244358778499753668e-02
-6.833411687958772518e-01,1.573916978897609842e-01,6.937759696968467393e-01
8.793437355796762667e-01,-4.710239344205275347e-01,-3.323988418540282930e-02
-6.336768021289154174e-01,-6.178800632831382700e-02,-7.619019058794163080e-01
5.225412691942927790e-01,-2.305650640024008713e-01,-8.149180594097320540e-01
7.301520722899247362e-01,5.200233335917808786e-01,4.237523067203449179e-01
-1.103928851039734649e-01,-9.676580848392248857e-01,-2.399785975850272091e-01
-3.742076430310374846e-01,-9.174651739876495959e-01,-9.828306048967530573e-02
9.079977221125082876e-01,-3.399789984462676246e-02,-4.289975337178122961e-01
-8.514448855545200257e-01,1.113384094702774170e-02,5.436375784440404813e-01
-8.636964658759451741e-01,1.176191978455427001e-01,-4.621037543076921272e-01
-3.283142078189151269e-01,8.705430384954230272e-01,-3.175525881966738684e-01
4.041466753874794343e-02,4.320206612035547011e-01,-8.960590807204119601e-01
-2.147300141620070435e-01,6.451950079298067742e-01,-7.310134904337913797e-01
-9.449094945745342145e-01,-3.076006487536902534e-01,1.266912062203614242e-01
7.892525449693739148e-01,2.651288732333811557e-02,6.030893358161638629e-01
-2.933987320453226508e-02,-9.528881934949007260e-01,2.986269628370333273e-01
6.815028513976654212e-01,-7.265133524777119822e-01,-1.807844449661691888e-01
-2.359751891396867363e-01,-5.884150967124530673e-01,-8.062354140441474470e-01
-4.995122271370664446e-01,-7.721157165271409772e-02,-8.467566108397749369e-01
-2.517688120890845260e-01,9.114212833480215270e-01,-3.391381177662218804e-01
-1.697428878124998264e-01,6.957443441719333155e-01,6.968798252025256712e-01
7.207442430414388035e-01,6.944381273746330629e-01,-1.497251331916364669e-01
-1.540216088316673504e-01,-2.115998488044449899e-01,-9.581247627380553578e-01
-1.284382432955478714e-01,-6.238599683520169581e-01,7.715413732671935199e-01
3.080631246939353196e-01,-5.504600439965776637e-01,7.724038792243620444e-01
-5.284498253668049594e-01,-8.109381894254280576e-01,2.080117979895166613e-01
-1.388126939786545611e-01,-4.365238569360289644e-01,-8.838921022930544824e-01
-8.590864565679664500e-01,-2.962099255695661015e-01,3.926645636052712440e-01
-7.397621023061784484e-01,5.443884055655644483e-01,-3.809389123491389029e-01
5.432553619950901413e-02,5.473050750147606669e-01,8.307563418398599131e-01
3.627521153613042504e-01,3.338946843402628151e-01,-8.783495144099804364e-01
-3.849594209380172716e-01,-2.749204926818765160e-01,-9.049518605022818241e-01
5.375613564180025533e-02,3.743389321190290220e-01,9.278465590551637776e-01
7.416967474843939589e-01,-6.630888812336235283e-01,7.101520129763594369e-02
2.768390319346404893e-01,6.151957540627427390e-01,7.531262619115821622e-01
-6.345187224529151848e-01,-5.488570802718624186e-01,5.529340139982934499e-01
-3.680170890038200193e-01,8.879204689917947757e-01,-2.622717687760535710e-01
-4.514808328678068250e-01,7.429663711822770411e-01,-4.810666629600418576e-01
9.809743226931134930e-02,9.186436184473766309e-01,-3.838033349574976327e-01
-1.133638073954896935e-01,-3.122701345837470277e-01,9.581653401538626769e-01
-5.065978385075567969e-01,8.427080007746530210e-01,1.628827684726515124e-01
-6.297567412646681850e-01,-1.769772271159729127e-01,7.523326627017210555e-01
-1.687284305020773922e-01,9.692933379655858106e-01,1.944506829142247234e-02
-8.557942155994252564e-01,-4.281159792887298532e-01,2.450103554666281103e-01
6.706036666950830893e-01,-3.756033495690315194e-01,6.522973198131049033e-01
-6.483568462991886605e-01,-2.230593619533724481e-02,7.780431760189188140e-01
8.516873104706536024e-01,5.176296974183451916e-01,1.404305131971926015e-03
5.331469142605537170e-01,-7.361287312929596371e-01,-3.861557670934676612e-01
5.671021570505681980e-02,4.552217036259645355e-03,-9.832775589537365857e-01
-9.789132772237231217e-01,1.822959857209193180e-01,-1.392420337534264474e-01
-7.392149820350586431e-01,-2.396540999243496062e-01,-6.220985296923607910e-01
5.324276931571244598e-01,-2.321856655480000475e-01,-8.134097800004471690e-01
-1.900851685264952906e-01,7.370943197010360048e-02,-9.843576037064752926e-01
6.345445622327885449e-01,3.493579825805781525e-01,-6.671947759319588611e-01
-3.376714291087962727e-01,-8.487722124819284397e-02,-9.395722795372056790e-01
9.682102340500889914e-01,1.456654707456601916e-01,1.312741667783108024e-01
-9.871788835425820974e-01,3.231743229473470203e-03,1.095369153389245953e-01
-3.938149521133042508e-01,-9.201285713321744053e-01,-1.022122954088649227e-01
-3.709977917474966969e-01,-2.970702712072397222e-01,-8.910680734866467390e-01
-8.614508065322921126e-01,-4.188603093746372588e-03,-4.966789559508207885e-01
7.079358457691397044e-01,-3.926493205696822142e-01,-5.756334557828188814e-01
-8.806510029524122762e-01,2.950930392344326414e-01,-3.250780455090069299e-01
5.504621213205012076e-01,-8.121569099247062384e-01,2.178601370399066983e-01
-8.261952408412615023e-01,4.675327960435962105e-01,-2.540264589305201159e-01
-2.338479709268926066e-01,5.407154236406217507e-01,8.018600502544975805e-01
-3.493500039765452536e-01,-4.699523535402066465e-01,8.187652804583445132e-01
9.420265160026216611e-01,2.265821495846486455e-01,-2.160809961132117707e-01
6.768506116029091579e-01,3.412336424401824497e-01,-6.706835092545355703e-01
-2.565940366658338648e-02,3.509251405350366504e-01,9.427702513473333878e-01
3.818982245868635106e-01,1.331317582267834143e-01,9.001987479739105291e-01
2.811754750752850085e-01,-9.231882263754486173e-01,-1.835768358485516949e-01
3.493239214467731002e-01,1.195593981947267875e-01,9.358718312399423311e-01
7.441307773474211684e-01,-2.571615554393061331e-01,-6.273969242090872145e-01
6.794928748235323779e-01,1.411876764324593303e-01,7.311144976002130758e-01
-6.930970864815968469e-01,7.862480151981138254e-02,6.962960250211088775e-01
-8.322391184317107227e-01,-4.923239038845932392e-01,-2.758171030135910806e-01
-3.788022017774574923e-01,-1.673853092620545546e-01,9.151093524668720836e-01
-2.598308318142792880e-02,9.657941639440245085e-01,-2.858358365417562608e-01
3.240797436500369999e-01,-5.601143715591506700e-01,-7.513883195967795414e-01
2.075437576928376437e-01,4.870120924724687939e-01,-8.331166809582942756e-01
5.970450713290857969e-01,-3.692475516197686880e-01,7.132799727332734818e-01
1.218258678789467392e-01,6.787217800824394409e-01,7.165030756027706005e-01
7.202123512932240290e-01,-1.020613659784837812e-01,6.770442549242767782e-01
-7.137110466638671991e-01,2.227504622006219182e-01,-6.571200807084193185e-01
-7.670377672177273176e-01,6.304606877851144375e-01,1.311127460162268832e-01
-4.553181839458678160e-01,-8.976485621885119670e-01,-1.140920484069170709e-01
-4.901321748715992133e-01,-1.506228493572414340e-01,-8.886927429366355824e-01
6.847179847821081855e-02,8.172392228634405287e-01,5.651440678308277121e-01
-6.226482389424908837e-01,-4.639346551347112713e-01,6.156827773385554758e-01
1.213654864439749348e-01,-9.484475963612463145e-01,-2.608535192640204503e-01
1.107649749807807366e-01,9.638854833693064617e-01,1.997687128564035464e-01
7.422854342114159065e-01,-3.843197708149870273e-02,6.548177375564822045e-01
7.666876330143299612e-01,4.157511690804243654e-01,-5.079915707633707589e-01
-7.578353548633892656e-01,6.443373169175796722e-01,8.496014405854711293e-02
7.803325064936985633e-01,5.846084652165209894e-01,2.064097181049580620e-01
-7.579971604786702732e-01,3.687546015359944307e-01,5.361345698826273098e-01
7.003323659438053239e-01,6.486175230731916486e-01,3.449508118818530589e-01
4.919154352537474240e-01,7.889627097120804899e-01,-3.363905252073655650e-01
5.927415329406748867e-01,3.034617392102577638e-01,7.664731877627453116e-01
-9.109180395977370948e-01,1.742702980093869744e-02,3.891340719077759913e-01
3.122801751668748474e-02,-9.575681534922148019e-01,2.759210746855629837e-01
-3.963384707658945683e-01,-9.057164187123772914e-01,-1.977909706136201651e-01
4.773178017956591912e-01,8.575156414646353253e-01,1.894637900684429110e-01
-8.407497204184868345e-01,-9.433312760976989009e-02,5.311414527796077811e-01
-9.515777455862872714e-01,2.895384452988128410e-01,-1.238161097114472003e-01
-4.714081347922447485e-01,4.875912095565466675e-01,-7.269841785053103855e-01
3.206850617368885992e-01,-5.717904070665640048e-02,9.310987770352769921e-01
2.470799221622036190e-01,9.534356327552716559e-01,-1.309558110661286079e-01
-6.860074427403738406e-01,4.612252659664900500e-01,5.693301905221624937e-01
-6.673479875427508201e-01,5.672174544068669944e-01,4.561187265767833177e-01
8.404151188088968549e-01,2.514400684877934333e-01,4.931862210322752738e-01
-1.765444217944704686e-01,1.267928195833913918e-01,-9.684763035327738079e-01
-1.835681081069706067e-01,-1.521863639117202738e-01,-9.684911992533971059e-01
-8.058858353175026856e-01,5.018171607286681102e-01,2.986733600275165990e-01
-9.996317490023366448e-01,9.992882350705883931e-02,3.325618600713744349e-02
1.719848296454181968e-01,-6.377842656761701923e-01,-7.444448375400506412e-01
-1.066777771216904092e-01,-3.972218483982010717e-01,-9.156731555644093135e-01
5.389317595475142664e-01,8.172538031619359655e-01,-2.823298084858692492e-01
-6.826280434597064017e-01,7.254433408061603528e-01,-1.093435013993068611e-01
-8.872240644826774325e-01,-4.090114543178191009e-01,1.862674455288744202e-01
-9.345059313674166646e-01,3.211441442224553522e-01,2.126915559304207448e-01
-4.647927752014833769e-01,-8.306071422347044431e-01,-2.962438194155924132e-01
4.052203230476072449e-01,4.034580197252241596e-01,-8.246171373830522011e-01
-2.789479913333785532e-01,-4.444050466462846072e-01,-8.446692472563505083e-01
-8.600172422543137518e-01,4.126359291745727020e-01,2.735503383800416688e-01
-7.562279329375080072e-01,-2.347194215658064687e-01,5.803559575884533750e-01
1.510337311986976461e-01,-4.747211744762973584e-01,-8.560453121001971866e-01
-5.782217508846174692e-01,-2.942141190674703588e-01,-7.959421475940116064e-01
8.051100329367557595e-01,5.721460909123594618e-01,-1.653550397382634596e-01
-7.328016965117555293e-01,3.786036952677420131e-01,-5.674554370700134465e-01
5.536717282739030965e-01,-5.384160472988451795e-01,6.128308680793779217e-01
-2.689474577197614180e-01,-7.505943511245093402e-01,6.013682106598710053e-01
7.392211347286390399e-01,-6.232234657661291921e-01,-1.759020221393952921e-01
3.270592577485772479e-01,3.232137513789865579e-01,-9.110062077695434413e-01
4.748829433439244463e-01,-6.682180904792258680e-01,-5.960886009350612191e-01
1.868176268529511685e-01,9.672155051140636228e-01,1.383751949358402178e-01
-3.556597380052231028e-01,8.658789805202095069e-01,3.597598543237074398e-01
2.696247035712962536e-01,-3.148941222679635388e-01,9.052091626081916198e-01
-3.034780571068008137e-01,-7.625981515906925523e-01,-5.590983105286119192e-01
-3.780885111089974382e-01,6.456000317561179092e-01,6.503362905449957543e-01
-1.973963815253482745e-01,2.844247174230952746e-01,9.507697579103500107e-01
5.137474232457061030e-01,-2.708549584464883808e-01,8.289620700380626594e-01
9.693955020574598347e-01,1.394798406922843625e-01,2.187189805892417183e-01
-2.178929483468499961e-01,5.689905938206428759e-01,7.925197786527223842e-01
5.927548493857394130e-01,4.647241735799561013e-01,6.406944280482863574e-01
9.434029175296437808e-01,3.401755183691939077e-01,1.062578932890007218e-02
6.203062647920328798e-01,-7.842211733614485869e-01,-9.847607087855027308e-02
-3.730022771084410271e-01,-5.573794607575874860e-01,7.417446096223357932e-01
-7.102648132627517041e-01,7.057021816408368675e-01,4.211927271109600079e-02
3.691823962663040581e-01,6.120758167342003064e-01,7.054613083730041367e-01
-6.984521823559455278e-01,5.992605630176079945e-01,3.630825006687749545e-01
-3.923520784758655067e-01,8.572531988084393095e-01,3.105834050388567302e-01
-6.229539813171428575e-01,-6.175418900871957328e-01,-4.664544421306327515e-01
5.865248081994250962e-01,-8.150921020489722002e-01,-9.922672429238350855e-02
-8.098479400846161358e-01,7.575398408791650384e-02,5.847835277536806986e-01
-9.082595389251395535e-01,3.913826246602657433e-01,2.442562583483539052e-01
7.028676878261105321e-01,7.206911429544895498e-01,-9.716028036241913801e-02
-3.821412334719443415e-01,-8.487900307005535883e-01,-3.911307756132391678e-01
7.310281911418214928e-01,6.782059771569620699e-02,6.945235081157383750e-01
7.371783649303946806e-01,-6.798018161716747887e-01,-1.114219934814269786e-01
-7.155806329003822075e-01,5.395797751649188401e-01,4.129268309398438919e-01
-2.520781175837329968e-01,6.497932581187928491e-01,-7.269282987187616341e-01
-1.369961862907779528e-02,9.825466102334464713e-01,2.280993785780277561e-01
-4.075502360640417265e-01,9.998544449854408767e-02,-9.214664066606508275e-01
6.237687697090907868e-01,-4.846765239846282380e-01,6.112975913813906148e-01
1.403948269926702519e-01,9.740787281967010491e-01,2.007298386642678567e-01
4.800946686840719124e-01,7.567185988246013517e-01,4.159107488056469903e-01
1.810277179420454741e-01,-2.101826722784657930e-01,-9.703743166661005226e-01
5.662179872772785671e-01,5.745229685126780339e-01,-5.569911390499338033e-01
-6.432411056977179742e-01,-3.092772710105450296e-01,6.947034331958452658e-01
8.047775358471068868e-03,4.322608449105048711e-01,-8.909307532400803087e-01
8.630723039868433422e-02,-9.698778550713630375e-01,2.645342734248449790e-01
9.852273068334005401e-01,-1.384449874335202946e-01,1.223655114980016639e-01
5.430256910954823768e-01,-6.901583741355727941e-01,-4.545674469850840560e-01
-1.676147044878041059e-01,9.843727434979158142e-01,1.705646800405012375e-01
-1.265179612492399741e-01,-9.802710835210372287e-02,9.948254310445600046e-01
-9.677919980089624286e-01,-1.547422629354051893e-01,-2.196418545560509250e-01
6.542807306303601855e-01,2.548590291738480063e-01,7.241029937295643260e-01
-3.527657182298020722e-01,-7.024774399619612142e-01,-6.269553572551375131e-01
-2.257452365907902936e-01,-6.815401957433279145e-01,-6.868778253288367885e-01
9.273128735913815923e-02,7.586628794941864262e-01,6.256551792405177226e-01
3.330479893844527362e-01,-6.501037821204603828e-01,6.637306177561533849e-01
-1.774380739001124307e-01,8.234644043167591576e-01,-5.556999967114466532e-01
-9.671762678687635673e-02,7.059402543401579466e-01,7.062138471548083940e-01
-9.057321181013119338e-01,3.766224403987074587e-01,1.359880692900064525e-01
-4.364185210525499681e-01,-8.882459650819108932e-01,-5.598687367038936852e-02
5.773210420694645517e-01,-8.255415097936219526e-01,-3.159179481177549348e-02
-4.656616606179524859e-02,-8.644224319467971318e-01,-4.684003241268794859e-01
-2.527057496539455439e-01,-7.685874883290971793e-01,5.777409457090642020e-01
4.688010010465946120e-01,5.488912044448625016e-01,-7.056535134302299728e-01
6.902886739722231546e-01,-4.872968957513463262e-01,-5.387891008664305037e-01
-9.332008477824982329e-01,5.927672072020020999e-02,-3.376452551204204844e-01
-5.595225526078759781e-01,-6.484888705344225013e-01,-5.447550086921364443e-01
9.896051840380593045e-01,8.620214981895379935e-02,1.060151421157951440e-01
-2.259952555909635341e-01,-5.086428771724929021e-01,-8.449889430558901182e-01
-1.345617868161473885e-01,7.313335716139783838e-01,6.553421357376330025e-01
8.296013368076520234e-01,-1.644910922313234380e-01,4.905629515949360697e-01
9.403561276016100257e-01,-3.876227460355806120e-01,1.482379368938986468e-02
1.998846409528285128e-01,-9.633835359521709663e-01,9.012996988460084125e-02
-2.558852889659374297e-01,-8.478624975312561984e-01,-4.552529121310737170e-01
3.121760836728975086e-01,8.282126582986522045e-01,-4.570162095414094239e-01
4.491956649630348131e-01,-7.879767173206130293e-01,-3.996262216457788230e-01
5.095390853013298527e-01,-2.232367286504594039e-01,-8.344839161024732999e-01
8.565391224445556562e-01,-3.719425231866775872e-01,-4.395686709951428517e-01
-6.670580402633468076e-01,7.606062156029180787e-01,-7.094811896444694344e-02
-6.840548448667437276e-01,-2.092366488881833020e-01,6.871759437717008812e-01
5.041605425040567023e-02,-8.236075051923239521e-01,5.906741855187015444e-01
8.748784348113139986e-01,3.130486224471655254e-01,3.808898939537803119e-01
-2.695950771414108993e-01,-1.944797708766883571e-01,-9.452895054145629139e-01
3.879291083917505434e-01,4.734082823649243821e-01,7.974585878313061871e-01
-2.173320686246422162e-01,-9.734521992549542979e-01,1.175540492562760636e-01
3.264714490368350597e-01,5.135795708795072301e-01,-7.934380727389391819e-01
-2.715078918951271403e-01,7.556597142425657276e-01,5.879969716815558467e-01
5.172895521571582167e-01,-4.599547075750303193e-01,-6.985869500381953756e-01
-5.979782141669246487e-01,2.221346065320562724e-01,-7.769832426700177264e-01
2.762522332350047377e-02,3.253265456909776865e-01,-9.289152939925733321e-01
-1.713721573522953845e-01,6.300200717247367299e-01,-7.640497932796536107e-01
-5.552034001908056071e-01,4.609852798943055996e-01,-6.872419797665770824e-01
6.127380721154869203e-01,-7.608426565479826653e-01,-2.591936858743641436e-01
-9.057857846055124007e-01,4.313205162311619101e-01,1.382427159801359606e-01
-1.335090155397831990e-01,-8.143649359624142159e-01,5.310129726907945047e-01
-1.000365448763989473e+00,8.258211120879158096e-02,-7.377800484081635350e-03
8.443904915483579909e-01,-4.676915409328903928e-01,-2.970137636948712023e-01
1.987977088919594959e-01,6.103484527893373590e-01,7.815520424096531471e-01
-5.796568876096845901e-01,-5.458093115489074387e-01,6.047701500604905078e-01
5.039327634021461000e-01,-7.672593204628059826e-01,-4.066831733961886464e-01
-5.447897582009935125e-01,-8.340737876930850447e-01,-1.362981403183934348e-01
9.040179230645386532e-01,1.548399127886429250e-01,-3.985368632690650115e-01
8.428512836040780165e-01,-4.790524470437642068e-01,-2.565366266074907142e-01
8.106320120556118614e-01,3.322454962915877275e-02,5.939765269578287654e-01
6.727908190751840101e-01,4.354061120198787771e-02,7.417987981314264623e-01
-7.159964125965892490e-02,-9.612763344078362193e-01,2.805418423182539089e-01
5.109052186896756442e-01,-8.245164248078452607e-01,2.147036209289738262e-01
7.157655455077202022e-01,-5.331440869311028230e-01,-4.560065731192379235e-01
2.993591348328049073e-01,-8.897802523965641086e-01,3.792794162541183733e-01
-7.816009108907074829e-03,-9.806527381786767084e-01,-1.682939306673496282e-01
-3.034016599402066805e-01,4.381316477918210939e-02,-9.289015899251611419e-01
3.241552456065718291e-01,9.112516322985205752e-01,3.141738468530612671e-01
-9.329803253340352986e-01,-2.849514159961807902e-01,2.567787292086710638e-01
-6.128639668599762391e-01,-5.007146537123882135e-01,-6.031923455964589564e-01
-2.116468145256220901e-01,8.933114733897781212e-01,3.649727466521118791e-01
5.787365053940205506e-01,-5.293797938710631534e-01,-6.301828520444426873e-01
2.933016863948683106e-01,8.892440363411577842e-01,-3.568238687896559957e-01
-1.865459255843663067e-01,8.252981144359388122e-01,-5.527394674041949951e-01
-3.613207738836370086e-02,8.990765760644386928e-01,4.352961673975577761e-01
3.512314531029953057e-01,-5.277937269159118649e-01,7.491207301743156854e-01
2.946600503584834163e-01,-7.797923928536166782e-01,-5.587255801798231003e-01
-1.424157686477729029e-02,5.649067506118048837e-02,-1.020952219561458429e+00
-4.597575965070812010e-01,-8.034468951104949408e-01,4.093005623131947268e-01
1.406369963764369790e-01,-9.462668337559391185e-01,2.481182864289436518e-01
2.924860775426192938e-01,-9.293368775510704172e-01,2.826405797425055599e-01
-5.327422611770131766e-01,7.922611607758153207e-01,-3.202616025086886253e-01
-6.915117149630107818e-01,-1.836949522511760191e-01,-7.026431352454072243e-01
8.992318234055307613e-01,-3.938115192795751951e-01,9.606816256857329817e-02
-6.388985775877029649e-01,7.017020888523058109e-02,7.648439889663084523e-01
-6.898276360537416441e-01,6.326351661697636741e-01,3.673915138366571354e-01
6.014315749279026679e-01,2.886005583134937380e-01,7.422527615349786556e-01
-4.852027460337223763e-01,6.907453193714455653e-01,-4.973281524865944547e-01
2.421248043063299604e-01,9.420867116330060576e-01,-9.380264780932418001e-02
1.667568185943521519e-02,-8.762631902325238031e-02,-9.896572403345913482e-01
-3.662406896945636370e-01,8.751873083739273307e-01,-3.047734985125498119e-01
6.313722758422413150e-01,5.344236670386688370e-01,5.583369339462197489e-01
9.009005127023328452e-01,2.418403190828236071e-01,3.819525194391155676e-01
5.245495928269626740e-01,2.713208206123295940e-01,7.862518060456274993e-01
3.954932879305932958e-01,4.608991942004909692e-01,-8.061180896313991928e-01
-1.771782810836795286e-01,-9.086516485979605484e-01,3.860144721942035950e-01
-3.090428180222267729e-01,-6.797729747388397969e-01,-6.648831080509448599e-01
3.299998152055225176e-01,-4.402807580288143896e-01,8.396072282455144808e-01
4.070907048525713168e-01,9.427121474458911854e-02,-9.186234978038173571e-01
2.888527406329827740e-01,-5.495644485226618414e-01,7.677146409815496231e-01
5.197902214384573227e-01,-3.086123224108540120e-01,8.024667255331139337e-01
5.854362491260931556e-01,6.204712025658073449e-01,-5.165219514677567014e-01
-9.051429496489026283e-01,-4.138032617956332593e-01,-5.726142677263815900e-02
3.330108731867270633e-01,5.066757962120527203e-02,-9.589872826555059238e-01
9.037185090702295476e-01,1.282444714240610628e-01,4.177256147944266584e-01
-1.162268333217337524e-01,8.163591831689620548e-01,-5.627615370894860636e-01
9.422522708566681837e-01,2.127757977327398853e-01,-2.678414815901806745e-01
6.090019665667024684e-01,-4.103284794959239923e-01,6.960476321651273279e-01
-1.272235183247195922e-01,-9.517789803581976349e-01,-2.344945067726866561e-01
9.483343904527664625e-01,-1.938638112509947220e-01,-2.304397143579808016e-01
-8.230949529799439501e-01,-2.965475083862061448e-02,-5.733252928117349434e-01
4.347793649882791822e-01,7.972723356933136829e-01,4.279068519594574349e-01
-5.070300472398528990e-01,-6.750269817533270933e-01,-5.251512668915645499e-01
-8.897188576752873557e-01,-2.811391144455103741e-01,-3.481534646257212762e-01
-1.556406642915925120e-01,1.843483843858869931e-01,9.704896734499112165e-01
9.600334368571816768e-01,-2.990288818495926912e-02,-3.016420513001855652e-01
7.210787308087275305e-01,-6.674574160602322337e-01,-9.324652535090383054e-02
-6.901248628068388236e-01,-6.754801516022789221e-01,-2.712890771144423341e-01
-3.726312553182116738e-01,9.026925545862860556e-01,1.829301771321333314e-01
-8.188114195539467621e-01,-5.619046106747538349e-01,-7.157400950741875378e-02
9.746642837085629507e-01,2.332153066172859557e-01,-1.017708745731479986e-01
7.161173420585498217e-01,-2.170054827582239554e-01,-6.578076694167604987e-01
2.922977935316344311e-01,6.604668771327207866e-01,-6.872222465474217001e-01
7.593552294420951032e-01,-9.895304320360238937e-02,6.207399334145761172e-01
2.003795345551944718e-01,9.695407763679129154e-01,8.238352232325790725e-02
-1.465517808679130396e-01,-2.411067139421267658e-01,9.517927259425882358e-01
4.680434137623310509e-01,-7.978205239548628036e-01,-3.937680852717009850e-01
-2.940677969679474923e-01,9.133500598672988913e-01,-2.777126971054763582e-01
5.595391971223238059e-01,8.116000352251283578e-01,1.679148777719066329e-02
-2.630443731324338952e-01,5.086545428293792748e-01,8.371575063824172602e-01
6.042597071431445865e-01,-3.574451723375280943e-01,6.796319461652124971e-01
-5.958896636435068173e-01,-6.367071352893255431e-01,-5.017527424316358120e-01
2.955066859264463552e-01,9.297053157648403898e-01,2.459795977461320393e-01
-6.488260844253385118e-02,-9.826472466145970142e-01,1.411672891093754267e-01
8.096334656826724707e-01,5.432226209612464052e-01,-1.658898164753878635e-01
-8.989485214363751586e-02,9.969939786752421984e-01,8.658571873652395889e-02
4.965243165583331786e-01,-4.602384504116536768e-01,-7.480129947877016683e-01
-7.704145739592751507e-01,-6.223122571064824138e-01,-1.600580269881475559e-01
-5.446543875427124481e-01,7.820344243503758730e-02,8.272618836306832035e-01
6.871979331287730863e-01,-7.163045669983582053e-01,-1.062185483476706799e-01
3.739605520953738216e-01,-6.882987052270692629e-01,6.147415459613553290e-01
7.249051183872713411e-01,-1.438491745673229905e-01,6.580279528301846703e-01
-7.725421472754411267e-01,1.481262824284578783e-01,-6.107246423364657284e-01
-3.373134761656312874e-01,-9.386381972917811067e-01,5.952966080194323911e-02
-5.333225468441318284e-01,-4.070764799884786789e-01,-7.535971117150567222e-01
1.254401679941766039e-02,-9.909356592230967875e-01,-1.496381584995571945e-01
-4.299599046472762920e-01,-8.957082523918222794e-01,8.746220455583592068e-02
3.900797343876893364e-01,-5.369016214121762332e-01,7.419124546979721790e-01
2.779375166818914833e-01,-9.195403461904556874e-02,-9.578281647811016652e-01
7.640982237944977662e-01,1.011199962763602578e-01,6.293604452679069095e-01
9.418643170642078122e-01,1.960277885649951979e-01,-3.396520384767761080e-01
7.896958109363160228e-01,3.115987614082578183e-01,5.282973796178825898e-01
7.963734125110120132e-01,-4.163497063466740644e-01,4.421624428377364247e-01
5.058340603505517147e-02,-7.424566293471313028e-01,-6.634165841764162463e-01
-4.671089265229542153e-01,-3.421569064916269998e-01,-8.202133525477260934e-01
5.611811257298140454e-01,-2.849357966841624679e-01,-7.779272745131552425e-01
9.694835428397021726e-01,2.212354636683364073e-01,3.549427724363510978e-02
-6.194212913548685639e-01,2.271248286698517027e-01,-7.378488006781430686e-01
9.134800196668276806e-01,1.390087047386657226e-01,-3.946658771624890205e-01
-3.100155541825412864e-01,-7.965231440087719994e-01,-5.191508059253903129e-01
5.080293390698169542e-01,8.463495266576778198e-01,-2.998199986642110515e-01
8.956311154209584124e-01,-3.877926684167489757e-01,2.906581308761168603e-01
-7.398455555406012740e-01,2.412934230913935663e-01,6.296246808429908359e-01
-3.822900300662422368e-01,1.121493820401543240e-03,9.427825431003656886e-01
-8.239977797120270342e-01,-1.833337654507277148e-01,4.971635927625291385e-01
6.754622615019567622e-01,-3.811021738359182676e-01,-6.069873139171029219e-01
-9.649148734412147377e-01,-8.214098402570355062e-02,1.955993322820889224e-01
4.488536167869291993e-01,-5.162526464351951949e-01,-7.081343505394602778e-01
-6.379270634570756160e-01,-3.026086563876679292e-01,7.115519899138897930e-01
-3.507039431862482570e-02,-9.635971863588732589e-01,-2.717520770449518563e-01
5.882589061056555657e-01,-1.188445777336988446e-01,8.016567571502962730e-01
5.028143193464580385e-01,-2.453999088815675689e-01,8.432313424216589803e-01
1.678772093608197902e-01,5.375346573397506988e-01,-8.042200747982201081e-01
3.003423694654891452e-01,-2.188293496397338556e-01,9.363502546692342721e-01
-6.450108809310894920e-01,6.433127186490285032e-01,4.478087233364607123e-01
8.739565699357045858e-01,1.302450868183775423e-01,4.700039005762535749e-01
-6.207778182549734680e-01,6.253974553218102361e-01,-4.920130440860342458e-01
-5.866657508768683416e-01,-5.527591828140062669e-01,5.916958939905918591e-01
-5.026918802167049671e-01,9.172046155619031915e-02,8.681547167169646473e-01
-9.685385123383571937e-01,1.830156349618104750e-01,-1.959161263979163070e-01
-1.113620636060014685e-01,-2.718900500986685120e-01,-9.489474020055658210e-01
1.075754988987324134e-01,-9.534690177485303231e-01,2.758035107191150748e-01
-4.225842010562609885e-01,-6.898781712004837807e-01,5.943489183969579148e-01
-9.801508329176514822e-01,9.041195203634923294e-02,-1.140419842888008017e-01
-3.101493142048918905e-01,6.813714075257617520e-01,6.781780268510552157e-01
9.076657716475173832e-01,-4.190485470053075256e-01,-6.105006891906013256e-02
-2.610542783938781253e-01,8.228623456174639639e-01,5.107307330735691986e-01
-5.790533912990731835e-01,6.422723422201706729e-03,8.155657165809481191e-01
-7.454087387908394646e-01,6.350782453359274937e-01,-2.028209447067918225e-01
-3.599902494818773002e-01,-6.985095490567897469e-01,-6.260974251333510932e-01
-8.924270822869684316e-01,-2.463120681023036607e-01,-3.706914762046070178e-01
-2.335259997058588000e-01,2.932023584866852439e-01,-9.320636107249062885e-01
-8.218288339506508999e-02,1.908187687415693889e-01,-9.892634029337243895e-01
-9.959006342745071461e-01,-7.436316684960629642e-02,-2.145792430726350952e-03
1.886512193620380751e-01,9.823218611921255006e-01,4.192330684736949448e-02
3.856898863785664933e-01,-7.890285114765586139e-01,-4.601583321335928067e-01
-1.137824768201782522e-01,1.581223343940136861e-01,9.902095757276678789e-01
2.932927646127959087e-01,-9.463833491295626787e-01,1.681946207050087350e-01
-9.585597929192953837e-01,-2.136293644755667687e-01,2.042244480871319712e-01
-9.301058636897931997e-01,2.130209277584147187e-01,-2.886113913123046770e-01
5.531975362597292278e-01,-8.114388850996536728e-01,-1.751245831215390847e-01
-4.896594587350657779e-01,9.066016039336514121e-01,-5.712730605760740765e-02
3.473039786878457935e-01,9.380715107695363209e-01,-1.595948490052553626e-01
-6.444490801686264536e-01,-5.166480383208877925e-01,-5.685656925994647670e-01
-2.488091704770626356e-01,-6.378906615381163547e-01,7.043255729393158582e-01
-3.551736999368386716e-01,-1.613267122164294687e-01,-9.327694501348886558e-01
7.042551562989347591e-01,6.683178186048588376e-01,-1.863790790993001545e-01
9.095818723926276661e-01,-3.624133460754105918e-02,4.234704684629728155e-01
-7.840890345447302234e-01,5.874854812389379566e-01,2.138603949475437749e-01
-7.189843360054550825e-01,6.962164647478751300e-01,2.745576037734557412e-02
-4.328308108174294677e-01,1.203071225197580307e-01,-8.934162002816063985e-01
-9.576174304573462637e-01,-2.638095735453475643e-01,-6.084578182223763197e-03
2.950085067361646884e-01,-1.895373853678430087e-01,9.428111885191783337e-01
-7.167841566342143533e-01,-6.915911355982979902e-01,-1.284116532665177668e-01
-1.219620406626220968e-02,7.254118549127207549e-01,-6.848924842941674918e-01
-7.749837114753195255e-01,3.657314646702956584e-01,-5.233819508339154769e-01
5.265079829146316337e-01,-6.971028963021012048e-01,5.221477106169687410e-01
-9.549175392697182296e-01,2.851697015282561240e-02,3.415367516540196990e-01
8.916470457479539480e-01,3.571821389441210970e-01,-2.638194304358450482e-01
8.049904916479715400e-01,-3.949861414442111807e-01,3.888450146115544626e-01
9.257977175818885573e-01,3.548611544465140044e-01,-1.417803653656011798e-01
3.352177698837595088e-01,-9.258582344705288403e-01,-2.027603760340634664e-01
7.987469062585456081e-01,6.556963223856299150e-02,5.997531830762030669e-01
-4.714352839545791207e-01,-7.708592539944033595e-01,4.293683720597051279e-01
