1.606033437940865560e-01,6.741615283990171070e-01,-7.180660484488046169e-01
2.785127237379896314e-01,8.089899565007310223e-01,-5.333017602778128419e-01
-1.675464568596503889e-01,-3.120247858687155151e-01,-9.533933168554955540e-01
2.270724074964386996e-01,6.842630323990435137e-01,7.022444251583451758e-01
-9.581720922169324473e-01,-2.781737237861018341e-01,4.662164911691672742e-02
7.954846246727673709e-01,2.071410762602424460e-01,6.000331854108880147e-01
-8.223313699745159466e-01,-3.618083658945989711e-01,-4.706126086907659323e-01
9.277365813469761191e-01,2.984211875492384647e-01,-2.455548687420954501e-01
2.672433809248139780e-01,9.602877090129691151e-01,9.231529102720367752e-02
5.144249328637426899e-01,-3.539441114050721482e-01,-7.769737186215753821e-01
9.889689960781392064e-02,-1.132886482426790076e-01,-1.008294754601117837e+00
-3.264107605981730886e-01,8.289586724566060383e-01,-4.352908495593358351e-01
4.194443386892168085e-02,-7.541016229071005883e-01,6.664009531361884120e-01
6.975820216748819524e-02,9.977586970090249752e-01,-6.129520362878704970e-02
8.716361110602656170e-01,-1.123477303031598651e-01,-4.703715644982273125e-01
-8.056345223040153325e-01,-5.242322157148492368e-01,-2.927902360343898058e-01
-4.202606340295550469e-01,-5.888059747369721597e-01,7.076085290252819293e-01
5.047810839693983587e-01,-7.617411663286380863e-01,-4.340890205874338714e-01
4.447613542032601286e-01,8.829414059530189540e-01,-8.504279812222673152e-02
-9.177543671280532500e-01,-2.125266644119763737e-02,-3.854854306237113781e-01
4.703098762739303940e-01,8.182572734766999645e-01,-3.126060064938231964e-01
1.378710300009684253e-01,-2.247671948314019230e-01,9.808755591195742474e-01
2.435893002159609244e-01,5.375642627900024673e-01,8.197534496668499315e-01
8.009075808593070500e-02,-7.404310105022715582e-01,6.489747721473934083e-01
-6.811307039940049934e-01,-3.741174917600911254e-01,6.379246914051583950e-01
-7.928908253021977881e-01,-1.634882740841424667e-02,-6.052422372762952252e-01
-2.812905052454608978e-01,9.457398211195892079e-01,1.356345384460651837e-01
-6.155458416928420995e-01,6.145833863328834523e-01,-4.965173335957118184e-01
5.564904123761459376e-01,-1.201860518517020582e-01,-8.112334638625847694e-01
-9.283518906109113900e-01,3.434071752735698979e-01,2.188615912944672781e-01
8.531231257234566101e-01,-5.035596857000298465e-01,-1.599227951788324484e-02
9.586030722988835295e-01,8.883984400650911384e-02,2.109771542551021062e-01
4.500744925394909585e-02,5.569583178307077054e-01,8.556893272237282577e-01
-8.147114097005537792e-01,3.265357924083694408e-01,-4.709535958587621751e-01
7.641936771632922287e-01,-5.680651343490535909e-01,3.374614419052344716e-01
1.004642904564596179e-01,-4.643136062953684418e-01,8.663169115791401476e-01
1.356113982691774245e-02,-1.435858148346348118e-01,-9.777603548946819378e-01
9.467761420394592564e-01,3.304817773333368347e-01,-6.528638012153725745e-02
-2.179509520635432296e-01,9.050039930740061411e-01,-3.764688352801375815e-01
-6.607154027422159626e-01,-6.559474510045580908e-01,3.284575059254470908e-01
2.260493099668198225e-01,-7.658279415731281681e-01,-6.300067499200039389e-01
-7.025789767792388618e-01,-2.832991101465012762e-01,6.452933718796987073e-01
-6.798693255991700157e-02,-1.146724604884534482e-01,-9.639390359551875953e-01
-4.668384902489920996e-01,1.216493601340454533e-01,-8.706590751115133031e-01
-1.591170092292194804e-01,-1.401533182463145510e-01,9.786062218691127246e-01
5.083976918102842690e-01,8.771956855405597109e-01,9.688662396120187315e-02
-4.660346794661335834e-01,-8.356218535084786181e-01,-2.665502445177792556e-01
-6.138885652193374343e-01,-2.611923154240874956e-01,-7.743349001796391295e-01
8.269152787068568822e-01,-5.402133008546595727e-01,-9.375076631187742593e-02
-5.685175110218295691e-01,8.115322798652340186e-01,2.084171853088380155e-01
-5.727879256473707992e-01,6.904818646299859530e-01,-4.550759558260625837e-01
-8.831485426175104125e-01,3.941318909371730461e-01,2.017806846884125926e-01
3.315389026874051570e-01,9.338997745214394630e-01,2.220662846274616131e-01
6.172852672644058014e-01,7.466332449743947608e-01,4.529982038870992295e-02
2.143866372640495788e-01,-4.422173485885780853e-01,-8.887580044537694013e-01
8.196737477551164774e-01,5.456386914472324268e-01,-2.926254684469761346e-03
-7.630611788269182627e-01,-4.330829362589941889e-01,4.871872611326136249e-01
4.255457607351659788e-01,8.782650857978837600e-01,-1.373720996407740425e-01
-5.353855577302564228e-01,-6.352984927656283309e-01,-5.504308974887959227e-01
8.344258736816564381e-01,3.780172265458187075e-01,4.546707280823219510e-01
6.686511152955054715e-01,-7.539469501400145601e-01,-7.595406817236818875e-02
-9.376929885229242645e-01,2.391556888669460201e-01,2.491150620497135926e-01
6.236156413285970368e-02,-7.353550516356182065e-01,6.819349953651479002e-01
5.391543390915536360e-01,-1.393777212490487083e-01,-8.252071551802903082e-01
-3.268168952926312487e-01,-5.472893007417449773e-01,-7.945313834723776170e-01
-1.065042253126395333e-01,-1.212810800133299338e-01,-9.868852539634900278e-01
-5.047632508818923336e-01,7.353421849584640402e-01,4.345962830796649690e-01
-6.907962772571107912e-01,-7.175486938869931608e-01,1.036878091975361460e-01
-7.943688320143762471e-01,-1.256714922794689437e-01,-5.781510760436386898e-01
2.816294647656878425e-01,5.516177099365626724e-01,7.539972233007179447e-01
2.528031925121915213e-01,-9.523766014364344334e-01,-1.690598900024136153e-01
-6.918879510052696746e-01,6.525593801557270091e-01,2.819025680586815796e-01
-3.565930439260617812e-01,-3.371464637049330082e-01,-8.662141341025080266e-01
-8.478394720633750659e-01,5.089842220657189026e-02,-5.270910730410686140e-01
-9.368927793865229336e-01,-3.697386406088807864e-01,-5.409388979435997974e-02
6.717971189786419162e-01,-6.874736739655318285e-01,-2.642557333809897879e-01
7.001762231300857620e-01,3.846351733817966467e-01,5.729379770960235652e-01
-1.283320616577456053e-01,-9.356724898865655948e-01,-3.719281441918321773e-01
5.694839605295235474e-01,-6.555458465651526900e-01,5.078727182360885939e-01
3.658345509657732753e-01,1.054680440417564841e-01,9.158540780537006709e-01
-5.751170433028414408e-02,8.822533016692722940e-01,-4.590173830819599954e-01
-3.276160845804480526e-01,1.319572911141295157e-01,9.389516274131151086e-01
2.462537830688376339e-01,3.017466999238613834e-01,-9.290794221416841525e-01
9.531565956951596474e-01,9.390466550967233039e-02,-2.525788315501590886e-01
9.404668778875749924e-01,1.518772029693393755e-01,3.308434758610205306e-01
4.975456753023971834e-01,5.733529793214326986e-01,6.859760299324495492e-01
-5.361482771609464848e-01,8.446422910769239012e-01,-5.071644865632377042e-02
3.028754193306562037e-01,-9.562041568929505742e-01,6.063912463676766201e-02
3.375875985805354418e-01,-6.390837594311528091e-01,-6.894741667491078863e-01
-8.204071404091882735e-01,-5.030825335482026484e-01,-2.361287175973041941e-01
9.493836145632567058e-01,-5.142418921047538227e-02,2.636209296065025187e-01
2.186048283779488677e-01,-1.732154585549140480e-01,-9.648497688694691599e-01
-8.901088822508497200e-01,2.349359775498827962e-01,-4.025316385723906043e-01
-2.952623471259611665e-01,-7.541180875030057962e-01,5.966262668167051642e-01
-3.500702965077923667e-01,-1.380106520986805752e-01,-9.204806390015015660e-01
-7.370637039523318945e-01,4.981340888311392434e-01,-4.635820676151923281e-01
-6.490547206556406268e-01,-6.915578130206452567e-02,-7.563842412707657559e-01
-4.791770980511252387e-01,2.627271437656563680e-01,-8.421905789707108125e-01
-1.914535980943095073e-01,5.801389681382400632e-01,-7.906202613535359136e-01
-1.135965168502563460e-01,-2.316682161276494289e-01,9.603459785497713286e-01
-1.385959476429864112e-01,-3.158691840139146167e-01,9.419084068225149764e-01
-3.399165969898652606e-01,2.824195659663006897e-01,8.930709460986837600e-01
-3.058531789991468242e-01,2.117417841005302115e-01,-9.094013145878332427e-01
2.520145676992747719e-01,-6.735693260605553068e-01,6.792983233243594654e-01
-5.954077156360787493e-01,-6.135846897524477317e-01,-5.368952336545907977e-01
3.426753787404329676e-01,-6.415290110688078862e-01,-6.780207509063518323e-01
-3.985314907639452287e-01,-1.171944481889348605e-01,8.947013512049121209e-01
2.818879841026452615e-01,-6.135562290092754223e-01,-7.350522160114449921e-01
-4.526119129867231528e-01,8.592174516603325873e-01,-2.067519974507291136e-01
2.393897727220417326e-01,2.557994168642388488e-01,-9.314291520828308357e-01
8.622000227929509375e-01,-4.524159194849786680e-01,1.871985312239114463e-01
-7.554817865247313025e-01,-1.864704697450511317e-01,-6.329411660475501300e-01
-9.110422406290771269e-01,-1.413091063951235626e-01,-3.761210414236506594e-01
6.315311329972463916e-01,-1.391827949004258436e-01,-7.690586337531322147e-01
-6.135062659905349269e-01,1.500554196969865542e-02,8.025017554798431485e-01
-4.997701354833124499e-01,8.249445376019924892e-01,2.074658096490029080e-01
4.048135086787874592e-01,7.802820975138741177e-01,4.401828241646077999e-01
3.774299174486801522e-01,8.432135231379884743e-01,-3.711262386472256036e-01
3.429530898788387683e-01,9.375284859010124539e-01,-1.377739824735558019e-02
-8.867330318555584068e-01,2.362256965403760067e-01,4.017769583918750498e-01
5.437825963107899563e-01,-8.316441056949092081e-01,2.798092644361205306e-03
-7.130799921440393874e-01,-6.256466013607472343e-01,-3.132380171762476073e-01
-3.183810349107790705e-02,-5.162483691450543422e-01,-8.703015338688315783e-01
-5.471406290984630605e-01,4.671537602154861024e-01,-7.309833480277401208e-01
-3.657137565728316164e-01,8.502887222245875121e-01,-3.401961007543187754e-01
4.885374923666155889e-01,7.766277865175312822e-01,4.089882066313620945e-01
3.444935370735113800e-01,-1.380775440766746076e-01,9.277785974685979209e-01
1.006341561213709879e+00,6.014695074257090518e-02,-8.827909508224954238e-02
-2.143235192446034665e-01,7.053486322772957173e-01,-6.656192222405917791e-01
-5.699706664392899524e-01,-7.896362599209060251e-01,2.293071074627381079e-01
-2.120196219971674789e-01,-9.734222551968905179e-01,4.487420694927225784e-02
-9.573409518009335928e-01,-2.495749467592359161e-01,-3.687168366967402688e-02
-3.673129756244195021e-01,5.439403917034326685e-01,-7.485301052004552647e-01
-8.308010773295481100e-01,-1.432495408642690642e-03,5.382590800355497862e-01
-1.127372793650729399e-01,8.886842383235316056e-01,4.315689857497931881e-01
3.895049524044464917e-01,-4.140135752057139684e-01,8.182474320920386512e-01
5.324701387891225268e-01,6.282650789333559249e-01,-5.799406597099306948e-01
-4.236229624049346332e-01,7.515215782564176328e-01,-5.463257325352441907e-01
2.614180291522869570e-01,-5.622230180087965934e-01,7.870733685145729908e-01
4.386224316691866160e-02,-7.079287885243852330e-01,-7.012538930107220514e-01
5.972895153588980710e-01,-4.356229508738297396e-01,6.897700423435031425e-01
-8.608857733267728518e-01,-3.428979946568351811e-01,3.884466219289123279e-01
3.868308047473994482e-01,7.657837550412959216e-01,5.065204702316640217e-01
2.352353878988639180e-01,9.085500160987336482e-01,3.262825246520901223e-01
7.407784102259393766e-01,6.409936293183402523e-01,2.029993053506596312e-01
-3.460928990100554103e-01,-8.018628138246409742e-01,5.154420839554770817e-01
2.379264004030894608e-01,4.941619866498297431e-01,8.321802087030061301e-01
-6.018766154671584268e-01,-3.333948011618598217e-01,7.214647418729873696e-01
5.713500015100015927e-01,4.908416383899000812e-01,6.332540017735849291e-01
-9.156288301133227447e-01,5.068194347530141641e-02,3.670862181184978978e-01
1.719880009987929115e-01,-9.854411601247836661e-01,-1.249191533436162238e-01
-5.059202790896083490e-01,-2.762005347064734884e-01,8.330505834077167604e-01
9.651273180627483184e-01,-1.952501830114461712e-01,-1.540142087667563386e-01
-1.331011148426351487e-01,-2.926432429745708386e-01,-9.337512748312855049e-01
8.839032947862769662e-02,7.146201737219429750e-01,-6.719945581264463730e-01
-5.493119496209183383e-01,6.667335982134375838e-01,5.144065179560513013e-01
-6.596785896355701340e-01,7.284333250094063850e-01,-1.583935204268303032e-01
2.450898162976831995e-01,2.490850411102375761e-01,-9.364360769263641027e-01
-3.514566843019435033e-02,8.671926903704775258e-01,-5.072149084840305022e-01
7.240815437904520868e-01,3.420197255552193116e-01,-5.732147030180206881e-01
-2.535385231795318495e-01,8.370967916607334747e-01,-4.888858597394499239e-01
7.757882156427632347e-01,-5.125604583267965308e-01,-3.336417458590338891e-01
-6.941410665840244132e-01,4.054111083115530811e-01,5.833874707583613928e-01
-9.264900187202677051e-01,-1.298472405248164152e-01,-3.700406693356148025e-01
-4.302633413600901457e-01,7.245330298018173298e-01,-5.566127602846662192e-01
-5.833625412579835912e-01,7.968058774689631418e-01,1.165914269719426355e-01
2.427261581185672645e-01,-8.641381581959020619e-02,-9.593316374881359909e-01
-3.915623190417118482e-01,8.074228527044482462e-01,4.037934047442421903e-01
-2.030356518762972129e-01,-7.892356339941853927e-01,-5.881786044724202078e-01
-2.338790236475848661e-01,8.022055214437920911e-01,5.171864623756290413e-01
1.843206559373821440e-01,-2.531022778898916470e-01,9.444589539971488534e-01
-6.172435664521646048e-01,-6.492744508468838438e-01,4.590536913165090271e-01
8.311351818845646999e-01,-2.027791629166220688e-01,-5.035269057004412296e-01
7.480853641431156609e-01,3.202581112115377993e-01,-6.018193656773479505e-01
1.884314828863363489e-01,-5.445271780390107397e-01,8.249886876289282966e-01
3.207037279778506833e-01,-8.082122557142893404e-01,4.667656514989917960e-01
-4.521727977346521321e-01,-4.025487292680385853e-01,-7.736477785890226722e-01
2.865742680884453830e-01,-8.249408100351144357e-01,4.995253598249246862e-01
3.669740832343423853e-01,-6.230459604279137836e-03,-9.374330821483188858e-01
5.426778942337239231e-01,-8.240126898342752249e-01,2.065834592015808324e-01
-4.615855772217597464e-01,-1.486043595822393870e-01,8.580495815379852731e-01
-9.208028151649675364e-01,4.033739223256741502e-01,-2.216991815137066973e-02
-4.268062115594812855e-01,-5.754916351879465486e-01,7.039743691381723512e-01
6.829357487107741154e-01,6.489002866802894287e-01,3.572993062553700971e-01
-1.372754339312624583e-01,1.621673592391645047e-01,-9.686059049655992848e-01
5.307425093532953664e-01,7.374021042136088555e-01,-3.858615284390878863e-01
1.221800029939417442e-01,-9.923514230049688134e-01,-4.342339468926918050e-02
5.356653971768442490e-01,-3.039659879479681970e-01,7.807360082826672043e-01
4.004302417167311945e-01,-9.093424194088887136e-01,1.622535943965977556e-02
-3.108317243445327671e-01,9.437178018008957059e-01,5.990306098984343741e-02
-9.418977618427626375e-02,5.539621880151602840e-01,8.290189066966828779e-01
-9.530033201286450817e-01,-8.079463165867568908e-02,-3.337086823255726031e-01
-4.094969848429892423e-01,8.452651905459210857e-01,-4.129534598438030502e-01
6.039562540412320990e-01,-1.033174490538900647e-01,7.851869203591815838e-01
-7.949817979612981977e-01,-3.590072975134295241e-01,4.702224763309296729e-01
-5.785191968242184846e-01,-2.765933780292882949e-01,-7.557371401432121383e-01
7.549130014146225864e-01,2.149285948885064357e-01,6.042877648631459486e-01
4.622389737808468291e-01,-8.757557904461750198e-01,2.525626143034631968e-02
8.565651281865458433e-01,1.859164094708439241e-01,-5.004454685974565331e-01
-7.572817779563530138e-02,5.902344722405844513e-01,8.016182008902648093e-01
9.533897372143185223e-01,-2.853073151672084751e-01,5.420880840061236688e-02
-2.929822204384108231e-01,1.304236722041894614e-01,9.461136362544825262e-01
9.365528338125345131e-01,-3.223381913711125257e-01,2.216484976382892824e-01
9.220321816757084399e-01,3.546971683936719355e-01,-4.059695671160691577e-02
5.958733435012286694e-01,-7.371861412690731141e-01,3.638739496337177748e-01
-6.435378959716907543e-01,1.634261966216664086e-01,7.352901174760199110e-01
-6.729449922712624765e-01,-6.404333271849645959e-01,-3.619869996615547869e-01
-9.135757396020894872e-01,-5.033609931121842129e-02,-4.235248844012904912e-01
9.363422860085174326e-01,-4.302199367686198803e-03,3.497234643651869757e-01
-6.805616436052176477e-01,-2.680681894668607290e-02,7.307443588017366043e-01
-4.544920334955899754e-01,6.883705156250098378e-01,5.694261768942601165e-01
5.073961557577452014e-02,9.923203602552792546e-01,3.467862477399589333e-02
1.408479697653725049e-01,-8.842392740313986810e-01,4.139275779497080254e-01
8.582198029405820883e-01,3.922914058423246364e-01,3.111328348760289964e-01
-1.782310633421470558e-01,1.102339556219222583e-01,9.816078577461166965e-01
-8.443468772759249452e-02,2.324889595755937066e-01,9.560088582115722211e-01
7.449064238490451517e-01,-6.760775816759907464e-01,2.803304912750926789e-02
1.141482993548348021e-02,8.716871747009503624e-01,-4.745754666947863409e-01
-1.922180770276306627e-01,7.536048547527862684e-01,-6.244718380061330398e-01
-2.207709158541526773e-01,3.908524139664782959e-01,8.882414151382452827e-01
-6.304616918418942673e-01,5.111334784528916986e-01,5.929721744004690098e-01
-2.994412648057174775e-01,1.980516536899734892e-01,-9.282543502265454549e-01
-3.153440600639796920e-01,5.691648399074840103e-01,-7.643508236361393759e-01
9.726143523331457486e-01,3.031358344773691926e-01,-1.383215393855452384e-02
4.369262428875558824e-02,7.348551757683369212e-01,6.799146365280999138e-01
-9.213190110231667118e-01,1.187393508660619934e-01,3.552811817524142990e-01
-4.355707188411950814e-01,4.402773956225051744e-01,7.988157227329643062e-01
-9.034700107486235421e-01,9.027853785374045925e-02,-4.114519102320585708e-01
6.092800171709449319e-01,5.971753271812257902e-01,-5.283320891630519656e-01
-4.728842539628530517e-01,5.800264204578819971e-01,-6.547700348511948931e-01
-3.210447412152833691e-01,3.975942844188087300e-01,8.506332428160918724e-01
-7.236356353035111599e-01,-1.666966196554954260e-01,6.421453380955499668e-01
-1.928099150183401889e-01,3.634808232202891842e-01,-9.009389466808506164e-01
-5.777556982529354901e-01,7.562552026549872464e-01,-3.856198451387256032e-01
9.790426920376721354e-01,-2.294256032252636399e-02,-2.093911405528791070e-01
-2.173319190346996166e-01,9.534998495230999627e-01,2.143586514916923091e-01
-2.405325389686544316e-02,-9.690288086823103386e-01,-1.800291767196695314e-01
-7.507872488623724694e-01,-6.474390377022922749e-01,1.204555484442325214e-01
8.193247815542302470e-02,-5.033657929622957772e-01,-8.400635947370416190e-01
5.013731287145875015e-01,6.657978586761255091e-01,-5.888169451870453042e-01
-1.158353079756268555e-01,-7.622270223837122882e-02,-1.004053348969606629e+00
8.133858498767048140e-01,2.251394272465860047e-01,5.265643845998160266e-01
3.510458551420981288e-01,2.815883563328532291e-01,8.961820217416724965e-01
-7.728480593056408221e-02,-9.518659609872369698e-01,2.814918616421493436e-01
-7.299045584807388742e-01,2.383881306561937141e-01,-6.298065000157515581e-01
1.650093593072826936e-01,-2.219302850216459122e-02,9.772241272414665669e-01
2.041623337781158648e-02,-4.948915202536708358e-01,8.823216219004764715e-01
1.285808985646880176e-01,-9.955589118855133757e-01,1.296392782225793405e-01
7.681721657569675621e-01,-5.817014133301934287e-01,-2.802770902601244285e-01
2.160666471691422008e-01,-2.416104978736738074e-01,9.456504658962168186e-01
7.165598466676778022e-01,-5.721944800318043978e-01,3.700698343241871080e-01
9.025362539956980346e-01,-3.247142996577850327e-01,-2.929680687740949252e-01
-1.196054995547009003e-01,-5.732263879594559075e-01,-8.164473528939594216e-01
-6.925237153447462157e-01,-6.177008280370431814e-01,3.726180599940810967e-01
3.277432708808754574e-03,6.257950105781314720e-01,7.827104001071373274e-01
6.619432033843328789e-01,-4.465909593188014948e-01,6.090942581432862157e-01
-7.909630403250550446e-02,3.318524240808810033e-01,9.286524210047022443e-01
3.214759712206317066e-01,3.329515069460812215e-01,8.781126042753564231e-01
-8.546112774159352332e-01,3.892585291578246620e-01,-3.242325668808354044e-01
-1.652191466478016846e-01,-5.694636258581011745e-01,-8.164840725178281744e-01
-5.402460513567507450e-01,-8.328804307631753820e-03,8.435810343462994965e-01
-3.686168669952028520e-01,4.341725339450730470e-01,8.446257661302777331e-01
1.010092664242255189e+00,4.080492583922429306e-02,-3.010976377211915800e-02
-8.541515244368796944e-01,1.130904060617453633e-01,-5.263985709772246446e-01
5.282031125634468749e-01,-8.538178802629996511e-01,1.155908831416842114e-01
3.722237032563410764e-02,-5.755760699910703604e-01,-8.278308972393506604e-01
-1.359054714370898920e-01,2.767482488754198777e-01,9.373636718142053237e-01
3.198824624351055967e-01,9.548611077646350642e-01,1.071831350050206529e-02
6.797259945387164048e-01,2.630603678935095058e-01,6.974142689475067991e-01
-1.716394035833642695e-01,9.384448054130366534e-01,-3.391988870299460501e-01
6.338905862882242281e-02,-9.790043455990090626e-01,-1.876589319465298000e-01
7.828807634585173147e-01,2.040437694289017334e-01,5.952280190529015691e-01
8.560277467195051004e-01,-2.201445968604861803e-01,4.414165073912296178e-01
2.190754094257152396e-02,5.500723779578421402e-01,-8.458809274905523257e-01
8.315196092148611218e-01,3.907968512226238089e-01,-3.417185099036078033e-01
-7.028940984984579643e-01,-3.409891344259938784e-01,6.178112227990831817e-01
3.546955295515121231e-01,8.554067551655004653e-01,-3.509161955984680392e-01
-6.426116239563992583e-01,-6.643647971086271697e-01,-4.046728193396022522e-01
5.857484848066214500e-01,-6.380277709818644727e-01,-5.046111919909144206e-01
-9.027729843461161641e-02,-2.259555312945641936e-01,-9.584472618263667476e-01
5.758887948596721484e-01,3.830428311526397067e-01,7.401398400553170775e-01
-2.043958938459507768e-01,-7.296432316482728275e-01,6.641813154796766261e-01
-7.778777861156747075e-01,5.749562184824371647e-01,2.704451151666893427e-01
6.063113577954328814e-01,-7.567785222760429198e-01,2.775506267038477803e-01
-7.184650878440140831e-01,3.399821560274842724e-01,-6.158013289501839127e-01
-6.118228262581441035e-01,3.316386319198902366e-01,-7.091880880792895692e-01
5.764274577802606103e-01,-1.863713155537210509e-01,7.801345898907052767e-01
-2.604755544596066286e-01,-9.473009675685150066e-01,-9.416786118434415653e-02
4.879507156371861165e-01,8.647819635932101345e-01,1.801017383155100737e-01
4.024688207834233866e-01,-1.766537391805179935e-01,9.018072103687515551e-01
-3.723580181762372043e-01,5.080411655614743838e-01,7.641541518281462775e-01
-9.357539559630548842e-01,-1.297756167301432617e-01,-3.001655763527494303e-01
-1.822330564010606890e-01,-6.204220114968505007e-01,-7.731002860644048402e-01
-6.266924180058635052e-01,-9.019289419909232814e-04,-7.589790590357700095e-01
-7.511368929639083980e-01,-6.454875898735198403e-01,8.666408033780395592e-02
7.519038331392650099e-01,5.396075282618041369e-01,-4.030721462335438710e-01
1.612477913094514104e-01,-1.467065327917352058e-01,-9.781241006486529610e-01
-5.957555054378811388e-01,7.400376368955995376e-01,2.929190057764763933e-01
-8.286119091896717581e-01,4.034884824984816265e-01,-4.253947226037645968e-01
7.495842401360773843e-01,-5.299887506798874881e-01,-3.939845585281664953e-01
-4.815394797245656777e-01,5.261816243493558920e-01,-7.176701008111696645e-01
3.964020845595184750e-01,-1.086235313315672413e-01,9.019397419517020120e-01
4.411898771081074755e-01,-8.499992950355093058e-01,-1.969781655679195276e-01
3.818039890620243404e-01,-6.434860847485135427e-01,-6.891241959855707311e-01
-5.503825626410991934e-01,-5.861508445785968968e-01,-5.741875483188063622e-01
-7.621034240842136098e-01,9.956826912890281989e-02,-6.331570426163917187e-01
8.296803021879392004e-01,5.512313246476093775e-01,-5.343524645512103509e-03
-2.282058412841953821e-01,-2.637153651561859324e-01,-9.277723156422299500e-01
2.364074511045867744e-01,2.801368476345970082e-01,-9.335218188995785260e-01
3.552648744816767068e-01,-2.531078736538537877e-01,-9.353846260266098778e-01
7.786949493095761399e-02,7.135842374614045358e-01,7.164187027738637692e-01
-6.598726039597646587e-01,-2.716166116726626001e-01,6.889951716296501827e-01
-5.786298844907732386e-01,-8.285868548419832447e-01,-9.164265017310356531e-02
8.181148519415260001e-01,-5.816388833160323069e-01,-2.954869671674691112e-02
-2.836652688752772655e-01,7.600980312354405077e-01,-5.880995953849699198e-01
5.720504542069244636e-01,-5.855395561738899746e-01,5.834777632888528132e-01
-8.510239806782295968e-01,-4.055793682136532019e-01,-3.463017862695982330e-01
6.311254113679806155e-01,6.604825404188212623e-01,-4.066141744457131835e-01
3.209291402528849368e-01,2.018883608101301741e-02,9.418468429800094244e-01
6.694457742674306266e-02,7.082119841047029851e-02,-9.786078489179985684e-01
-2.246775580720343501e-01,9.766922299543492336e-01,-7.884776644280880320e-02
2.939934299917421057e-01,8.277750286688807524e-01,-4.447926514030220435e-01
3.640366569879322500e-01,9.344311100896884881e-01,-6.619370489636246246e-02
-2.873473919027463158e-02,9.920909731056825054e-01,8.938455382242783964e-02
-1.008280506878680149e-01,-4.382610198634841470e-01,-9.051363667992999851e-01
-3.335388056231293197e-01,5.302021441614901409e-01,7.957599357261956330e-01
-6.981040074366190451e-01,-6.889817075281540193e-01,-3.073572536814178288e-02
-6.414540572943570051e-01,5.345415644627953267e-01,5.571420611969060133e-01
2.719688030092429765e-01,-3.962093601066914994e-01,-8.882561391035908027e-01
5.378663345971335108e-01,-4.206841868489962222e-01,7.460522628609698170e-01
-8.226867305044388567e-01,-4.076491186279925794e-01,3.958100375998124809e-01
-1.747872094391761666e-01,-2.763490390044766043e-01,-9.492665265606557989e-01
-9.693560181651218466e-01,7.724536080803440057e-03,-2.670980879771240879e-01
7.618440183587384951e-01,-7.788465532157966276e-02,-6.431042740917765066e-01
2.609283683030951262e-01,-4.308874643714920016e-01,-8.671522090988419418e-01
5.639576488971241863e-01,-8.323924438648555579e-01,-1.052776763591753602e-02
4.679372221226512085e-01,-8.713031002918009138e-01,1.633229669671750761e-01
-7.478163248809348573e-01,-5.948535141745974197e-01,-3.079000908218474386e-01
-2.393975205056288191e-01,-7.727488837311313752e-01,-5.766256254887709432e-01
1.426094670609067416e-01,-2.415884712692946690e-01,-9.621863014759061139e-01
-4.416469816381071722e-01,-8.208856966985440540e-01,-3.953128904077111705e-01
-6.962089022416909634e-01,-2.966760511341743345e-01,-6.460187420795514557e-01
-1.383652550885637600e-01,8.682430561742568997e-01,-4.287649426170422884e-01
8.615868575849708888e-01,6.641549720848039526e-04,5.402120069032655403e-01
-8.682558541185502188e-01,1.422360146594646990e-01,4.934426011557067060e-01
-7.580119094685772163e-01,5.381773608430772127e-01,-3.548823544269317232e-01
4.712060431121334880e-01,2.186420041974237727e-01,8.403364845837566488e-01
5.736830559218377562e-02,-4.123126866480988917e-02,-1.003652427807202763e+00
8.553043607503777457e-01,5.116623962594677444e-01,1.037311500168237727e-01
4.827412780730507835e-01,8.678396792564060380e-01,1.877563006198530449e-01
5.949871046961843213e-01,8.169014254240783424e-02,7.990269306173656272e-01
-1.645654166455502165e-01,-9.672841641412589508e-01,1.977851469024627384e-02
-3.232561792451159599e-01,-6.416029316073200428e-02,-9.478733536387082825e-01
7.743441665254972850e-02,8.005928902002542591e-01,-6.315001098863044504e-01
-9.131956773774205782e-01,-4.317705955307873933e-01,6.386484770782091536e-02
-5.869847546595148291e-01,-6.684879012025950473e-01,-4.305057412158054819e-01
-4.701714663167885222e-01,-7.619474327382131928e-01,-4.769441653432685002e-01
2.060056227267996476e-01,8.489607572893009824e-01,5.008860885939963037e-01
-5.826884512155874329e-01,7.899708003911077858e-01,-2.050852658543620421e-01
3.448401821359120545e-01,-6.871072494896796057e-01,-6.179832953122783579e-01
-4.328162687041799961e-01,-2.306273255949414513e-01,8.703922634941082537e-01
-4.948264908364935488e-02,3.388983537861578466e-01,9.453916218255928872e-01
5.924930743883626283e-01,-7.297016699019338581e-01,3.353159902682468219e-01
1.751725774420414550e-01,9.146633472720375746e-01,3.042887140815093150e-01
8.449491100828858681e-01,3.618055108327608571e-01,3.318260139487163585e-01
-5.011537459571792016e-03,6.989917168580136453e-01,-7.062318087950293366e-01
3.809689042658832014e-01,7.913717404732033556e-01,4.707073563108972736e-01
7.970575027687908376e-01,-4.988270139242299561e-01,3.344408555501997560e-01
7.855695548393769601e-01,-6.262899096609618743e-01,-8.147161710450781524e-02
5.243068054174446768e-01,-7.324807020903316701e-01,3.943774339397473350e-01
6.425277234916716429e-01,6.130638099837580901e-01,-4.795625838997430446e-01
-7.891485597013824238e-01,-5.993325547907044637e-01,-1.552165391323019616e-01
-6.699186876159967108e-01,3.568935813034403992e-01,-6.507720273146043732e-01
-1.212812319830578606e-01,-9.868427626270762643e-01,1.382734474418470527e-01
3.947022123720969056e-01,5.323404159967833893e-01,-7.611194910584324624e-01
-2.246192547931634143e-01,-9.600328828955065896e-01,5.220931874808239226e-02
1.071429548719639163e-01,-9.950325705752181005e-01,8.835641544606563647e-02
8.758380829547491864e-01,3.708653463750999912e-01,-2.998025828050432384e-01
-9.260301572206502962e-01,3.089033506102266680e-01,2.020956151615683483e-01
3.136259742878159118e-01,5.802511239108029129e-01,-7.733481977948335473e-01
7.049770076895931492e-01,-7.041174876471115729e-01,-1.219608935720133958e-01
5.260859877101305981e-01,8.368384551423624362e-01,1.399516841113894183e-01
8.238506252050533663e-01,-1.699210810996928112e-01,-5.452053877603640908e-01
1.020887425678090737e-01,-1.003164510590986769e+00,-8.351057383288330860e-02
-7.562121449212639845e-01,-1.753877223438293220e-01,-6.119142615577781719e-01
5.367363415893632306e-01,-3.782670702442164634e-01,-7.475639628604981990e-01
-5.710976208124846076e-01,8.245357788525241594e-01,3.247851813736928744e-02
8.526224768611063709e-01,-1.891776103582464286e-01,4.950023142629856321e-01
-8.116567949314025254e-01,3.512908408370691293e-01,-4.542386381655984517e-01
-8.072921591128210395e-01,5.781995613921694366e-01,7.625168421733170832e-02
-2.253429672359084576e-02,-5.739269196487561953e-01,8.186321798301074981e-01
6.650076073085547934e-01,-2.589644907162476639e-01,-7.101046292540441618e-01
3.389985890134472601e-02,-5.759525823584020765e-01,-8.007985234812192710e-01
-9.519412890309767450e-01,2.501227668577061802e-01,-1.933647035316667373e-01
3.735516754950841678e-01,4.391770086961075403e-01,8.091687407572594193e-01
-9.703969131546189564e-01,2.126074334500558660e-01,6.663093356865890105e-02
8.534367119142688418e-01,-3.020697074902475854e-01,-4.417203036569877228e-01
3.773624382873907446e-01,4.797648993933496114e-02,-9.208269129812279852e-01
7.069105964533878295e-01,6.613252423376227984e-01,-2.384433779990449143e-01
4.326598557868190920e-01,-8.848712964361623579e-01,-3.922208701430104916e-02
8.271273306215984888e-01,2.616407616654436996e-01,4.841000004471738283e-01
-3.183529526444628388e-01,-7.497004525833504962e-01,5.675560713089253806e-01
-2.222879245629576228e-01,-2.817052686314808208e-01,-9.390770739439910919e-01
4.574487360633784916e-01,7.520496873288109452e-01,4.721974850308223726e-01
9.691996381523712012e-01,6.522448825164828268e-02,1.686965082422245132e-01
1.394050883754477943e-01,-2.792683194308596129e-01,9.650543527529027443e-01
1.371942225089883005e-01,-9.654214896380965971e-01,-6.273372145465884453e-02
-8.476768302617799788e-01,3.941560360078942282e-01,-3.719157063355398307e-01
8.578176740707520453e-01,7.418585767031111999e-02,5.204108325828233905e-01
-7.518947968048627084e-01,-5.025013157309013989e-01,-4.145843821208566315e-01
9.616334992704740348e-01,-3.737137038751330714e-02,-2.279933982460037034e-01
6.431908484921696756e-01,4.134912352653704604e-01,6.518479081966720434e-01
5.448291942275539090e-02,1.181578414837839985e-01,-1.000474689599578193e+00
-9.754412637023998078e-01,2.290803302488011173e-01,-4.966161975731343131e-02
-3.639731430158947845e-01,-3.205846939456028499e-01,8.671074959642190993e-01
-2.402301009789720165e-02,-5.707684551847114207e-01,-8.186952287415287799e-01
-2.567644536073538930e-01,-9.472080611187900789e-01,-1.684567445577445644e-01
3.748303844540621932e-01,-9.155399346959441909e-01,-2.167056207424319578e-02
-4.073325241377737660e-01,9.052522311905627506e-01,7.966157369828000268e-02
-9.075757375144956063e-01,-2.875781046836479726e-01,-3.032671124848211330e-01
-6.286573727918656207e-01,6.530587950926893814e-01,-4.431217937586812150e-01
-6.901359088037202216e-01,-3.252414874708842718e-01,-6.499483162251487034e-01
-9.431736611429701878e-01,-2.442529332454217161e-01,-2.134768834324859976e-01
-1.435120080582369118e-01,-9.849687763506240756e-01,-1.002266673151375014e-02
1.734130099226895427e-01,5.443773409654451001e-01,-8.226304392270537003e-01
5.780936818795563426e-01,-8.065270409248703753e-01,7.407932605367355261e-02
8.149673027214874299e-01,-1.229409608369867735e-01,-6.013423388830029248e-01
7.506128590290312985e-01,-6.513150306099606546e-01,1.103650759726861191e-01
2.407578294927866513e-01,-9.069077150047065716e-01,-3.501705013111393594e-01
-4.627671068708740232e-01,1.512450145817674230e-01,-8.699963459408531774e-01
-5.329643903912772984e-01,6.988875663991781506e-01,-4.853011124059120607e-01
2.260147577226391258e-01,1.852060568205043944e-01,-9.570264125652240272e-01
8.349331474639898332e-01,-4.081216377901679682e-01,-3.555652991673383667e-01
-2.379490923430855331e-01,9.599588972562564937e-01,-3.934998952821126827e-02
7.570156228022903999e-01,-9.236120766867007836e-02,-6.541613524745339969e-01
-7.604933368523841830e-01,1.967407294492565795e-01,-6.188855241873166824e-01
9.725042158825992766e-01,3.442158976862993436e-01,6.657935039002550563e-03
3.376149601133130451e-01,-8.292714765331578031e-01,-4.851240609870560161e-01
-3.753785417274075886e-01,-4.473253446325294383e-03,9.279505058036182641e-01
-3.105015828854539306e-01,-5.211949698160031064e-01,8.166580795384037472e-01
-7.306537466314125817e-01,-4.824988612293470286e-02,6.508243230825364600e-01
2.296564787684796383e-01,-4.176376335333616130e-02,-9.567838955074071672e-01
-7.433347951514674978e-01,2.924203881564054197e-01,5.813868350260161799e-01
-2.064473949184779042e-02,8.720911100299996721e-02,-9.805146548406979967e-01
-6.952008013418669030e-01,-3.533924017051717770e-01,6.297926863602101299e-01
-6.983682461432286770e-01,-1.978905590501911782e-01,-6.904489705345936423e-01
2.903031435347415146e-01,-9.454810783384907102e-01,1.568940595171932351e-01
1.383959062017375563e-01,-9.898270533015722794e-01,1.586550647161408811e-01
5.376132704118851136e-01,7.571996915837969633e-01,-3.186169997269988063e-01
1.121597178938174566e-02,-9.486024504542061031e-01,3.389265636507834412e-01
-1.420468957401567651e-02,2.608953835492905382e-01,9.808948816402850435e-01
6.831425091441238884e-01,-7.279533870458644307e-01,-7.118787691542756424e-02
3.342871954555976660e-02,9.490016234633109615e-01,3.418221053190544367e-01
-8.319417350121480759e-01,-3.973758796297765516e-01,3.870255911899000978e-01
-3.268455244459765874e-01,-3.661748714742042443e-01,8.797115142546926281e-01
-5.389147620981189490e-01,7.046200223278145103e-01,4.722565027962190021e-01
-2.278146276772776702e-01,6.511435962086874474e-01,-7.148002468235706841e-01
-6.165489436346514029e-01,-6.761844901632346749e-01,-3.992307198354471676e-01
-8.148165868373337117e-01,-5.399817481471336222e-01,2.285904117928826973e-01
-6.167912065179759207e-01,6.083282204641392577e-01,4.810207212477953242e-01
2.367846357288474479e-01,-6.105875984231472209e-02,9.800968790524069441e-01
3.400301783663609578e-01,-5.839215241483192154e-01,-7.393247460481821021e-01
3.796882220153707244e-01,1.025135164508337027e-01,9.227272028158590711e-01
-4.386532752288435089e-01,-3.260985950875021078e-01,8.376959650292441495e-01
-6.032392053088361100e-02,7.968269537437564498e-01,6.012676039632393055e-01
-7.207382157522870259e-01,3.446252538477338478e-01,-6.093245558557043307e-01
-7.833405703662151831e-01,6.116840211866831911e-01,8.202506730285671899e-02
8.835684242711158709e-02,9.448505420590780357e-01,-3.296894168233219791e-01
1.240675754855911639e-01,8.687370709668913449e-01,-5.017081297449558219e-01
-7.503595796487509961e-01,4.600173991587326316e-01,4.719078851407428887e-01
8.298865020017517358e-01,3.034634460042199833e-01,4.706393692991526767e-01
-2.706352757724200808e-01,-1.872850060008973139e-01,-9.352803029276436364e-01
-1.281013785949999990e-02,-6.208352504293541685e-01,7.955272595710699557e-01
-4.764608257668509483e-01,-6.835739793264340447e-01,-5.618391371339318541e-01
-8.329404895296478317e-01,2.255009485376082978e-01,5.114112535669901316e-01
-4.863427214591684589e-01,7.685694558076585636e-01,4.080969460944612326e-01
-1.824514370064546365e-01,-4.942827069159616560e-01,-8.470686375773839316e-01
3.054653347628653037e-01,6.793608122564380736e-01,7.142241937302808985e-01
9.187923464626446268e-01,3.577747243524819765e-01,2.321348734142102688e-01
-7.930819683875357518e-01,5.207207315677827575e-01,-3.246192698626874651e-01
-6.611622156335067446e-01,-6.858025351229932731e-01,2.396339281587297754e-01
-3.205650654312315884e-01,8.072884832707485359e-01,-5.174522740406239940e-01
9.778814826852496589e-01,8.449918655610529072e-02,-1.181900429687341020e-01
5.916562269204957980e-01,-7.830026633797448898e-01,-2.117299999199271088e-01
-1.405658706909715672e-01,4.813167063263664724e-01,8.684736826726416892e-01
-8.908484832288678448e-03,6.370033948530716694e-01,7.723710078898528009e-01
-1.761659864826372601e-01,9.386312210046163784e-01,-2.965565673011868464e-01
-8.583065620312438915e-01,3.615728491176877779e-01,3.453093926561927596e-01
2.804624090056965363e-02,-9.380771460837655784e-01,3.620387452502978887e-01
-9.886894842899329738e-01,1.486289077651838930e-01,-9.470971526533182583e-02
5.398068273586098531e-01,8.379294091188989047e-01,-4.395129298281734431e-02
-2.580796764446307012e-01,9.354842340085717245e-01,2.579768444808313577e-01
-1.519191595815344853e-01,-9.564831692173544342e-01,-3.128287898581583182e-01
-6.642550537107569930e-01,2.257915161655842384e-01,7.328789067570278259e-01
8.910822393102686423e-01,-8.509123557418549200e-02,-4.369738560388942705e-01
2.644733980511105864e-01,-8.616884047844319827e-01,-3.778506368239294422e-01
9.077082922857441227e-01,-1.948500969130103344e-01,-3.758039657412342582e-01
-4.153391449479711950e-01,-4.158966927765144206e-01,-8.156099124481299700e-01
5.784060049978506646e-01,-8.167928706338765110e-01,1.719818024191905811e-02
-8.990895723534485517e-01,-4.269313647971071934e-01,1.009948810045154799e-01
