6.401397894400063793e-01,7.189124248313687460e-01,2.758836609045423049e-01
-9.616516328315235507e-01,2.692974558825199649e-01,4.708843590044856781e-02
-7.167275814657598776e-01,3.461772546728934530e-01,6.089047945942089868e-01
5.511122856525587643e-01,8.114123775983212994e-01,-1.076581381939726301e-01
-6.905087138657221013e-01,6.453383280129488808e-01,3.621159507035293101e-01
9.183034833505323569e-01,1.582152438580121667e-01,3.327376822056872796e-01
4.639031467967350553e-01,3.426765381039756364e-01,-8.062086926421717648e-01
1.384854704354505639e-01,9.773584694261515660e-01,1.752309797866802854e-01
-3.329339866268758719e-02,9.956279345057200691e-01,5.100045333968782069e-02
5.103026197491089544e-01,-7.269744268329231263e-01,-4.414907437419779979e-01
-7.693889011554365664e-01,5.282743994617441485e-01,-3.868431497569486677e-01
5.303144147591042357e-01,7.042320049975202556e-01,-4.548455910608851238e-01
-5.897315727104663896e-01,7.668721257522278512e-01,2.696584446102472388e-01
4.467985626030598345e-01,-5.658121712401478209e-01,6.813552809055498649e-01
-1.909173701953082170e-01,8.178875744140338133e-01,-5.353758970991238098e-01
7.687483540254653747e-01,6.627740551044651873e-01,-3.652861202528066842e-02
3.600925213652394485e-01,9.284769605968191675e-01,3.240581743566257195e-02
5.909920750211582474e-01,-7.230398034584522016e-01,-3.628002045067220127e-01
-5.251079868839388931e-01,-5.384673770198172837e-01,-6.692219720655466775e-01
6.055539128288711659e-01,-7.080976755536386724e-01,3.341915627284328116e-01
-7.678504372466965489e-01,6.305615636256881595e-01,-7.104270483143509951e-02
-1.419216605249413454e-01,3.657124628677559941e-01,-9.009921212566245341e-01
1.890526570959097027e-02,9.528755256997017975e-01,3.002181769212501350e-01
8.338515055924516917e-01,-4.193664535976285301e-01,-3.564438717300054682e-01
8.318673310963763390e-01,4.853092688136261268e-01,2.397730338917908877e-01
-2.358173560646010386e-02,-4.679591792808547868e-01,-8.720528030961858246e-01
-1.806047539995792039e-01,-9.850933977437530409e-01,1.310054635135147506e-02
6.321872525113386709e-01,-7.584863766198862711e-01,1.841429877929472853e-02
4.094984570713082750e-01,-6.405137198386623432e-01,-6.474844444943290700e-01
7.530027286233197392e-01,3.027051556684301481e-01,6.080392345912231100e-01
-1.543504152369391813e-01,-7.226732768201957757e-01,6.793198558756844418e-01
-7.665613656153562605e-01,-3.678324944184790946e-01,4.843097148278155406e-01
-8.294695101639604218e-02,-9.596376831624299220e-01,-2.011708544722816405e-01
8.933296590075691102e-01,-2.238688251516867400e-01,3.708941154014739339e-01
-2.550101787621951721e-01,7.772185392314462371e-01,-5.354460323078567008e-01
8.892565284907973100e-02,4.081940598945242860e-01,9.132681298755292998e-01
3.520999078157093232e-01,1.134895087726160365e-02,-9.381123938272905027e-01
9.280079539500473151e-01,2.889607493846656494e-01,-1.304095857696464522e-01
7.383326280991455715e-01,-6.126321601297473052e-01,-2.534338064869213203e-01
-5.071226168928569811e-01,1.349301464279449303e-01,8.421505694374277207e-01
1.851095219534083236e-01,4.998897544440291107e-01,-8.300292840380575354e-01
-5.244623804691426194e-01,8.103419337745897399e-01,-1.938601142261874855e-01
-1.485778326759180090e-01,-5.781072747080443497e-01,-8.130790043401810996e-01
-6.022370543549052657e-01,1.099648286794130542e-01,8.002158239154050223e-01
-6.756812865511728772e-01,2.701736173859106138e-01,-6.644789792589580468e-01
3.710124352791724367e-01,4.402350571418087166e-01,8.267912689646743640e-01
-2.113196807367224983e-01,-7.182645656244257548e-01,6.747401531311360001e-01
-3.872846324063263790e-01,9.034479528649167479e-01,2.479945204874447473e-01
3.497806673291637969e-01,9.043811474539543704e-01,-1.814219900039229505e-01
5.743464684441276225e-01,-3.524897190384396750e-01,-7.203937678428663505e-01
-6.038006113660745466e-01,-6.039265957955748387e-01,5.123056879115917006e-01
1.801139255944906314e-01,-6.992300780130964455e-01,6.808828094928489616e-01
-8.969894281445047746e-01,-4.215429625397526525e-01,1.217244663309819813e-01
-8.030506680176412448e-01,2.289570222382545928e-01,5.284767522074184098e-01
-5.593345975486077037e-01,-7.302866700512331555e-01,4.150616200127597022e-01
7.346274916825803469e-01,-6.747591402525947579e-01,-2.129291250413221648e-01
8.240116932208722822e-02,4.821176756587460255e-01,8.794446738475960590e-01
-2.867644459702864412e-01,7.926370198406142986e-01,5.009796168549309758e-01
7.515599076108249177e-01,-6.392053528336784085e-01,1.375593873617430608e-03
4.474052206844902901e-01,-3.758262156421148248e-01,-8.192407005013784271e-01
4.666858759761945974e-01,-3.323477599691285755e-01,-8.075445150493649749e-01
6.909841057375396001e-02,-7.404977277002179337e-01,6.737748588583977183e-01
8.001310939533498034e-01,1.181994782656488746e-01,5.901926539616807466e-01
-8.539438004445873975e-01,5.053481208678739511e-01,1.426699819547114223e-01
-1.500933246317992867e-02,9.854085296538827032e-01,2.367824436202692062e-01
4.769028302190590485e-01,6.145553987001659557e-01,6.220178131249105569e-01
3.597655186435273489e-01,-8.288464896034399843e-01,-4.517266772668515062e-01
5.308175419414744578e-01,-8.421812395454838507e-01,6.042686394990331999e-02
4.446153350445084529e-01,-5.240680467881855265e-01,-7.228359123258681906e-01
-9.556859406638225085e-01,3.340996221007588862e-01,1.293107229661332458e-01
-5.708666673962514704e-01,-2.311336022841927740e-01,-7.767127947870771099e-01
9.102427061410091058e-01,3.152370128219165735e-01,-2.441316943104577808e-01
8.823500721285337800e-01,-4.111977695236107011e-01,2.366582655487483589e-01
1.312580852686491273e-01,9.722771390346195419e-01,-3.899908688926103512e-02
-3.878432432587950451e-01,9.049823557875713576e-01,-1.034241879084510929e-01
4.592355879699520083e-01,8.502330794450172480e-01,2.734161320469687406e-01
-2.845742519445958463e-01,8.313509451808034356e-01,-4.713828483599918351e-01
8.734434492032526753e-01,2.466583716079655542e-01,4.325487322748679531e-01
-2.503097616423412552e-01,8.500183420467221085e-01,4.704888788581919057e-01
-9.691958331710323060e-01,-2.267671534619402074e-01,1.025887503174881532e-01
-6.676819572301250227e-01,5.634777347893286104e-01,-4.502271533414058391e-01
-6.965085244980814272e-01,3.475626362613203346e-01,-6.205746772430474900e-01
-9.749335930371594294e-01,1.359967948093505630e-01,-1.835336075799543498e-01
-7.224228766243487865e-01,4.926112722390284249e-02,-6.883581966855484291e-01
6.035774221747524093e-01,-7.749728291481193798e-01,-1.404826995702471160e-01
-3.543506930769308449e-01,8.798457429003240238e-01,2.892236473003089725e-01
-4.972915941384331018e-01,-3.109613582055647529e-01,8.211974249108844326e-01
3.532301273936819253e-01,-9.290474710030776073e-01,1.364694548823465747e-01
2.135002703811054448e-01,7.841949343780255655e-01,5.880175194347956324e-01
8.942879107894853297e-01,-4.259312410473859445e-01,1.463614533329125333e-01
-9.594893444514841774e-02,-1.480639321953132193e-01,-9.953215476866945632e-01
-1.848571937297934994e-02,-9.940473920232305582e-01,-3.859468657265293506e-02
8.100812383430613384e-01,3.786547266539372347e-01,4.435131241873658814e-01
1.481663678594264399e-01,1.454933987696322706e-01,-9.889840863035476159e-01
-9.169680716838507495e-01,3.864603051323434735e-01,1.356669945468773342e-01
-8.205210367467179466e-01,5.068597139616356495e-01,-2.565151320159339554e-01
-5.631256862141504893e-01,8.346176480255174113e-01,2.235278031359634598e-02
9.510040205033083727e-02,8.821685928235639684e-01,4.543904860572631210e-01
-9.395585126248120478e-01,-1.839015155456098782e-01,-3.049742944696975377e-01
3.574202630389423097e-01,-8.583861741967512282e-01,3.913868147940361975e-01
-5.933236175987339767e-01,-6.422055198459427627e-01,4.476083062117382494e-01
-9.798516474902098095e-01,1.366508305287976732e-01,1.592352527879000168e-01
-2.319406905679751996e-01,6.484084098140491248e-01,-7.233523002343893449e-01
-8.785478748990975528e-02,-9.627028026199221378e-01,2.045692754005064562e-01
-6.667479229050541356e-01,-2.317859301540057815e-01,-7.043666671722947914e-01
-2.363260943065028097e-01,7.592729630585847156e-01,-5.870204796077890252e-01
-1.770896900523544759e-01,5.161671526849074265e-01,-8.322086211630828068e-01
-1.906211669404625220e-01,8.608054293256979239e-01,4.731976528732717013e-01
-5.536413779169101490e-01,8.147186499599584630e-01,1.119073119456145821e-01
1.592903024307570359e-01,7.844421552109648310e-01,6.241885091189764978e-01
-8.219670041563924279e-02,1.006421982675584692e+00,2.422854661113353278e-02
-3.743981291031750480e-01,8.213338624030774859e-01,4.155734252316173327e-01
7.254350950971623080e-01,9.526329861218187089e-02,6.970867679287419127e-01
-3.370431091162807147e-01,5.878182232658094586e-01,-7.731908192506155020e-01
1.385788322782175452e-01,4.491250419808874850e-01,-8.727486280675802455e-01
-7.315392594477344579e-01,2.906581477919651380e-01,5.871140659523291783e-01
4.781319335169695872e-01,8.414086396899993492e-01,-2.840691478014382154e-01
-8.209331685928566991e-01,-3.244629242108479361e-02,-5.590555190083479342e-01
2.730374983530101107e-01,9.326860681799290509e-01,-1.948005249375711623e-01
4.306824365530823595e-01,-7.444373997908941831e-01,-5.194835980043136514e-01
1.232633051899643950e-01,7.343454261113518955e-01,6.607685255205726360e-01
-8.151422570802204781e-01,5.931392556865341392e-01,7.266366551735499446e-02
3.690801318880043702e-01,-9.177126701184020741e-01,1.016880630011487152e-01
5.147871520737477002e-01,-6.331719079031675745e-01,5.816642799755366022e-01
-8.812192220861055914e-01,1.677265971619824048e-01,4.358881261404647378e-01
-4.368578609437615556e-01,-7.528353344408380554e-01,-4.572225650530948871e-01
5.584872830477204397e-01,-8.118145140903267887e-01,-1.372609613664567407e-01
-4.626980904328565347e-01,8.914462738617821014e-01,-9.333275589591986943e-02
9.005400196030500792e-01,-6.824506788608097896e-02,4.192743585798281991e-01
-4.075621369479363043e-01,-5.816855742567608178e-01,7.082349055384262737e-01
-9.964591496557800854e-01,-9.228022533009457018e-02,1.122122410847496352e-02
7.392056207252286626e-01,-5.848769193546859979e-01,3.089667175327424631e-01
2.096482396341434462e-01,2.101942392824685257e-01,9.563880727587465991e-01
2.010164238141451121e-01,2.569813016237142977e-01,-9.482348572780064933e-01
-5.876267312905696372e-01,-7.752550893044590774e-01,-1.856414652453650393e-01
2.013531594784778722e-01,6.980718791856024286e-01,-6.851266021790870520e-01
3.114866039514408991e-01,-7.457352085797037677e-01,-6.020693451185104017e-01
-3.433196914045701376e-01,8.033424830834293706e-01,-5.025836925494077123e-01
8.091240335592859712e-01,-3.998458380773686760e-01,4.139707523819109447e-01
5.440887620649698109e-01,-4.598321414742268520e-01,6.925405986066474062e-01
-5.391410540759656866e-01,-3.520575887244571933e-01,-7.863150273199163154e-01
6.517843314611618810e-01,-4.267936366618408917e-01,6.403057642795969562e-01
-3.504500538195410853e-01,-5.642828023269651494e-01,7.497802874161623166e-01
9.699297287464048178e-01,2.454620193952779250e-01,8.175000077735380954e-02
3.782752135047082742e-01,7.689139032602746449e-01,4.949215503556714801e-01
3.724930709380322447e-02,-7.558963417752169178e-01,-6.722461765926950328e-01
4.920501060142125627e-01,4.915397595814013920e-01,-7.208375278203833503e-01
-3.860065414747517187e-01,7.356187885727510922e-01,-5.576264521766812754e-01
8.989938385414905087e-01,2.875348763770072535e-01,-3.093093461784427456e-01
7.387687758467744725e-01,-6.731319669004363071e-01,-4.966896704881877678e-02
9.471620211898380548e-01,-1.936662180114924747e-01,1.345553319812724247e-01
2.254834698478320465e-01,-8.004111811436882551e-01,-5.504955770353530120e-01
-8.460585579118887201e-02,-9.523606292803407092e-01,-3.034686927153719127e-01
-8.850089580484222784e-01,2.134778397855472409e-01,-3.801872073123465645e-01
-4.019819699360008824e-01,-1.387220411763250838e-01,-9.195516901701643597e-01
6.314210767690583426e-01,-3.702101311983861942e-01,6.826861655536806683e-01
-1.045151574665871275e-01,-7.621463356064652750e-01,6.518469838722955600e-01
-6.228887127167831439e-01,7.827461617349807943e-01,7.599908086380162409e-02
-8.014695353877805406e-01,-3.688226409480143131e-01,4.320214091257226774e-01
1.271908033400920013e-01,-7.643771758800267380e-01,-6.348630827363885842e-01
1.415057152720334555e-01,-6.933516655523043193e-01,7.219091047253992643e-01
8.220861920734583439e-01,-5.123519168564063531e-01,2.641945454688670591e-01
-3.524584295277113921e-01,-9.201859654127115817e-01,-9.333291983886307652e-02
-5.608773399463938825e-01,7.599077803176977897e-01,3.492326345327840253e-01
-7.212420066454440504e-02,-9.184560846011829982e-01,3.317403821409340425e-01
-8.924020898927093048e-01,7.476833049725876978e-02,-4.373160380902230693e-01
-7.451876402490508200e-01,6.711773238976022071e-01,-2.192841558889365924e-02
-1.282142074699714196e-01,7.138725090547060059e-01,6.697642953683681233e-01
7.844397617297923508e-01,-3.689689519963078590e-01,-4.974860424946658810e-01
-5.511154719240520805e-01,6.127513765193814965e-01,-5.664584810218334932e-01
7.206450282534735408e-01,4.714663748065314741e-01,5.130390372294784118e-01
-7.217793975951587448e-01,-6.572100802368725514e-01,-2.349234050752689873e-01
2.834456115188677683e-01,-6.087779924556147026e-01,7.305347092358045469e-01
8.966326103981954176e-01,-4.213813517835535705e-01,2.235290800710383330e-01
-6.533652193824502907e-01,-2.058315535118919737e-01,7.179457307943551969e-01
-9.520176486377022185e-01,-9.708976593981040459e-02,-2.509959943967623452e-01
-2.234429932702060306e-01,-9.856583785988994872e-01,8.265498026175015223e-02
-5.660699860543143280e-02,-4.310151119790184282e-01,8.992731142112687648e-01
-9.635962398320645494e-01,-2.256524305978515610e-01,2.144591767980037478e-01
4.709223731432626292e-01,-4.630760371163376576e-01,7.465217157372716628e-01
6.976408799858666576e-01,6.910841387163937366e-01,-1.868684701585340002e-01
-3.313137496215063371e-01,5.537459897744807513e-01,7.847637031764733706e-01
-1.785124738886875173e-01,1.354750974134138752e-01,9.853233578633691092e-01
-2.002286352563991678e-01,9.005258159358715542e-01,3.778421536564333660e-01
2.029011217708380499e-01,9.399846795069669581e-01,-2.225866478929762748e-01
-3.142701543582745449e-01,4.947872106318720875e-02,9.371174409521267901e-01
9.707832853901903203e-01,2.426496537865435454e-01,9.993248118152798024e-03
3.494301117048450450e-02,9.903145894181095699e-01,-1.057404004057308916e-01
6.193375921461203859e-01,-6.619486268799384954e-01,-4.079211362654697193e-01
-4.053311876401197722e-01,8.724830040908555517e-01,2.704252441308184762e-01
4.493098413774280764e-01,-1.187561410077226792e-01,8.845808579391741810e-01
4.900297958504390983e-01,-5.788426462038961384e-01,-6.494366503712819538e-01
-6.870152927715940105e-01,-2.085684213480539784e-01,7.047768774179307139e-01
6.440691283172014225e-01,7.250130649604092925e-01,2.698431505696737287e-01
-6.789505366423342902e-01,3.223673770433104768e-01,-6.455926242351315292e-01
-7.566791304965678755e-01,-2.142370718369468741e-01,6.487715217504662624e-01
-8.256191049677737981e-01,-5.137601095803971951e-01,-2.499777559689287387e-01
-9.363045858814461608e-01,2.101202055859081597e-01,2.610127045621375985e-01
4.382852493793453763e-01,-7.987619507712705458e-01,4.350222140410593408e-01
-8.736164711910811009e-01,2.607434436461277261e-01,-4.287077557116552584e-01
-1.283723124621330147e-01,9.437235135986852264e-01,2.965453987708701611e-01
-7.191077896031552452e-01,2.718920602973697309e-01,-6.391740000849676084e-01
8.668553307781662332e-01,-1.653714079019289462e-01,4.863071302839876986e-01
-3.003714810126579815e-01,-4.175869257914913146e-01,8.599400539760712059e-01
9.114800787462439269e-01,-2.849706505183432492e-01,-3.187837264369104973e-01
-3.841028044640144579e-01,-9.051818669458195910e-01,2.302658336407596706e-02
-5.975628992028217956e-01,-2.633486310580971934e-01,7.614905942424365914e-01
3.881589161228733431e-01,-6.200855040798176204e-02,9.292483683533894201e-01
6.776959488806981735e-01,3.831827376868722212e-01,-6.159347826935702708e-01
7.535572134665843302e-01,3.465277293120481161e-01,5.625054490942656971e-01
-9.617130002182820991e-01,-2.073886140033495418e-01,4.677033790861482437e-02
1.575030916998116925e-01,7.760945902902632865e-01,6.052165475376143355e-01
-8.224842424996288148e-01,-4.114631593454206593e-01,-3.993749227373530886e-01
-9.318943190733202098e-01,3.085921432658851882e-01,-1.667963384722328801e-01
7.916979683685100300e-01,5.802716773976842601e-01,-1.817902377483784915e-01
-4.463394020160969533e-01,-8.919650153450314756e-01,-7.409778574795079786e-02
-6.831971544714934286e-01,7.241276792417714603e-01,-2.612966594169852108e-02
5.343021721884316788e-01,-8.170385947128997461e-01,-1.438290072745218584e-01
6.617911415413518794e-01,-5.257968124669323284e-01,5.460398923208482636e-01
-2.136847356279981958e-01,8.797773860491300835e-02,-9.621841638495958193e-01
-7.208381688832178336e-01,-8.345049944158695887e-02,-6.896869445783510022e-01
-1.686818117512917936e-01,9.593436524368605944e-01,-1.933149849040458612e-01
6.861710886614665883e-01,5.262953483608028282e-01,-5.287430253714591188e-01
-1.746515994514921677e-01,-2.419752369311459761e-01,9.638806070392004210e-01
-9.741344224618612990e-02,-8.016404934355342293e-01,-6.015548150358652757e-01
1.937371660985746620e-03,9.773729445529000248e-01,2.129852126244886346e-01
9.299734990014919545e-01,-7.613624562750731517e-02,3.074951571063452849e-01
2.783019714171575121e-01,7.318110032173373858e-01,6.292200113514573312e-01
7.030276414783696026e-01,6.977062900649090293e-01,1.012691318694898951e-01
1.157494234945573158e-01,9.222066598140957749e-01,-3.708032799816592395e-01
1.513319625140147062e-01,9.501444108891003992e-01,-2.860280560285912155e-01
-6.200452330447713267e-01,7.531590628608627602e-01,-1.385270461741918424e-01
-7.608603804294782336e-01,6.287765595169451105e-01,6.311492933057563214e-04
7.011729621591744621e-01,7.823026397689503142e-02,-7.085416640274072586e-01
7.114308354660582312e-01,-6.333895222829084848e-02,-7.068799751387434549e-01
3.139645533633819152e-01,-6.071076839602670278e-02,-9.203240498059874763e-01
-6.081134941180978970e-01,-3.676842127716323239e-01,6.942705367167468777e-01
-1.558370819500230070e-02,-9.464859766003131947e-01,3.117044235511998163e-01
-6.860570086577235660e-01,-4.361659382716298050e-01,-5.911313750419455726e-01
-6.716554183716209048e-01,-1.044621465400830639e-02,7.434648411842506022e-01
-5.358282481329586233e-02,4.339221665015343676e-01,-9.060421661748844224e-01
-2.455666324075763407e-01,-6.448940435897807522e-01,7.281507460050052893e-01
-3.583119215572037608e-01,-4.530305261807695549e-01,-8.135991400290473186e-01
-2.183701028868527960e-01,-6.755740045966095453e-01,6.952411931324916639e-01
-9.853072397372875102e-01,8.243560918262805848e-02,6.898491190636595050e-02
1.011709011123974378e+00,-2.031413144581083186e-02,-4.964437382938002852e-02
7.360652500263629994e-02,-9.784899919849170402e-01,8.753774234642383578e-02
-1.722803651076375009e-01,-3.575823169316811323e-01,-9.030935567051412427e-01
-5.388141889772458670e-01,6.352309475679690509e-01,5.340259510203235749e-01
2.827104899275360572e-01,6.109652473487447999e-01,-7.297296160149558952e-01
-1.030288591465510634e-01,1.625972481754831278e-01,9.838544493127134860e-01
-8.826343663280473706e-01,4.196241909566313377e-01,2.572052735617216812e-01
8.407722285830565578e-01,2.526672069818014510e-01,-4.912729194343586903e-01
-6.952123160139114244e-01,-4.818615994028377925e-01,5.219184110287472533e-01
-7.151280965141071366e-01,7.125567103145953318e-01,-1.086139208259832012e-01
-7.488158564824101138e-01,-6.309624236738052838e-01,1.209715357767155719e-01
-1.029884415933958602e-01,-8.157604468635966111e-01,5.768315558113927821e-01
-6.361102921783167163e-01,-2.975297961062932095e-01,-7.181223264800598027e-01
-7.998073310811122660e-02,-2.077115239280439007e-01,-9.732479991605521574e-01
9.802062121712541432e-01,2.151440936359073908e-01,1.113616427658374250e-02
1.223588920613678799e-01,9.860294569710514878e-02,9.939864530128343922e-01
-6.979295208793126482e-02,-8.300180277261244299e-01,5.584715106839658327e-01
5.720080523368901160e-01,-2.928864859921385677e-01,-7.514206333629095402e-01
-5.447524162795321923e-01,-8.124048645381144462e-01,1.797840847715891921e-01
2.063232317047918041e-01,5.953098609539002606e-01,-7.824057006602749276e-01
-9.351665245338635080e-01,2.189679477441968947e-01,3.276005540084500622e-01
-1.121136553436500871e-01,-5.652922164547311557e-01,7.958961718639689931e-01
-8.552118650593047988e-01,-1.188196310644763359e-01,5.052982668916085052e-01
8.533649553305253654e-01,2.111685168597565998e-01,-4.851924842357674961e-01
-1.468354923062443855e-02,-8.545805459592423770e-01,-5.238835751518603479e-01
3.627194134860503572e-01,2.081032980792088816e-01,-9.024061732029362570e-01
5.593272888057083669e-01,7.599255346545169543e-01,-3.147603324198747776e-01
7.151162341807202338e-01,1.536137528473045244e-01,6.660422371904142214e-01
-1.522880137104552500e-01,9.946372478923872773e-01,-2.833377922396247695e-02
-1.833625752208005444e-01,-5.927576076614328171e-01,-7.867240958170120813e-01
-9.679229618962541526e-01,1.274525837852283350e-01,2.490355115708023093e-01
2.510282634513019140e-01,-9.515443522682532906e-01,-1.084500988868847410e-01
-3.119819806831327091e-01,-2.011421237828227293e-01,-9.248261614414653442e-01
-8.454617585591656104e-01,-2.407768457450623345e-01,-5.103019999858489086e-01
3.825025469787592391e-01,-7.282020343705003507e-01,-5.725059752435923688e-01
-8.052075666499237949e-02,3.315474208347009566e-01,-9.614871643778988286e-01
-8.591000542298131426e-02,9.498166988651740583e-01,2.583022831168740319e-01
9.788806848428999174e-01,3.230621959506684016e-02,-2.301300014143606576e-01
-1.130861126405711126e-01,4.697251482562148639e-01,-8.932256799366814493e-01
8.960695908528936160e-01,-3.991254313270024001e-01,2.603469981126037003e-01
-9.176499212102325886e-01,3.679032114999812864e-01,-8.922009519535349653e-02
-2.145131988412323776e-01,-6.251816162890674322e-01,7.489502162141010722e-01
9.739836685469355215e-01,-5.315661305552994709e-02,-2.829499577461382365e-01
6.805905548415116524e-01,1.137227973121660851e-01,-7.240285264527369646e-01
-5.719794680136327525e-01,8.049140597009666331e-01,2.105317363448923618e-01
-3.308913438020130715e-02,7.773172164834720732e-01,6.449039217799169554e-01
-3.886897192590310635e-01,-8.448818016254104890e-01,-3.733013220328562087e-01
1.871917757476614097e-01,2.965731494340196339e-01,9.477486029131070300e-01
-7.556319100607551409e-01,6.570224420276329358e-01,-8.338035455217915337e-02
-2.180113482880471076e-01,9.498122948664827758e-01,-2.627399071022554211e-01
-4.134903368962725145e-01,-8.293486748891423233e-01,-3.597045647640707555e-01
1.242306576331467655e-01,7.527779409472836747e-01,6.593905108894886347e-01
3.524856136859430000e-01,9.044373525771665090e-01,1.747808163268166903e-01
8.486446004686787337e-03,-8.835312230190663918e-01,-4.623999079162678938e-01
-8.103957569280737516e-01,-2.255158253909377575e-01,-5.281905170550030837e-01
8.771523168290527028e-01,2.241571094460728317e-02,-4.967447482699968719e-01
-4.428659492576322854e-01,-7.400212441463156487e-01,5.199748352993350808e-01
5.188523704145786564e-01,8.580759182395043538e-01,-6.821147059873707008e-02
8.213967874426062465e-01,1.844181613743438031e-01,-5.509023066460472240e-01
-7.784537557015035469e-01,-5.262183472531727357e-01,3.069883000988105071e-01
-8.123244481500407899e-01,5.486588418251251431e-01,1.220469192945477371e-01
3.905225506967485161e-01,5.895073912115463832e-01,-7.077129002031786742e-01
-8.805311018320771677e-01,-3.387601652565105925e-01,-3.088221338245602521e-01
-3.815747865646502146e-01,-7.290730947224598191e-02,9.114056336836964256e-01
-5.945752041439007485e-01,8.049924840799101977e-01,4.798722279245243305e-02
8.021537777835220651e-02,9.640767311202108614e-01,2.714980676401695381e-01
-3.795178311983706809e-01,7.368833712437161676e-01,5.645014047388761114e-01
9.753877740496375015e-01,9.114741379792178078e-02,1.522364570277534024e-01
-4.810887723830022389e-01,-4.590480578092025477e-01,7.414175764554249426e-01
-8.030377149201661791e-01,-4.726099473157345243e-01,-3.157370512386292183e-01
3.598886977171659174e-01,8.312010282021815855e-02,-9.360134226514139622e-01
-6.099725722635443992e-01,-7.699399314742337852e-01,-1.915136487751453731e-01
-8.145557543756853924e-01,-4.337188533371933996e-01,-4.317886788813491417e-01
-2.779103333229805961e-01,-5.958324893759319174e-01,-7.391868772745192606e-01
-6.803338317774892952e-01,-4.839712775641138998e-01,-5.551251024196123263e-01
2.673199130071499674e-01,-1.194662158474805586e-01,-9.573593945067624400e-01
2.585616607620718210e-01,-7.801165058632761884e-01,-5.592254327228097788e-01
5.594470782922498220e-01,-8.087381322869920952e-01,-1.872331747048793515e-01
3.933798219669450147e-02,-6.821059399369189258e-01,7.447275004974718282e-01
1.293810575115259265e-01,9.078814346674251023e-01,-3.959926178488212822e-01
3.884092999800681234e-01,2.732723519089531039e-01,9.046219390696426110e-01
2.822481140188018989e-01,6.196023259044134424e-01,7.210206165041680437e-01
-9.194258653905433842e-01,2.908715620861353490e-01,1.963291468391374917e-01
6.363437484726119919e-01,3.938497140075788994e-01,-6.296275034586608088e-01
-5.658874613574625956e-01,-8.204850672760707342e-01,-1.806590547982290240e-01
2.939909397031044702e-01,-9.398247053997522693e-01,-2.056608069769694791e-01
8.170265797536038210e-01,-5.014050921170509767e-01,2.791014117098816749e-01
-3.010498851453612471e-02,1.005997431476523651e+00,-1.637726806031978843e-01
-6.566141197728562195e-01,-6.795345508619324848e-01,-2.674936250976077678e-01
4.035787851416910987e-01,-3.198647647166191210e-01,8.468015448057196748e-01
-1.666918500126132185e-01,6.640263808901670783e-01,7.169990798451182368e-01
5.246006597640392455e-01,7.979534838185324830e-01,-2.949081314366372997e-01
9.775311757468397866e-01,2.620144735125854440e-01,1.290860899381300435e-02
-4.661000677545689141e-01,-3.837115693676383943e-01,7.985977901283684011e-01
-4.297338494346372717e-01,2.876300965372046159e-01,8.567609532395699112e-01
-3.938174483612920107e-01,-5.774539412483354894e-01,-7.149171615581262351e-01
-2.880421959887225283e-02,-1.015454243588535643e+00,-1.301099150755933090e-02
3.631421869930649415e-01,3.833675779008957063e-01,8.542889459092002369e-01
-6.064790615259715301e-01,-7.624875775162061053e-01,-2.124244362266021202e-01
9.334239291207694356e-01,3.117520693399671305e-01,4.031595406952192401e-02
1.462853723674951145e-01,-1.529338753167053533e-01,-9.763325636787848483e-01
8.760259832429724280e-01,-4.342463568209103397e-01,-2.225829039641597507e-01
-4.468563598145142146e-01,6.538659692208103058e-01,-5.906136321322011939e-01
1.002700556502940765e+00,1.620604178154446684e-01,4.273646569139078616e-02
-3.909451677845594830e-02,8.079004006921176595e-01,-5.880272893396942813e-01
-2.587187504745471767e-01,8.875452029366818207e-01,-3.976923217499243601e-01
9.877039046002112910e-01,-6.064575532386944079e-02,5.228231760381030907e-02
-1.529184331670190578e-01,-7.361201818081098969e-01,6.214771477406317857e-01
8.272950891436738896e-01,3.245145459010322364e-01,4.592491382096144381e-01
5.871417895267786458e-01,-5.194872308041389442e-01,-6.061629613800451066e-01
-2.286985604928251092e-01,7.711542583228312431e-01,5.860784693519260902e-01
2.718063205554764883e-01,9.588217483690080201e-01,7.943137568363056733e-02
7.264478871199265830e-01,-2.785544053605475412e-01,-6.480593674440856544e-01
2.782758841837172925e-01,-8.254811919320412805e-01,-4.674294930234353940e-01
-1.340967167392685677e-01,9.872632315649715329e-01,-1.023334831035499215e-01
8.164569699971016004e-01,5.286200153757005804e-01,-1.873795775221881454e-01
1.213199000156137408e-01,5.312037928394663933e-01,8.535423376016570973e-01
1.083830954220866144e-01,1.063158413076890907e-01,-9.757004685567913782e-01
-1.007394927847659716e+00,-7.063220300289978215e-02,3.209768185474329294e-02
-8.392714276458005385e-01,-4.111610458623892600e-02,-5.539607011119045410e-01
-4.307893721762619532e-01,8.608735222400692999e-01,2.380216208358741925e-01
-1.348543367538500848e-01,9.824819401026854138e-01,-3.256993974229470401e-02
-6.005590793853532450e-02,-2.847992616098926622e-01,-9.620252589449262981e-01
5.997176231273130265e-01,6.480711529307910945e-01,4.826382993495468843e-01
-6.977160206371113560e-01,-3.444217146501534765e-01,6.525999432292614033e-01
-2.798135075051135234e-01,5.237117450131011376e-01,-7.956371577861932609e-01
9.639381343582007489e-01,-3.241492689760296364e-01,-8.880254326241766860e-02
-3.123991925423338922e-01,6.498714032612303015e-02,-9.330364855897503862e-01
-5.554572741857101148e-01,-5.370148625787813934e-01,-6.195259751918196223e-01
-3.446524680493437409e-01,-9.427360626349231554e-01,-1.306046622188073436e-01
-5.137449821361813607e-01,3.553589393002974384e-01,8.006041597343335203e-01
-7.808223493426068584e-01,5.505776741350680847e-01,-2.342008918896511527e-01
-7.838036178146472188e-02,-2.108406901531177380e-01,-9.760895281905934695e-01
9.243764250792545489e-01,1.100628084595014211e-01,-4.163648203019357785e-01
-1.777735975443667932e-02,9.291738398995996739e-01,-3.795344049475938841e-01
7.547846042182049242e-01,5.425558656693308945e-01,-3.783679047570438492e-01
-9.449687683035529195e-02,9.464363070922940935e-01,-3.292679307286915380e-01
3.933857682739146377e-01,4.444729324214101163e-01,-8.056212404120385306e-01
-7.950005821298916642e-01,5.909070947248969974e-01,-3.559138840041144863e-02
-2.834753011163488323e-01,8.627682905794761270e-01,4.331192443319246133e-01
8.070468008834633666e-01,1.930200085174470503e-01,5.757062120198750410e-01
-3.128377591666506863e-01,9.288006641268170549e-01,-1.750538294256242522e-01
-7.581655003251860370e-01,-4.750897672789930470e-01,4.542962786394587060e-01
-6.497931099579303815e-01,6.568619040779722917e-01,-3.815763545103036392e-01
6.584901251453766369e-01,7.230882639557623115e-01,-2.079508077352995588e-01
-4.043492697187786589e-01,-5.292410884320905007e-01,-7.498222487138171966e-01
1.793675308257760004e-01,-2.355899459541865026e-01,-9.494097606683653545e-01
9.843510534472873497e-01,1.513449209069022694e-01,9.774127720529601770e-02
6.173885776476857323e-01,1.218417217568467242e-01,-7.686854950816769394e-01
4.349944064648529896e-01,-8.497332273056379393e-01,-3.010147612336639411e-01
-1.185023180023747451e-02,-1.041159328772384152e-01,9.910731391364938636e-01
5.472733088123815648e-01,3.862629393641290321e-01,-7.353113868545456677e-01
-4.790052592544450510e-02,9.277324049918447280e-01,3.929653609821732729e-01
-5.287276800207625360e-01,-4.649865836826349019e-01,-6.929827417209980522e-01
5.211873455438469360e-01,-7.033858971405866356e-01,-4.946375107597431597e-01
6.277122611496870341e-01,-6.125021719747135718e-01,-4.771892044703639479e-01
3.256902293209318899e-01,9.479175120209019090e-01,-3.298394050019428508e-02
8.984148017358325466e-01,2.918604682187538324e-01,2.723965654706518857e-01
-3.880434354500524041e-02,-8.425853257138317121e-01,-5.221375969254775651e-01
-4.391866274751279331e-01,-1.054133133053434535e-01,-8.913682628454764334e-01
-4.438694283301392596e-01,-7.542798146747403676e-01,4.658309040090941600e-01
1.598603673181044349e-01,6.023527901238873161e-01,-7.683115204663322206e-01
-4.699949989959819052e-01,7.135156316044203306e-01,5.158885460265469902e-01
-8.102405939291279502e-01,5.516769195393975700e-01,4.924483948854412735e-02
4.474337099718482258e-01,-8.671043715054298495e-01,-1.274033221310368891e-01
-9.102240696436740830e-01,-1.468409544965995905e-01,-4.036316062311682273e-01
5.532355033918786580e-01,8.168978587306657824e-01,1.240982958148594967e-01
-5.174801485338557105e-01,6.663165125189224325e-01,4.955134380882719736e-01
-5.075391349748222813e-01,4.071665206241374957e-01,7.595792107503174240e-01
8.159652967760149256e-01,-7.891143979762461902e-02,5.452571392061800193e-01
2.188247290441512616e-02,8.900079886948748520e-01,4.578284012269351333e-01
-5.175552934503448999e-01,-7.605946628932216402e-01,-3.911202774679435334e-01
9.754659595677794837e-01,8.353999055498520510e-02,1.373510285921609175e-01
9.575592551119832541e-01,2.707319902880427342e-01,7.678322264524156671e-02
-1.750869834531666169e-01,-9.890161927467654157e-02,-9.775294734596530200e-01
4.124877118117287189e-01,-4.110831126427139798e-02,-8.983429836803360491e-01
1.792125616728917625e-01,-3.064407136230784534e-01,9.344401639471283660e-01
-4.382972182724536592e-01,8.748886873503708417e-01,-2.231582131272928371e-01
-2.495703381982708746e-01,6.020191839970633063e-02,9.624101248310303891e-01
-4.424944106203622107e-01,-6.251394080752140647e-01,-6.375662823579090199e-01
-5.727051729288262782e-01,-8.223732620239645463e-01,2.810504859852472684e-02
-1.319428196653079088e-01,-2.913113301793767707e-01,-9.536535919166317932e-01
-1.353268338389632675e-01,6.895507240211292688e-01,-6.917481106700035243e-01
1.752186991924081505e-01,9.680164759260666552e-01,2.146422233281753411e-01
7.526672747862322987e-01,-2.883669374167532884e-01,-5.725088356372836085e-01
-7.352444476482022928e-01,3.706837186241684901e-01,5.917223551240243795e-01
6.686212279795423763e-01,6.592090545497644172e-01,-3.543106417824101739e-01
-6.099386167867644204e-01,1.649705834339557642e-01,-7.630588185766196130e-01
2.150422449530123292e-01,-7.902037535895714004e-01,-5.628288661167881735e-01
3.076747552102247485e-01,-4.940159676890268359e-01,8.186505359274723892e-01
-5.779108536165179499e-01,3.779031060321835223e-01,-7.043507385957304967e-01
-5.193750237170698947e-01,7.019517922743696847e-02,8.576466158674489471e-01
4.120714306622227929e-01,-4.762105603010215182e-02,-8.899008052935080126e-01
7.339688791596570283e-01,6.738511011516267191e-01,-1.833306240812158233e-02
8.041808078723932107e-01,-5.590747530716498881e-01,1.898635820883089187e-01
-6.726662896233722710e-01,2.312637915340343686e-01,6.879975163332128218e-01
-6.023940896884574236e-01,-4.728290183087713316e-01,-6.224109219208515675e-01
-1.317000553637016069e-01,8.489173887861449774e-01,5.171699793712908333e-01
5.443449344269282175e-01,7.825496476456980099e-01,3.252506360284476150e-01
-2.796340491259781055e-02,-2.009907027461790494e-02,9.768038561775631567e-01
6.504694190533928666e-02,-1.751188172504725415e-01,-9.900694593903518470e-01
7.105671138191459457e-01,2.158398711553876914e-01,-6.629504219045272428e-01
6.654541810210006236e-01,-1.254313202618559941e-01,7.334263073560867152e-01
-6.471105807924053543e-01,6.981761994289533702e-01,3.096177502863701192e-01
-5.056319858088248465e-01,7.506565376075705620e-01,4.045995510992946298e-01
9.114359799066099610e-01,2.411150500360804694e-01,3.026053361997406710e-01
-6.936692223271685442e-01,2.595062750625356518e-01,-6.507952121339173335e-01
-8.303507095542072003e-01,-4.352702270596763290e-01,3.398742562739467399e-01
-6.418914939599329461e-02,-1.294738102429021376e-01,-9.842648335994503839e-01
4.286617039961168052e-01,-7.635157610649726534e-01,4.651130948879466653e-01
1.662944481180898826e-01,-3.328891284520111848e-01,9.301311835727131827e-01
-9.238156668745767242e-01,-5.525718475024852389e-02,4.087095951690678519e-01
-8.158540166845884567e-02,9.728034620848391434e-01,2.859879929267382659e-01
5.001739027661145087e-01,-4.901539848330798699e-01,-6.897166813225127369e-01
-3.214744889519098314e-01,-2.898062791571620056e-01,8.992282901320300947e-01
1.322749016950488243e-01,9.774548930644304523e-01,-1.981574099688292179e-01
-6.327764826611673686e-03,-1.007791337312690327e+00,-4.499198618262964522e-02
-7.322736840558150551e-01,1.931514873012149247e-01,6.629457507398980320e-01
-3.962634183305783764e-01,7.272065353369870921e-01,5.649652888083367408e-01
-8.811516883347236817e-01,7.509518859035485550e-02,4.795931137495835772e-01
7.890434365795201410e-01,4.546107536175900132e-01,4.061206468280829096e-01
6.614289271949690407e-01,-5.578081331486122174e-01,5.387777621626526070e-01
-6.859464994848296637e-01,7.665805312159368334e-02,7.278929680250391110e-01
7.294725492027692715e-01,3.335031338799400169e-01,-5.947084227770471632e-01
-4.112722876300942132e-01,-1.844232501644159916e-01,8.864924563628341359e-01
6.689214934052254424e-01,9.373541746436191147e-02,-7.190709729478265144e-01
1.718875236024461073e-01,-6.309664754814892085e-01,7.572006220161170420e-01
3.020436171870377606e-01,-9.625748816624246640e-01,8.410031142303620380e-03
5.120823172413841995e-01,8.699115679049206351e-01,-6.373957109696094803e-02
-2.504752078586207076e-01,-5.198787542477686374e-01,8.271597048647358896e-01
8.578113841923180882e-02,-8.278179685622319983e-01,5.677929332911040294e-01
-2.071569863052763472e-01,5.274913692376728136e-01,-8.281303337933381137e-01
-3.177313198267974204e-01,-6.158760488861336757e-01,-7.293855034145902971e-01
-7.336855190324874654e-01,-3.006904548935076527e-01,-6.261505082464542404e-01
1.579135218661409379e-01,9.278020617347472188e-01,3.629150110956588793e-01
-9.643521522752254160e-01,-1.831296036456462051e-01,1.455955731662189334e-01
-4.253909558563155890e-01,-8.304179117595913429e-01,3.491322681805977268e-01
-6.671011966482387479e-01,1.846427461527820890e-01,-7.400615065480337096e-01
-4.362735857147030383e-01,3.102983076260515949e-01,8.531384779006047081e-01
-7.778221607225601630e-01,5.612900359108798920e-01,-3.260481120392698662e-01
-6.906338592696616985e-01,2.569927006872981812e-01,-6.779436025037598457e-01
3.908725517794669480e-01,7.812437483085155066e-01,4.604692423247485067e-01
-2.026692936747821194e-01,9.608098698777436386e-01,9.422738605812608359e-02
-1.677527468771094210e-01,-7.566574031630413089e-01,6.325613004671959416e-01
1.072870417189019654e-01,-6.582898738437259478e-01,7.515173693925650822e-01
3.530236203784616889e-01,8.882003985465604101e-01,2.446055989659922103e-01
3.858531429589100448e-01,-4.666999438813572709e-01,-8.112794919228533130e-01
-8.990614021492318031e-01,4.216719959860159572e-01,1.392488782063353858e-01
-9.285684152720132811e-01,-3.846808223694979101e-01,-3.696405666252691041e-02
4.248176423121333145e-02,-7.602288082727977070e-01,-6.464462722591696187e-01
6.887361590148893820e-01,-6.488449159289688684e-01,-3.097526317987442379e-01
-5.262766738889124163e-01,-1.153401281302179615e-01,-8.352319096960501010e-01
-2.057776285171823982e-01,1.050921817240237643e-01,9.672680494671778151e-01
-5.423927637244005950e-01,-7.507625631183443282e-01,-3.569519885166924089e-01
8.975808125864424003e-01,-6.807529536086505406e-02,-4.069351955982747904e-01
