-3.044103583855565787e-01,8.262736620819288724e-01,-4.767934437600855890e-01
-2.539649269566923717e-01,-8.522066504763285977e-01,-4.569003657556893749e-01
-7.727753278655298264e-01,-5.355850598457371214e-01,-3.467983605480212672e-01
3.395199019575852878e-02,7.216650052096770240e-01,-6.721249550893080293e-01
-5.886004862306504215e-01,-4.624958692774833735e-01,-6.812039648969094863e-01
-2.043140427239278911e-01,9.594743677319815811e-01,1.291991706378332050e-01
7.874453497430765614e-01,4.434442627475198018e-01,-4.072994015106710108e-01
-3.389567864400399588e-01,3.975207723108785118e-01,-8.556864098870339275e-01
-2.501863243248108604e-01,2.232254615250690299e-01,-9.394475382112899009e-01
6.522428354656933935e-01,2.599780658701236757e-01,7.005750114383234584e-01
1.459442633346082763e-01,-6.500726816342293768e-01,-7.594646308119383793e-01
3.873970645558367232e-01,6.366098089989360442e-01,-6.547610804953998276e-01
-5.067448765661629606e-01,-3.452636906211836720e-01,-7.953580802817697970e-01
-4.755784280685740328e-01,3.627822744714365721e-01,7.913479434298713588e-01
3.263000139500104035e-01,-3.742174993751474360e-02,-9.402897379774451947e-01
2.954948134379074484e-02,9.015381053966945446e-01,-4.668336878407809976e-01
-1.553867981696664125e-01,5.826982771751357815e-01,-7.931606949651903715e-01
5.884204955621642474e-01,3.472240606537459473e-01,7.327202403500748806e-01
6.679878445407111398e-01,-7.136464965213346057e-01,2.409242193053316439e-01
-8.622012776873246021e-02,4.416201032989461317e-01,8.816573223171607632e-01
-1.793009634502561733e-01,-5.882193329805734949e-01,-7.836443238009709322e-01
7.765922220708152413e-01,-1.438788446059657555e-01,-5.847029711600877366e-01
-4.743680812010616643e-01,2.901151142848963360e-01,-8.302218223487241033e-01
5.619349533543246400e-01,6.576442528921165875e-01,4.999619328632630144e-01
-1.926097996353974273e-01,9.481319947710475926e-01,-2.212840624613175156e-01
9.314274045949760827e-01,-2.359088333704860707e-01,2.383442791899612612e-01
1.515265357715650796e-01,-4.192603778519520819e-01,8.969164667240706601e-01
2.333700590487452209e-01,4.198774093592000378e-01,8.628689175099100162e-01
8.181787796086035236e-01,1.620524122285856572e-01,5.490950899402988750e-01
-5.256658340032352994e-01,8.669916944029167905e-01,1.886966302656738204e-02
-5.400516456657399322e-01,-2.549511448664722457e-01,8.067839339289153422e-01
-5.201537353956561249e-01,-7.762427249803840468e-01,2.904484369897241680e-01
3.695477324597165603e-01,-3.425136198902067886e-01,8.452060612306143694e-01
-1.702377665120962391e-01,8.438488883866401835e-01,4.946268611776180602e-01
3.239852880654282563e-01,-1.092704233978154804e-01,-9.159120100747886184e-01
-9.489830104706443725e-01,2.883029760816985254e-01,-1.578020251285304210e-01
9.619766761074157735e-01,2.383330172225437693e-01,-1.481764311526676814e-01
2.194963986206651951e-01,9.506608765194634048e-01,-9.883808065677564259e-02
4.848080964293086104e-01,5.286441421755926351e-01,6.856955652412397573e-01
-9.229675229817833060e-01,-3.613074173016289081e-01,-4.674373013365221152e-02
7.345191263899777390e-01,2.121027470971298123e-01,-6.233762842118846237e-01
-5.645202965306733017e-02,-3.225594656148432771e-01,-9.284746316076748496e-01
8.758009831741755402e-01,-3.772617776141526935e-01,3.286746868172422675e-01
-8.928960251755183597e-01,-4.636585215984869168e-01,-5.370811488073310574e-02
4.802789210538617182e-01,-6.551904510749764210e-01,-5.577893233250080796e-01
-8.260127127306788886e-01,5.581356563971001661e-01,-1.457001117711773375e-01
-5.457032988032234355e-01,-3.091418002315085012e-01,7.889699138564447711e-01
-4.798615416780514509e-01,-1.186902021948539609e-01,-8.850731093796819771e-01
5.446947351167176488e-02,5.432253904452443161e-01,-8.216477135581420344e-01
8.588049919604416882e-01,3.848017871928985922e-01,2.957560125269777518e-01
-4.745473008861492703e-01,-6.758194976051867808e-01,5.566259921528903254e-01
-4.920644307435573239e-01,7.278320292492743149e-02,8.588016824757280787e-01
-1.800488263578623738e-01,-9.550255855883751366e-01,2.293772006370659311e-01
-6.859417978163232510e-01,-6.568451240572005245e-01,-2.731990191605394580e-01
-3.485005852108379876e-01,-6.754287499076090384e-01,6.639226662668974432e-01
4.572343998223103445e-01,5.139572502741757143e-01,7.530610265382636781e-01
-9.318415541944634617e-01,2.968436433640722627e-01,-2.370770117871696114e-01
-6.865080689020374161e-01,-2.197575277201360353e-02,-6.997939745532736344e-01
2.457381990291115648e-01,5.627230823664878256e-01,7.722584672165215824e-01
9.384484363130144446e-01,2.459900774825421743e-01,2.671619646944350390e-01
9.217193682902535823e-01,2.767217384414485948e-01,2.328891791626181984e-01
-4.950453534181423199e-01,-4.511926067505384746e-02,8.717673920707874613e-01
-4.645578528214457381e-01,8.640948198822250292e-01,2.000859730171533901e-01
-3.753251128932068026e-01,-6.789176937297596304e-01,-6.349435298558133711e-01
-4.248925333892809575e-01,2.586778910551269517e-01,-8.831043311702836407e-01
-6.450729169718996125e-01,6.811704038147029516e-01,-3.345274579813198867e-01
6.577930193479588628e-01,8.852453949828303914e-02,7.615421671129277703e-01
1.927748500053790837e-01,3.060157036420460552e-01,9.294515346653875465e-01
8.738691631753978672e-01,2.167384883285005670e-01,4.291840902192213814e-01
-3.452403528649888864e-01,-8.211792506963448979e-01,-4.981497513035979541e-01
7.041998596178317138e-01,-6.924176236160400899e-01,-8.517424408272571135e-02
3.214446964256406081e-01,9.276574565208236534e-01,-1.537575786874628703e-01
-5.414427367251828209e-03,7.715578297826373166e-01,6.389848115380794003e-01
-1.319457986246768411e-01,3.657378539040794796e-01,-9.016088826441692738e-01
-1.403952909637356528e-01,-1.574861975742467002e-01,-9.672638048235130404e-01
-3.570693487866580251e-01,6.849371207612330315e-01,-6.418041887247029065e-01
2.466192973751034079e-01,-1.170873259028520214e-01,-9.590610871711717778e-01
-3.254625411820326608e-01,9.494798360056589948e-01,5.834717078800325668e-02
-6.623897084256941126e-01,2.412059994542115060e-02,-7.531294805998097752e-01
-2.114640595295758652e-01,-9.777401665109470841e-01,2.440235512084336714e-02
2.167830555072929599e-01,-5.503952300778548468e-01,-7.849083008685385776e-01
4.192557400357634356e-01,-6.509898666048131721e-01,-6.256785587533245652e-01
-6.906425624422459809e-03,-9.237643670504110949e-01,-3.863766550855818882e-01
5.391850723238843512e-01,-7.581623350064760070e-01,-3.641810124517263492e-01
3.856488163219199961e-01,3.707540624998153511e-01,8.357274645270962310e-01
-5.097730969893632391e-01,-8.839883708921719707e-02,-8.459670787499742328e-01
-8.135686123803562708e-01,-4.659566171086879094e-01,3.732983398036894829e-01
1.075631306574722501e-01,1.217954836099112426e-01,9.900104400899250034e-01
-6.881044757618853813e-01,4.666281679572440999e-01,-5.613190242852436063e-01
8.673556849920495415e-02,7.694159189671040400e-01,6.348748296343443842e-01
9.761279285889524759e-01,-2.388571753536176401e-01,-1.091587199378339507e-01
2.295027923235202216e-01,-2.712656125229461201e-01,9.293572644676652006e-01
-3.722311529720006562e-01,9.228404558336661401e-01,-7.825834072531646923e-02
9.518499267601804315e-01,7.023238933755644731e-02,-3.320545934427557300e-01
-3.554050044458434421e-01,-7.701131883912964993e-01,-5.377736561236589052e-01
1.583730139157490252e-02,-6.902890543093643805e-01,-7.205634987422327997e-01
-2.765722567347265182e-01,-3.298830157875343172e-01,-9.104294516090380984e-01
-5.972611277773071103e-01,3.626235760622181781e-01,-7.109989548401778325e-01
1.790690393724786167e-01,-9.833047052822158074e-01,-1.031766546321568889e-01
-1.521636794906592594e-01,1.715745241158877776e-01,9.824296944798919240e-01
-4.027680395192621554e-01,-6.824550775756322851e-01,5.803852290882630660e-01
-3.393229402611708800e-01,-8.906382291004184548e-01,-3.094544447593198799e-01
5.347316589033871415e-01,-1.400425449090410557e-01,-8.318164693578420366e-01
-2.303658735543452282e-02,-3.033855940528711881e-01,9.401011835218803236e-01
6.188524846692884385e-01,-7.768433366733702439e-01,-8.914002705743834243e-02
3.804086902823410332e-01,-1.014711770432625421e-01,-9.066042837688427225e-01
6.748431346323032765e-01,-1.324151691969663036e-01,-7.193145651090551151e-01
-6.574723010790687328e-01,8.453105821652455443e-02,-7.495486032524540931e-01
-3.577396135328088089e-01,-3.159026855130918077e-01,-8.689282839200358488e-01
-7.319028352546652627e-01,4.185290621804629296e-01,-5.652307971910235374e-01
-2.343248044296514232e-01,1.759532483731792163e-01,-9.666234363280731268e-01
-6.237210271608466527e-01,-1.084572756688022416e-01,-7.659462409311592612e-01
-5.755146945826016269e-01,7.982565788330049372e-01,2.298486587991411256e-01
5.778257699921923729e-01,-2.618015128486416709e-01,-8.090301053623852878e-01
7.782734760788143635e-01,1.499239231972826769e-01,-5.953324932918631074e-01
-7.431968993027856518e-01,-5.661475503449708846e-01,-3.024402313439557011e-01
1.868651438510836593e-01,6.395954521500346601e-01,-7.571479387337675115e-01
4.142437070996067283e-01,-8.591767770631747458e-01,-2.788270420981199260e-01
4.943694841637569920e-02,4.750404461815636026e-01,-8.685001925288536873e-01
7.182195144512936169e-01,1.704451795617968612e-01,6.816500434854599888e-01
-7.632712032534435531e-01,3.753401573650040346e-01,-5.173093157182688806e-01
-3.185820858937140065e-01,-6.272846561572288371e-01,-7.256517752324095349e-01
1.415386889027025197e-01,1.360571815131285112e-01,9.747883840658169152e-01
-3.549442966572023961e-01,4.003211585821175311e-01,8.473507702005066422e-01
-5.970215483604668361e-01,-7.575608796816434287e-01,-2.536627123742674073e-01
5.193259636351772457e-01,-6.592055668630305565e-01,5.122566442281877297e-01
3.824728525745368368e-01,3.185036039377817096e-01,8.614298540514621072e-01
-1.596053072128724715e-01,-2.317651103863282991e-01,-9.686527060368397279e-01
-2.464147473450966630e-01,8.951241132411023038e-01,3.597961897312786927e-01
-6.366549512463679505e-01,-4.599575123475861393e-01,6.238359111845955818e-01
-1.539170191152942624e-01,-9.802883599666283310e-01,-1.300641200746238402e-01
-6.439894791330606771e-02,5.982868721740822737e-01,7.885886044956322838e-01
-9.322822199784847053e-01,3.595089682597291669e-01,6.644781694859279442e-02
8.991008847684848204e-01,1.534978869968246784e-01,-4.167161315335961014e-01
2.366933331436468502e-01,-7.799707852807484798e-01,5.625035311818346040e-01
5.581004815552803588e-01,2.933509551712739083e-01,-7.744126638575908883e-01
7.790625901079226701e-01,4.639694431384296797e-02,6.376058393245164213e-01
2.727903868836979440e-01,-1.840417696928536295e-01,-9.526447162932999424e-01
-1.909672839481281748e-01,7.234740980170930591e-01,6.527226866736868249e-01
-4.914662975498400588e-01,4.841578720634547306e-01,7.149424405840361096e-01
7.423598122160194324e-01,-6.932799902593724806e-01,3.425942892553778679e-02
-4.300161636309747237e-01,5.902783343060056254e-01,6.954312919821902250e-01
-6.710121866063544216e-01,-3.960957009280288710e-01,6.294852196470123173e-01
2.963783905240452432e-02,1.003404124837775635e+00,3.241197628307810642e-04
-5.684176311773631030e-01,6.110383551638269850e-01,-5.317909306022857718e-01
8.045663303110015541e-01,-2.276264266760720245e-01,5.705619531130617927e-01
6.802083156284350896e-01,5.172286724830845728e-01,-5.226112621284146886e-01
3.324141740109440302e-01,-2.481309667023151033e-01,-9.105026922583423499e-01
3.880975352967213632e-01,9.027253160228517759e-01,-1.449337966455452598e-01
2.996955152006198220e-01,5.363010481748423652e-01,7.898840036437556611e-01
6.110384486334596854e-02,8.772083660851593967e-01,4.236737404666540696e-01
7.260088780345101966e-01,-4.435790895755727103e-02,6.822680699973603380e-01
4.667831253677199865e-01,-3.535336219079805442e-01,8.144750816006287586e-01
1.826111899449394393e-01,-8.394734092612705645e-01,-4.850706185284480165e-01
8.515139783337610790e-01,-5.225223814310443471e-01,-1.682347329251634716e-01
-4.854056395754855480e-01,5.895409340701062151e-01,6.470172873985453599e-01
-4.976714205469291996e-01,-2.199383902444650707e-01,8.489082441992844563e-01
-3.279364566323001995e-01,-3.944693098862096514e-01,-8.621539342845377929e-01
-4.750377836354831573e-01,-8.158151560750194209e-01,2.716814123390248747e-01
7.846266988765022710e-01,-1.391372356725523174e-01,6.070443759246412219e-01
-5.391403040779209066e-01,4.163555626236084550e-02,8.541120348278219421e-01
-2.193258682842595675e-02,6.912617791638357989e-01,7.278770954371596158e-01
2.139165752797637654e-01,-5.799768402650412602e-01,7.730114830906898993e-01
-5.776665721988138991e-01,-3.105078740285519556e-01,-7.641288174161237068e-01
-1.521668082613574224e-01,-2.631776225849585815e-01,9.308050076356099156e-01
2.638984993317468053e-01,-8.876454632704533498e-01,-3.683208167440257808e-01
-2.311080359136045981e-01,-5.508378894130088188e-01,-8.058729242428438466e-01
-8.086293682351770595e-01,1.293275439394204196e-01,-5.513891409319524595e-01
6.804496640344751546e-01,6.072473546057034488e-01,4.089194234035553044e-01
3.383717188657690000e-01,-4.387094166538665352e-01,-8.325300902388329538e-01
-4.721589742412340973e-01,8.677380649366900345e-01,-1.700453079164716275e-01
2.394774937841614160e-01,-8.848187400254663437e-01,4.096656220389366942e-01
-5.411274736198263824e-01,2.003059916071477931e-01,8.072741710261366332e-01
1.159253155767066105e-02,7.812975147720001567e-01,6.487814253822332677e-01
-7.596002857096600946e-01,-6.010609587467259374e-01,2.154807195688424326e-01
1.078068314588047777e-01,-9.675853797623175101e-01,-1.758386622223644669e-01
7.744187476418155913e-02,-4.529549341489403913e-01,9.039444894289521137e-01
-7.942216023780976908e-01,-6.362670340260838386e-02,6.023572045877086945e-01
-3.189673099460433314e-01,-9.597732983689335473e-01,5.024482351338951935e-02
-5.548697484653877243e-01,4.189098016265643820e-01,7.142381326173530276e-01
1.578831697464741779e-01,8.237139760738875216e-01,-5.438640452204739351e-01
-9.212593691093540205e-01,-9.351503028456867317e-02,-4.180832520467003266e-01
-1.008382700337776328e+00,-2.937296013991071847e-02,5.817115931706569321e-02
-5.746064018813369367e-01,7.476428587621050670e-02,-8.111970963321692984e-01
6.353103095833328995e-02,4.063585193909043936e-01,-8.972855958766500217e-01
-9.668379791337721185e-01,-1.868065384860114198e-01,9.864386031823013656e-02
9.972420335299976568e-02,9.956292395310201160e-01,-1.328184249810912890e-02
-8.652103978196566680e-02,2.702864436253097358e-01,-9.552928244205612929e-01
6.246476668464984172e-01,3.848424901320212643e-01,6.707206879006435418e-01
-4.983939261134371357e-01,-1.413446110245484000e-01,-8.545612746385826686e-01
-7.594856432490857401e-01,4.996375952032007794e-01,4.147402560352037026e-01
8.209848719993740884e-01,2.547550548551172356e-01,5.079760572162432819e-01
-7.517703996554085943e-01,-6.355595919682391903e-01,2.076210901805011499e-01
-2.991307528832818918e-01,8.309182636714060877e-01,-4.830941358583338840e-01
4.512375136946740750e-01,-6.431711731824563127e-01,-6.036554826034904453e-01
-7.077630452533590910e-01,-7.101414822073098820e-01,1.847589346549266265e-01
2.090754399455636292e-01,-9.503782807273515321e-01,2.472929823031848884e-01
-4.451329029666009629e-01,-8.191419072267501766e-01,-3.461324093499205112e-01
-1.929896273119991457e-01,2.690978511344192525e-01,9.537820981741264026e-01
2.220983562782919141e-01,-8.220006217139821381e-01,-5.384891085142117229e-01
-4.928422396021281404e-01,1.457664127513287888e-01,-8.549218525898522048e-01
4.484445381501453443e-01,-6.937441133286683659e-01,-5.632062760041166571e-01
-2.976215287667732246e-01,8.457447717216445282e-01,4.598018037536061864e-01
-7.982492438358680387e-01,-2.990352560779209745e-01,5.267587910685226360e-01
5.116837770334581315e-01,7.701455980044765726e-01,3.983500220211003140e-01
9.332051058611193217e-02,-5.938546617142316242e-01,7.784904130753866891e-01
-7.813935727009960752e-01,-5.570240009157990668e-01,2.923186481374112078e-01
-8.237168416449389685e-01,4.599636635594558931e-01,3.576855149041813786e-01
6.300603491540091028e-01,6.801476579881511331e-01,-3.548233164258696726e-01
-4.901442886119618536e-01,8.735057496889631068e-01,-3.299398447937553630e-02
-1.600762671115680269e-01,-9.718224037822571493e-01,-5.118664832481969844e-03
-7.122051645360755190e-01,4.126308808832627739e-01,-5.620646458689644298e-01
3.339802351053710594e-01,-9.381421349707624868e-01,1.167438508943011849e-01
-5.001802594055476670e-02,-8.372534772328159569e-01,-5.366395096122456021e-01
1.899428174793596213e-01,8.869510334180550348e-01,-4.168790875733724977e-01
1.745876425688142608e-01,-6.610794725819364448e-01,7.299342561062268642e-01
-2.274137790061650788e-01,-4.784015547670075752e-01,-8.433367848486685858e-01
3.859384246423651632e-01,2.932104984488478894e-01,8.595328939448614314e-01
-3.177948028395990998e-01,5.647133840166984609e-01,7.698666275591539154e-01
8.786926156308396685e-01,-2.892665225423893816e-01,-3.513172071866884627e-01
5.667826012063502672e-01,-7.900597070132593380e-01,-2.383335381805669340e-01
-2.868419427054834034e-02,5.704657374244287427e-02,-9.910032219414541821e-01
5.190096427018101588e-01,7.337702307789208955e-01,-4.686117611682758533e-01
-9.129135068864363545e-01,-1.226574498531437241e-01,4.119042364979246251e-01
7.233993345085885096e-01,-3.608398433228588997e-01,6.003940916114330895e-01
-3.975592688788216478e-01,2.703454190900179688e-01,-8.772025473374073234e-01
-1.320024554148506168e-01,9.091626426821309837e-01,3.481369691700099689e-01
-7.071845734458045429e-01,5.203501213856471797e-01,-4.878963872217006448e-01
-1.212042223011276232e-01,8.622401171737313907e-01,-4.828549324393265896e-01
1.962648823089109540e-01,3.017808065584206556e-01,-9.336844036692316662e-01
1.145490349038434663e-01,3.523309356302838924e-01,-9.328607847144825271e-01
-1.141987475878008113e-01,-4.227431744883228815e-01,-8.826897880827995202e-01
-2.471357750296884204e-01,-5.740623748700345308e-01,-7.639667382247332661e-01
7.832915764283384652e-01,6.160820028771838430e-01,-8.180500446145788640e-02
8.111390502623306853e-01,5.906343302167060827e-01,5.504075655774112036e-02
9.527528806230975977e-01,1.855430210591718643e-01,-8.421181995315644986e-02
-6.976066138355329072e-01,-6.007238070699992827e-01,3.734718197605064738e-01
-1.181409431221456530e-01,-2.180288472446598458e-01,9.652690520528025564e-01
5.463462989229705968e-01,-8.342079656395567921e-01,1.263092993901087646e-01
-8.255997275927786649e-01,-5.668562124197388252e-01,3.208143926875941382e-02
7.823733762222011556e-01,-4.236821919660872099e-02,-6.310061859950479857e-01
-6.173017731200832747e-01,-3.178103876624815416e-01,7.241062668654691947e-01
8.178211735451721420e-01,-5.476780367127329630e-01,1.636610755229523650e-01
-5.750520716213136652e-01,-3.029644402342784315e-01,7.516473355419888147e-01
-2.422796582924394426e-01,-9.194033032142000517e-01,-2.799697084101580580e-01
2.156492909469767960e-01,9.624990400740363050e-01,2.313511014656808584e-01
1.193617768906139326e-01,-1.649213888492098989e-01,9.638864782692402322e-01
9.157231166774295605e-01,-3.546637441651228628e-01,9.374653008801488163e-02
-7.283331543809667963e-01,-3.002279291520192905e-01,-5.986792214041078974e-01
6.314983990887670373e-01,3.448542314644278961e-01,-6.841011606931524103e-01
-1.000077283746133583e+00,4.986536268397371435e-02,4.879816085728579805e-02
-4.739025776611031082e-01,-7.154111837194974122e-01,-5.337467790090258957e-01
5.615030649656314043e-01,8.179763504187345102e-01,-1.664834448223345420e-01
-5.225959859838529287e-01,-7.320753717130792371e-01,4.229286921597791848e-01
-1.505362660625420568e-01,-5.210839693231176240e-01,-8.583429228168967251e-01
-1.142360284539626902e-01,-8.651052543289977637e-01,4.604518522184601892e-01
-4.143504508794092489e-01,-2.401619369959120953e-01,8.828603045913463454e-01
6.500193579930420018e-01,-7.653732696775469302e-01,-2.320671180464675687e-02
9.690745039619367285e-01,-2.360275429098457889e-01,-4.402575916331681605e-02
1.055434483890452801e-01,9.979211968742748295e-01,1.513535237425508821e-02
-9.608537892932756952e-01,2.517096087473910115e-01,1.615722024503468413e-01
-3.884255623532435475e-01,-2.138286647588979184e-01,8.994966900412351141e-01
8.767305953117457973e-01,3.940854796491123913e-01,2.316220452215687342e-01
-1.024815580447657748e-01,-7.078657295396790783e-01,6.910157851371513393e-01
6.731592184569106241e-01,2.616679016331326935e-01,-6.982179908718705308e-01
-5.110832188329480497e-01,-8.085066191966019389e-01,-3.389933684857679985e-01
-6.768605143297680149e-01,-1.620481401712662584e-01,6.936683087000683479e-01
-6.036818918529792688e-01,-7.967617275696330381e-01,3.963206173336537158e-02
5.658073212441312450e-01,8.203513760719144399e-01,-1.229688223142405140e-01
6.720593980177872462e-01,-2.860039186331875261e-01,6.866698191462400347e-01
8.905327784060370622e-01,3.018063028744227272e-01,-3.241505563092139663e-01
2.456785933589396842e-01,6.938827581897005770e-01,-6.690116947707223094e-01
-5.586169231074563646e-01,7.995487016658192614e-01,1.651353446622522425e-01
-1.925155473829671948e-01,9.980531151230224995e-02,-9.829925538221024883e-01
8.475628558989672934e-01,-4.114926470790987723e-01,3.409240752299942945e-01
-4.224334982565671193e-01,-8.715968500787157902e-01,-2.775005906056033922e-01
3.323106431724125454e-01,-9.074364289609315390e-03,9.325773746347473248e-01
8.834282933176453856e-01,-4.521921777615410809e-01,-9.039371689745606675e-02
4.040293498568552910e-01,-9.296426947325874268e-01,-7.557744641780332617e-02
7.585166127715299300e-01,1.223464536980638506e-01,6.434542613218923179e-01
8.517369181912222142e-01,-1.000427179738070521e-01,-5.526305533989500640e-01
-4.501850273489783616e-01,1.839286362953559406e-01,-8.600907265164724480e-01
3.745558978596847943e-01,9.242718864259952261e-01,1.328166551117008209e-01
7.533240884391133596e-01,-8.921148100977308038e-02,-6.751491898152939264e-01
-2.847488935960288889e-02,7.903849911491910296e-01,6.360056033177170498e-01
-1.343830202266465268e-01,-8.001514083639353903e-01,-5.719207146832410160e-01
-6.362641928573136152e-01,-2.807137201267693727e-01,7.170509580289805562e-01
4.416255705215130223e-01,8.923251839581797240e-01,2.006317827059611592e-01
7.879711507841692386e-01,6.034822606417578061e-01,-1.235488231748394922e-01
-4.541608188352360687e-01,-3.251532779331131606e-01,-8.410612723375772148e-01
-7.816563421294110414e-01,2.339919286881274874e-01,-5.962207261580565465e-01
4.640290972997210828e-01,-6.267288485745613480e-01,6.294019231226994915e-01
-9.445187760884043993e-01,3.586187266115704597e-01,-2.237629854289409359e-02
-1.705880173616515227e-01,-5.711897138141844854e-01,-8.088586993540696213e-01
3.234883480559590935e-02,-4.221751068028540524e-04,-1.008790353294928721e+00
4.438182776682133568e-01,-6.451919843066589166e-01,6.123181337778057509e-01
-7.654010257471679513e-01,3.807406866306078386e-01,-5.348845948923315330e-01
-2.895886023905683837e-01,5.850106097305778352e-01,-7.393932608675526374e-01
6.220303551547846643e-01,-2.642171904688714323e-01,7.333352781525510622e-01
4.240052047497121501e-01,-8.940571930738987483e-01,-8.640147286701177487e-02
6.178863807198431424e-01,7.946326042433877745e-01,5.856142709884682579e-02
-4.292116847675663815e-01,-5.543144738293606100e-01,7.229441983352252743e-01
-1.857696466979597699e-02,7.066756307734433085e-01,-7.144363636624688763e-01
6.294364892794875876e-01,7.756717448257857139e-01,-1.197461580849131374e-01
-3.194924851489338025e-01,-8.468925376518172676e-01,3.972850321270829377e-01
-3.571518153512910354e-01,-6.302969129561244443e-01,-6.715365713002550141e-01
6.318581591453098500e-01,4.455876118689704457e-01,-6.348947337001152880e-01
2.227427443576797395e-01,-9.657842980196513771e-01,5.577580777436901005e-02
-9.288300714193457042e-01,-2.850532647540399145e-01,1.938926437668972991e-01
-3.006340196521217756e-01,-3.647400351900947912e-01,-8.834134022735754543e-01
-4.388747429767034802e-01,3.487329153050532926e-01,-8.338848630427775355e-01
-7.519970435603277048e-01,-1.181792870481725710e-01,-6.528604947111563694e-01
-7.349295583379711339e-03,9.777125704966679320e-01,1.639793188275457947e-01
-7.047175838732274711e-01,-4.962763061501815343e-01,4.989534085485665127e-01
2.682447935523661342e-01,-9.255731157017195176e-01,1.981886919910110234e-01
9.471153285925433263e-01,2.640505291060935567e-01,-2.140089391704151911e-01
2.377142084958539792e-01,-8.007758264229033474e-01,5.511819532200127325e-01
3.709797425717401009e-01,-9.396612207283461249e-01,1.321567432917905571e-01
7.868995728592155237e-01,-4.979713244836966868e-01,3.338583090540089837e-01
5.218362443273780737e-01,-8.367305311672351698e-01,1.811495289073656034e-01
9.925606631260522894e-01,1.218760818983396499e-01,-4.731462295424666842e-02
7.358175390057812848e-01,-8.415027304855330487e-03,6.683342848809386005e-01
4.303523447551928505e-01,3.147029295259800574e-01,8.472624075493543350e-01
-5.799421894174252579e-01,-5.129944739454267433e-02,8.261177057589826900e-01
2.256431121785534288e-01,3.085298203329831512e-01,-9.228720641232018851e-01
-8.656879963764749775e-01,5.415630214201614390e-01,3.426663150832381932e-02
-7.732961685687479436e-01,5.061056446971489153e-01,-3.595996129585760648e-01
-3.957015033464400533e-01,-7.897738255285842168e-01,-4.337890573049005272e-01
6.345193396730384183e-01,6.415443986723174952e-01,-3.772104832433454402e-01
2.442715857948734026e-01,-7.698550127417519429e-01,6.113237361291119498e-01
4.309718111899049076e-01,2.449553789059584832e-02,9.086587828314909299e-01
-3.931673677105638337e-02,6.907794645642035825e-01,7.198020713983092067e-01
-4.399888460638762266e-02,2.052746918333844262e-01,-9.978401838114575595e-01
2.859001976789453114e-01,-8.313225045204061248e-01,4.377512056101386384e-01
-6.908614418465239826e-01,4.010746375270327069e-01,5.866104014687394397e-01
-8.507475957579513359e-01,8.501610980318866084e-02,-5.018024285149127461e-01
2.133959719921521281e-01,6.722009917108190402e-01,-7.081768186201544690e-01
9.419423646639460412e-02,1.007295310866823002e+00,-2.947912134808278531e-02
-7.723835111147054899e-01,-4.566830730500071600e-01,4.439668394970784915e-01
-9.545597852531590988e-01,-2.469818768778265783e-01,-1.710472263769230450e-01
7.410712547455042820e-01,-6.021726887196219291e-01,2.964004607578533124e-01
2.072946136778206772e-01,-2.837439947159577369e-01,9.532389933230114298e-01
-8.427136677562496736e-01,5.393312370047749216e-01,-8.722408973481134142e-02
2.570390057004364182e-01,-7.978466756593057818e-01,5.400925205277986585e-01
5.078861602875628378e-02,9.803581702997197223e-01,-8.008329884571364909e-02
9.979025630458023821e-01,-5.011600422602524758e-03,-4.667776575086868274e-02
4.422211253766268890e-01,7.091962414669908954e-01,5.540900091374065806e-01
3.705244256750128140e-01,-3.307813906362448986e-01,-8.540146931166306965e-01
8.904358179572988141e-02,1.009721011200851892e+00,7.767310096894169957e-02
4.037383595513774348e-01,1.003060541677953388e-01,-9.093632740620569699e-01
1.685022951799155233e-01,-7.002659594324500691e-02,-9.897142588957553722e-01
1.211113591460952627e-01,9.405069115207241870e-01,2.876615017739870273e-01
-4.812400733232505834e-01,-2.633061087284644941e-01,8.065783900932375072e-01
-3.740353487192309978e-01,9.275521390969113655e-01,-1.952468012780300688e-02
7.831895577952442400e-01,3.677974162253023205e-01,4.830892018093218554e-01
-7.551970303932161732e-01,3.784278267951235453e-02,-6.470821145906919813e-01
-2.211039172359918481e-01,5.105651102988346679e-01,-8.306404098108519651e-01
7.989372784684664053e-01,5.575837500990752371e-01,2.758615955106009654e-01
6.591371063691485732e-01,9.265675129838286950e-03,7.367492240726238872e-01
-1.165599221688534831e-01,1.073152828401792713e-01,-9.889590356619376577e-01
2.094943057292340260e-01,8.971985010240680625e-01,-3.637295646661661830e-01
-9.101334215553772422e-01,3.437345549128307254e-01,-2.809523455536798164e-01
9.402601286819494142e-01,2.360678363859425311e-02,-3.006575593684972514e-01
-1.801259159143387689e-01,-9.830827092133134215e-01,-1.482118456686759289e-01
4.080523808336684599e-01,-8.784279067454363599e-01,-2.734907472697487574e-01
-4.688949442366157627e-01,-1.723041749927069211e-01,-8.566129808780632571e-01
-1.832122174189569075e-01,1.130592639546010025e-01,-9.685908021277852553e-01
9.765790683694359764e-01,-2.349585193354487289e-01,3.602426618672411457e-02
-4.969930373953885816e-01,7.923692568798390568e-01,-3.711415582789658330e-01
-6.763678836382696069e-01,-6.856521751206519077e-01,3.220686722021873227e-01
6.213773432523792550e-01,-2.253006675895761202e-01,-7.407684416694458873e-01
3.054460160716979678e-01,8.360654743250794940e-01,4.998325930199473133e-01
8.390500988575504415e-01,-3.867684409413589264e-01,-3.446429631509502212e-01
6.147323759828686729e-01,-7.370071637152586508e-01,2.442431709680920604e-01
2.556522355559125437e-01,-5.822217923310889498e-01,7.875620002947253395e-01
-9.271373505885079913e-01,-3.169762041336481317e-01,-2.666895613843969226e-01
-7.904803184918247558e-03,-6.386918770777495480e-01,-7.481173534227805177e-01
9.726957926750143812e-01,-2.355853787310515091e-01,-4.135781692792464548e-02
5.305811906625470531e-01,8.708673597614423612e-01,4.347694861297417973e-03
1.817421440475954497e-01,1.741428864029432033e-01,-9.717872565560653486e-01
3.814875967661601197e-01,8.203749708419726394e-01,-4.343743296016432942e-01
1.173302435447913655e-01,1.102106326291031752e-01,-9.935672819315043425e-01
7.554842714746596855e-01,4.012098437672644291e-01,-5.192382017508218039e-01
-2.101920801751889778e-01,-6.203764493286019199e-01,-7.439194967611865161e-01
-6.341174431126991307e-01,-8.690148901484106084e-03,-7.811140755583501072e-01
-4.641193387669280690e-01,8.879133935982863601e-01,1.273654188306420076e-01
-6.366593759236666150e-02,-8.725128893222873494e-02,-9.897049264349210285e-01
-4.687110556664313421e-01,-7.983611905669716347e-01,3.870913036155098075e-01
1.349495911912376445e-01,-5.022261354237952391e-01,-8.537310336597286886e-01
1.656555079576255973e-01,7.917654163868341755e-01,-5.876863099642355426e-01
7.636585148011545421e-01,-6.040517606055305633e-01,2.403643267088372004e-01
9.934451008384980186e-01,9.042284110138843617e-03,4.515856640387142656e-02
3.498400612776856461e-02,9.954344526266113435e-01,9.639506530956004626e-02
8.193416893276894708e-01,5.398202626635578705e-01,-1.554500931712933243e-01
5.283087000227701946e-01,1.722148069745009780e-01,8.325314140994979351e-01
-9.399442575943772749e-01,7.147959424810000628e-02,3.234222979510892326e-01
7.238083861973642064e-01,5.423536358902338872e-01,-4.139370993395430909e-01
-5.699338040346563217e-01,2.297565837699599156e-01,-7.998693779741034016e-01
6.759544615465764572e-01,-7.013165271953504254e-01,1.650189611713391569e-01
7.007705733578296625e-01,2.705171110262981626e-01,6.684275074079678580e-01
6.832834787002420862e-01,3.976781025298453676e-01,6.098089412578422408e-01
-1.015298672831440180e-01,5.472943897117684697e-01,-8.341883554937865597e-01
-1.754145702394205308e-01,9.672197724388262863e-01,-1.572317137912240120e-02
6.641140810372099246e-01,-3.060034438781747967e-01,6.703714328729662997e-01
8.116999291126882898e-01,-5.468546274073927682e-01,-2.015626005605409832e-01
-3.742117983041720608e-01,-5.648086197492028226e-01,7.238185493815236793e-01
6.506302853134710018e-01,2.202961451453530339e-01,-7.119246122711356817e-01
-7.150306850024449323e-01,-2.164040964869886341e-01,-6.618468358125291218e-01
-2.870002348414773530e-01,-6.355415642605521942e-01,-6.906374469412620565e-01
3.658313849728615508e-01,1.989142886135401855e-01,8.915710997712017472e-01
2.719494263831183090e-01,-9.566475287827986840e-01,-1.544590935768265227e-01
-1.909137668916529029e-01,7.505673930709687580e-01,-6.236926670292460839e-01
-6.937399452097757768e-01,-2.761498274718309220e-01,-6.322682401605158597e-01
-8.966299214719222199e-01,-3.025287960813204391e-01,-3.238398337374102653e-01
-3.798392369848705430e-01,8.249601501286835115e-01,3.801244973366268987e-01
-6.139685212713517082e-01,2.945469609258024590e-01,-7.338151335509264239e-01
4.438684558012954695e-01,-7.314962013193835322e-01,5.169496066800051137e-01
8.552700720747262106e-03,9.742434599754674629e-01,1.677933412211337072e-01
2.747880568686148980e-02,9.972962188703445863e-01,-2.750214465577580439e-02
9.364677769430370669e-01,-3.006881694019059026e-01,-1.691614054129540745e-01
9.435829398063682039e-01,2.876337544303929072e-01,-7.598803193275179002e-02
-8.145451057876407219e-01,1.982844312280740706e-01,5.444272478437113261e-01
-2.685295748420012812e-02,-2.267243028930342741e-01,-9.773480772156926122e-01
-9.829383872054248128e-01,-1.191089367111840547e-01,1.085728383078074233e-01
6.677536653352357243e-01,-6.524402830793651908e-01,3.485944159123198216e-01
4.164324306065782938e-02,-7.539290897294189664e-01,6.594965192593958969e-01
9.581332500212018655e-01,-3.048108499590593823e-01,2.823814934886218972e-02
5.117172684061940258e-01,-3.332917012116231453e-02,-8.422253886011741297e-01
-3.692955091670591661e-01,4.348418854554355617e-01,-8.296759221580840560e-01
7.320398744422328408e-01,5.886488016417149582e-01,3.082857352593240119e-01
-7.639648756627201998e-01,-5.491392270741598525e-01,-3.780607631666002000e-01
3.213810460402377056e-01,7.693983398317597588e-01,-5.584687752200141464e-01
6.069051819020340188e-01,-6.291781109190816013e-01,-4.661546687255126997e-01
7.342434114126126232e-01,-5.319703754974236531e-02,6.674564853448413659e-01
-6.449572904918456917e-01,2.620737457461259634e-01,7.240522609119781627e-01
5.135026697925707539e-01,-5.385287673696700361e-01,-6.474592265680526593e-01
-9.272258353274994702e-01,-3.876189543669238957e-01,1.546908767446657576e-02
9.366298437485159889e-01,2.865287450223343302e-01,-6.796974535058836198e-02
4.151913767904964574e-03,8.728658127612861639e-01,-4.808427578741790720e-01
5.623017268794001933e-02,6.541517816193233026e-01,7.511611979858747734e-01
-8.195771964027905865e-01,-5.133227828079405253e-01,-2.099914301534582806e-01
5.973280832229129755e-01,-7.663741435920536915e-01,1.723691056992905923e-01
-6.881331592823006771e-01,1.430554281186097176e-01,-7.151771282075166658e-01
-3.801429604845319998e-01,7.555237882552013895e-01,-5.469538096385635484e-01
-9.452463881322534789e-01,7.547894124632346935e-02,2.369470262206939681e-01
1.002402486616644328e+00,-9.021901092883519158e-02,-4.674424152486666983e-02
7.137019239268582727e-01,6.646341130090440696e-01,-1.997167863070546667e-01
-5.770305584219964645e-01,6.892277775021966590e-01,4.341396512984382339e-01
-5.411834681786232837e-01,-4.132806097025955583e-01,-7.337471307807224008e-01
-6.204594403351687548e-01,-2.536046777196576119e-01,-7.304549880816684215e-01
-1.925601084401907526e-01,9.703416542918966714e-01,4.218626438011775781e-02
4.662300567523547934e-01,-6.736610170720271906e-01,-5.485118715173080695e-01
-3.775476497888969885e-01,-8.703863803174505254e-01,3.071519210363047314e-01
9.669223575315822883e-01,-2.024339007859519701e-01,-1.172290382870225661e-01
-2.305673723123428387e-01,2.719883831875931079e-01,9.251477563825701855e-01
-8.072746654494729057e-01,1.787545495313047628e-01,5.656566622219860729e-01
-5.338474517604210323e-01,-8.574281553303731984e-01,-5.793213882089878752e-02
-4.807735583106950150e-01,1.968960120425438942e-01,-8.745745432945848385e-01
8.441678167973232227e-01,2.823195235101511047e-01,4.169056800755012171e-01
-8.647465480672674731e-01,-2.829725751450164473e-01,4.099816746894038300e-01
2.112448707598716877e-02,3.505123518848087816e-01,-9.428021658553519257e-01
2.403546947077704055e-01,-2.637217714803129498e-01,9.436038082638705804e-01
-7.975085668874183353e-01,-5.829634521982409723e-01,-1.927771069751774702e-01
-7.532544432777441568e-01,-1.366603333130376186e-01,-6.472800910604713520e-01
-6.210908800619726611e-01,-7.759158557827906533e-01,-1.558134891762581742e-01
-3.543847363324771349e-01,9.175394906139420215e-01,-1.634845671997856020e-01
-3.045451737886977206e-01,5.555400862256678618e-01,7.984654443721489470e-01
-8.299535571335083795e-01,-5.604735140999427268e-01,-5.721680835281142685e-02
6.276613734630451802e-01,7.198236104772312016e-01,-2.914237782544488731e-01
-8.876455503291135196e-01,-3.443164990902121692e-01,2.873277403890793780e-01
7.852134073969728734e-01,5.877926970663369666e-01,-1.060424777263605373e-01
-5.806048841352113854e-01,9.037941041432606681e-02,8.097816536726459846e-01
2.297126546079726328e-01,5.007637954362841037e-02,9.811095405913835554e-01
-2.632061592247050830e-02,7.036236183819254419e-01,-7.261254694350806060e-01
-7.383926476822224583e-01,-2.802982966799968390e-01,6.272273024582696310e-01
-3.727072901041512121e-01,-6.262240838370826401e-02,9.339151555413159889e-01
6.638120980289521356e-01,-1.580457540305673925e-01,-7.357554277661125797e-01
7.749146553224963707e-01,-5.402185674147683692e-01,3.463103928105261686e-01
5.459103987874276420e-01,-8.498990308319219755e-01,-2.066696315473462789e-02
-5.075941218509524289e-01,4.244194790452207044e-01,-7.613651979801295822e-01
-2.608402182340207598e-01,-9.574109051673823645e-01,-6.027891262493242919e-03
-2.434145719062148772e-01,-5.789593403490465029e-01,7.733046893603775507e-01
5.715556873234354240e-01,-6.766951339580556946e-01,-4.921542194436847040e-01
-9.565649212558803294e-01,-2.479863644540761525e-01,-1.948108268297689127e-01
7.930293008508609853e-02,-6.432202654583887291e-01,-7.786783192512047869e-01
4.934698237101692309e-01,-6.743572251367213610e-01,-5.516862966808127045e-01
-5.354818316304569281e-01,6.224573508074210393e-01,-5.485992376520012481e-01
-3.125526460209412938e-01,5.634473592362467670e-02,-9.339407706784590424e-01
-4.903269089109773549e-01,-2.815041383816233589e-01,8.253121537738485891e-01
-5.801935076859284779e-01,2.077143479233920995e-02,8.201088128781870434e-01
-3.538413807188281468e-01,5.891351133450895006e-01,-7.078655374319045013e-01
9.386345784060053932e-01,1.648801533631984173e-01,3.415341312551979924e-01
-3.628858928883252344e-01,-7.436680604398095973e-01,-5.663749391873115213e-01
-3.892624885957713526e-02,-9.936053681095883272e-01,1.510566054104678368e-01
7.813121832055082150e-01,-2.208431372098862977e-01,5.817429890078511523e-01
5.383615469110317742e-01,4.656699078987007745e-01,6.961481855559764620e-01
7.452720155414851444e-01,-6.269329734708666280e-01,-1.985132117439352140e-01
-9.893663822394507257e-01,-6.519980150151449827e-02,7.680772198349286595e-02
4.048762184445279244e-01,-7.491620961305618387e-01,5.099808426656455840e-01
5.521024765205548857e-01,8.014671197471745501e-01,1.694553798569159997e-01
