-6.803198942747921141e-01,-7.298382806859703420e-01,-2.017364234103532356e-02
-6.741108495234934272e-01,-6.972775093432633797e-01,-2.753606581143939747e-01
-1.195421292422184090e-01,-5.253371050415198695e-01,8.626243123342838270e-01
-2.270471246678872623e-01,2.467583751819767968e-01,-9.489388367422494364e-01
-2.451786330622793830e-01,7.244579637952596185e-01,6.424142383681414881e-01
4.152109234805358429e-01,-1.376731549741069816e-01,-9.189064308085334032e-01
-2.647177532244120446e-01,2.729099930622200798e-01,9.402420166897512699e-01
1.534995921463005175e-01,-8.502978909550552578e-01,-5.133019919685923860e-01
-6.136919967924974184e-01,-2.623354189491513000e-01,-7.460937492866095422e-01
3.121043377904239025e-01,-8.529780071447433665e-01,4.106300118581381331e-01
-1.621542234738666821e-01,-7.757207639409947619e-01,6.412772652520962735e-01
-9.664047415933653129e-01,-2.206723400228884080e-01,-2.366818032862862131e-02
8.317486020223295862e-01,5.679769147232800464e-01,-1.073829222232439151e-02
-7.900569406317337062e-01,-2.452155048174830820e-01,-5.655308240683384335e-01
3.895978969253445223e-01,-9.109494636406625379e-01,-1.095695427625001661e-01
-7.136885693546099474e-02,4.147621722917501641e-01,9.123986785029597479e-01
4.769404145032760112e-01,8.847357949940708455e-01,1.174381574270276646e-01
7.402885318697095540e-01,-5.365671926774717715e-01,4.330766240886244622e-01
-5.148722055539861620e-01,-4.982117940335129003e-01,-6.865290134330462868e-01
-5.626834981766792865e-01,3.462358548407233894e-01,7.448703143091359724e-01
-5.182064519117546286e-01,-6.694353410173629060e-01,-5.213226045438050793e-01
5.469047111805637185e-01,6.479930962991092835e-01,-5.591473502586244981e-01
-6.467409849335149785e-02,3.428608692249234258e-01,-9.479295793400288606e-01
8.347198765910424090e-01,5.275189630113803485e-01,-2.805952628232655580e-02
1.505211893572628579e-01,9.778429873616116819e-01,1.789338120389535047e-01
-5.697543512388095754e-01,1.027402641172622116e-01,8.124566007872688900e-01
-8.660552620532301349e-01,1.420629525451350961e-01,-4.708622794364679121e-01
-9.575945989608093400e-01,-3.618261280138900665e-02,2.912769937957516153e-01
1.340104473298359966e-01,-9.421570167654890193e-01,2.767803366982062863e-01
-6.808686587731838102e-01,7.324944384799204622e-01,1.659393987893302003e-01
8.334754865621221143e-01,-5.107849220802621604e-01,-1.614452055223258298e-01
4.761010537443170487e-01,-5.099893838674237623e-01,-6.961051233022331752e-01
-1.698762754678337095e-01,5.000481012928131852e-01,-8.749436612950486358e-01
-8.176023176981780383e-01,1.613456699347536882e-01,5.455929060757632731e-01
9.471759489709777879e-01,-1.860903840356354644e-01,-2.979904168132262998e-01
6.872034174469721091e-01,6.277146835075606557e-01,-3.315281723989023099e-01
-1.715767112883148926e-01,-6.913438813077799061e-01,6.851431764680188108e-01
1.914985229481110107e-01,-7.382639477206482947e-01,-6.543395440583679168e-01
-9.553742613413745977e-01,-2.633760244680635743e-01,-1.617303911585701304e-01
2.955161909015134314e-01,7.845833343260835147e-01,5.213400114241915073e-01
5.437304930031396921e-01,-4.885696239512190564e-01,7.072171555513221408e-01
6.846236229090990610e-02,9.836482605781257105e-01,1.342689265057594450e-01
-2.320007327991900625e-01,-6.306997702028910302e-01,7.038067356016554088e-01
-5.965453855373088476e-01,-3.302290094531807330e-01,7.251664444682552890e-01
3.277281818366866717e-01,8.341484606634574916e-01,-4.465667890979441168e-01
-4.232657336706154849e-01,-4.093093185566899495e-01,-8.310472321802955253e-01
3.599436758136330683e-01,2.520336481534239392e-01,8.907417290206975924e-01
-3.322473989220945390e-01,-1.023523068704405570e-01,9.611507711944398125e-01
8.264486588846928772e-01,-5.434209227701386480e-01,-7.800519012561683840e-02
-8.807400240831090299e-01,4.094297734373531505e-01,-2.861796556970832572e-01
-9.848806160519723019e-01,-4.695221054081962636e-02,1.993765301427007364e-01
-7.041913722455652724e-01,6.817978578248556909e-01,1.235837077240159593e-01
-5.207782534569093125e-01,-2.082811532806358723e-01,-8.466458761070468908e-01
-2.782044553231735606e-01,-4.999682338987551655e-01,-7.830634862770892157e-01
1.982020767404376049e-01,-7.169827954022724992e-01,6.914189843963403082e-01
-2.792909970668831787e-02,-6.405739762490731959e-01,-7.473152906716621358e-01
1.113958122792929051e-01,9.337614817743510320e-01,3.505069013336828965e-01
-5.365640930425797928e-01,-5.221906931092497040e-01,-6.408788522477750771e-01
7.739185004374447840e-02,6.354587241050346780e-02,9.915586048707020206e-01
2.529194764812080498e-01,-2.950724934027640911e-01,-9.459666988130419618e-01
9.246746173779487599e-01,-3.906091059086537198e-01,1.170500595534729044e-01
-5.921718289815733893e-01,7.766832339069389413e-01,2.112287326832842371e-01
8.315854659177076558e-01,5.624681080351411344e-01,-4.203087994060938914e-02
1.365604275663719613e-01,-9.375391670662271970e-01,3.056991320599883877e-01
3.808085610280922267e-02,-2.669092375714669507e-01,9.823055982611159642e-01
-2.530319472444039763e-01,-6.201619514310092729e-01,7.425420813261796038e-01
-7.187790713801111009e-01,5.409921378068055509e-01,-4.184162413962584370e-01
2.624206540549193223e-01,6.525163653725840618e-01,7.128706613360785704e-01
-4.739360467231408802e-01,1.401157969571734385e-01,8.583857052849536151e-01
-7.662498753762277126e-02,2.676016527615443508e-01,-9.352149660956069477e-01
8.469582863035997056e-01,-1.458521651811461872e-01,5.107843955028759098e-01
-7.923889327082077605e-01,5.703132426067732963e-01,-1.757109099699611376e-01
-1.684917339501721956e-01,-3.308198090097696498e-01,9.237543248295823073e-01
-6.283576867288198642e-01,1.858232403351044726e-01,7.549064577360390382e-01
-1.907212952586690713e-01,6.516407214235895307e-01,7.459159798907587513e-01
8.157864475308357344e-01,-5.386300198152979002e-01,1.952759275158758856e-01
2.153576351942358413e-01,-1.201133946513424922e-01,-9.516526398990955427e-01
5.797488393040622912e-01,-3.681687369557459094e-02,8.323571781144856185e-01
9.708644485851325445e-01,8.182980120234072119e-02,-2.504259217541188187e-01
3.754627264131301101e-01,3.960602976624834626e-01,-8.281975011866682390e-01
-8.807729759956189897e-01,-4.278282540228787734e-01,-1.832413496683339416e-01
1.059586532200779141e-02,8.775639130032587554e-01,-4.859470037033122303e-01
-3.994512101259302117e-01,-8.823223569989991910e-01,2.771760420859664675e-01
3.296116580568939636e-01,-8.410047220589151884e-01,-4.064343250963255993e-01
4.520698536849854232e-01,-4.211027437474129109e-01,-7.970617073369110628e-01
-5.588441354657023782e-03,6.923611833269885385e-02,-1.020795562682466295e+00
-9.692196275833478980e-01,1.957691446348168995e-01,-1.604228433197230907e-01
9.445497213122218128e-01,-1.366241118459665671e-02,3.426020654059456771e-01
4.796852076204122239e-01,-6.263830843968862805e-01,6.126290868625243746e-01
-7.886759864757222904e-02,4.623057707518875570e-01,8.729089065205350995e-01
6.007258925192242582e-01,-4.441999052240920842e-01,-6.444257409660441027e-01
-4.011777977757374769e-02,-8.161363028395636210e-01,5.839853093127391759e-01
-7.610170619461592567e-01,2.757485075632634675e-01,5.952614953652036744e-01
6.403506941658573259e-01,7.457565947330468958e-01,2.136233500313962363e-01
-3.425749635949242866e-01,-4.050345257647307018e-01,8.411124696631514519e-01
-9.149095858064119069e-01,8.767965324710538799e-02,4.019471803109761487e-01
-4.999006901967256167e-01,-9.525882182382795771e-02,8.597655085784706719e-01
-7.082874114666243281e-01,-3.231368739040229587e-01,6.339027671152910326e-01
-8.040405639510835867e-01,-5.295193940576090608e-01,2.672528448428180825e-01
4.192330907611066526e-01,8.043259823948266662e-01,-4.076052737348757060e-01
4.691360670757521723e-01,8.209373307863233604e-01,-3.348833743943173680e-01
-1.311126585033978997e-01,8.296262822865192454e-01,-5.361058864021012171e-01
-5.997229975268465463e-01,-4.808993065208672091e-01,6.119311108590592685e-01
8.766605479416619273e-01,4.227851549159868938e-01,-1.771219576419009178e-01
3.358087769460547933e-02,1.105375685803601654e-01,1.002949042496277920e+00
4.876836775329453366e-01,-6.211962530489859580e-01,6.041339849431396347e-01
1.629095479841528860e-01,9.320732964658979824e-01,-2.788408952351332237e-01
4.171670414246048675e-01,-6.254846490700919359e-01,6.564712143937296851e-01
-9.857986786782507727e-01,2.463061903627684901e-02,-1.159864612234910858e-01
-3.664720081505749572e-01,-8.722865169121361006e-01,3.084081223916067538e-01
8.579136648809910781e-01,-3.784450776661245075e-01,-3.222976891023902057e-01
-4.216258524836108967e-01,8.372794736954472516e-02,9.062890029576236017e-01
-4.593867793440236102e-01,3.669589735055888147e-01,8.035783498140673942e-01
1.999954399591129250e-01,-9.595937533962147770e-01,2.209892688114966086e-01
-8.039654817087640848e-02,9.906469621046435359e-01,-1.810501691872511421e-01
-8.571340939492418931e-01,3.601849258194511072e-01,-3.300510639521397338e-01
-2.938232629290063458e-01,-7.702284936979238161e-02,-9.349922021256231730e-01
-6.029487689174470866e-01,-6.526280719008811237e-01,-4.491396832037972686e-01
-5.889905144192423281e-01,-3.864471207177829215e-01,-7.074709161858496742e-01
-5.180642941224558040e-01,8.526413894088952228e-01,9.019324812109581757e-02
9.481313308974043119e-01,-2.374541172202018213e-01,1.788904175631744198e-01
5.124887681943727374e-02,3.530836438702121272e-01,9.331346598701516504e-01
1.392087701756405116e-01,-5.257585411238727691e-01,8.539026162711771395e-01
-8.744400690704999812e-01,-2.285985538411879903e-01,4.847983349530722297e-01
-9.748670390416838138e-01,-1.288827626966887463e-01,-7.412381214661023510e-02
-2.579590999190908840e-01,-1.555488861794273869e-01,-9.583071533593970903e-01
5.652152567065864552e-01,4.566448676998057787e-01,-6.859457045379014906e-01
4.332782441611813806e-01,-7.534133928673544256e-01,-5.184326520609230382e-01
-8.791928408703666431e-01,-4.433218443859530122e-01,1.303299805322820359e-01
4.196098964138796905e-01,6.724139313458793454e-01,6.105413768775748151e-01
6.935451015091502747e-01,3.258386597778429872e-01,6.382329209940438286e-01
-2.930366949244139207e-01,6.593415203770333077e-01,6.778990544589272860e-01
-8.509518418823622810e-01,-3.746909960649520976e-01,3.557736786846703025e-01
-2.565044825535165995e-01,9.497851967875348134e-01,1.098583167947091849e-01
-6.455989619802879886e-01,2.500505566641517685e-01,-7.137211349444134711e-01
7.781013649965992096e-01,3.898645577958249064e-01,-4.849887636765602972e-01
-4.136904828722389182e-01,-8.747400781853502671e-01,-2.797545475792209690e-01
-9.863548869465540436e-01,-2.229712328522701625e-01,1.417771815522858581e-01
8.238376761724797159e-01,4.768872321360907440e-01,-3.127117626728634914e-01
3.833875764089282878e-01,-4.256163517696995857e-01,8.165223670062387029e-01
8.618679478070213618e-01,1.601343526104282988e-01,-5.038307865317492862e-01
-4.070848909204211746e-02,9.148798332917357223e-01,4.134390367345915362e-01
-2.712023238950739823e-01,-1.484020085625252852e-02,-9.585691867063282912e-01
-5.175476321429642867e-01,-6.417440798908272126e-02,-8.457453512664091511e-01
-8.287146324231817185e-02,-4.535911549221564587e-01,-8.878184434966869265e-01
6.288188034317975239e-01,7.290148363057974423e-01,3.186990582806202843e-01
-2.869473067534226984e-02,3.623360038186095311e-01,-9.280184123085526426e-01
1.828037162081917744e-01,9.781431759172674045e-01,6.113637379474549244e-02
8.254640443778382686e-02,-5.926322035943150726e-03,-9.805753101045017184e-01
-3.930750279303418249e-01,8.758103356728831335e-01,2.326916066552030260e-01
8.461566993335942755e-01,-5.430435243502403087e-02,5.452970061418058734e-01
2.186546805254525883e-01,9.848103534641720058e-01,-9.248803747659334329e-02
5.991783475221394983e-01,-7.335027539774469085e-01,-3.102785334295399822e-01
-1.118927174041358663e-01,-5.374713747254245000e-01,8.208848633168706055e-01
-7.356479695723920909e-01,-6.540566883671177223e-01,-3.321810430374030898e-02
-6.617671178023302181e-01,6.391906701291812931e-01,-4.054515306593959312e-01
-9.701039122771522027e-01,2.196667457660570200e-01,3.904328508403086956e-02
-3.596704261385013091e-01,-8.787123149229432162e-01,3.122927378135327281e-01
-8.718115004217862340e-01,-4.753491517665033306e-01,-1.565670312582922719e-01
-8.336869230336158010e-02,-9.553251413113246215e-01,-2.241655772079974018e-01
-9.523079096889344175e-01,-3.098144635816681980e-01,-3.386515166698832874e-02
7.059875694539348157e-01,-6.859136589072970525e-01,8.358467473856932839e-02
-5.028507146444972653e-01,8.271267337827327149e-01,-2.225611222609954754e-01
-4.746296527883882010e-01,3.800177728302376878e-01,8.015530816169704753e-01
-9.709847703578835532e-01,-2.217282388680085481e-01,1.670855557054692353e-01
-9.039943147602053086e-01,3.555944740820199401e-01,-2.124896953712564207e-01
-9.645936248620720632e-02,-8.418613148293929704e-01,5.183296673620475525e-01
-7.291454419356186989e-01,4.311334221763891694e-01,-5.007721270844124328e-01
3.584407130263729258e-01,-1.646570848475764348e-01,9.243801881870922221e-01
-6.110897383694419149e-01,4.069850502751058419e-01,-6.531825424136877833e-01
5.823190854047195497e-01,5.947191154833116888e-01,-5.452075196801541290e-01
3.514273689488915386e-01,8.482294949991272537e-01,4.126533079082350675e-01
4.322725975679804211e-01,-8.934959490424112527e-01,-1.580552689242579675e-02
-6.225869036418820585e-02,-9.888065839459000417e-01,-2.068064645159352899e-01
7.840690001353911587e-01,5.508275082835790704e-01,-3.073230632841696952e-01
9.562257436363922336e-01,2.440044959740461650e-01,-4.715718018474151715e-03
-1.360161832814956451e-01,-1.894169436358988379e-01,9.542837225434551707e-01
9.623760987426847047e-01,2.932629861264377524e-01,2.608033177515291148e-03
-9.192012608246874494e-02,-9.224774546802403385e-01,3.925246691945768474e-01
1.002790235115935236e+00,-9.108955338308072358e-02,4.782648987910079197e-02
1.454067711230608295e-01,9.531568473642267891e-01,-2.043097657914526299e-01
-7.981547382240578026e-01,5.445160827088965094e-01,2.784440705434593211e-01
4.617714530231403769e-01,8.844909476703953777e-01,1.156588321857224544e-01
-7.201208174724330058e-02,-3.045458134725062549e-01,-9.577064898758248512e-01
-4.922860368030492761e-01,-6.299025798166298928e-01,5.867004296972597732e-01
-4.443531687793567664e-01,-7.506015864138639859e-01,-4.620455751669692579e-01
8.511262535650342409e-01,3.914902715123692173e-02,5.250012811826151315e-01
7.516666210545487337e-01,2.470285376016625178e-01,-6.023750049543762364e-01
9.425705380430480229e-01,-1.188551806154998919e-01,2.914541187919178489e-01
-9.021608215769351125e-01,1.077999548734654145e-01,-4.065624782881119836e-01
-2.458247042656614700e-01,5.754316087352828735e-01,-7.819634555334260551e-01
-5.167489011826070788e-01,4.165533803047768435e-01,7.652179034914069478e-01
-1.014846050001592781e+00,-1.509091907650582931e-01,-2.343902706880081951e-03
6.252598889434527463e-01,1.731058083203753095e-01,-7.556722850428131411e-01
3.025412970072655430e-02,9.317027049683437312e-01,3.361639974702658740e-01
-2.963185585752757811e-01,-1.104990544317095147e-01,9.393147787984610364e-01
3.896941173045821993e-01,-1.083726534916294310e-01,-9.042375275790452971e-01
9.493633112554590303e-01,-1.593286584847571907e-01,2.336121442710778762e-01
1.317305050320456139e-01,-9.684232878782748077e-01,-2.520273927860351426e-01
-2.740818790025910112e-01,5.376146272228009559e-01,-7.953319214833588502e-01
7.287974357882488485e-01,-5.616841811947972385e-01,-3.829569534630832273e-01
3.149418300317487207e-02,8.595381168876972122e-01,-5.081163946627199612e-01
8.006743499248006879e-01,-4.239733887756631514e-01,-4.575241279174006026e-01
1.668508417485075890e-01,-7.074807332428942885e-01,-6.702487201810316542e-01
1.006839708201864969e+00,-2.715246417076769975e-02,-1.282546111217797158e-01
-2.358394675051362632e-01,9.396494985133597710e-01,-2.072179231202727900e-01
6.880150070669770190e-02,2.931068756520634477e-01,9.504730980212647840e-01
-5.485125850198280251e-01,3.204943663168154933e-01,7.829080328011386314e-01
5.819681798383011806e-01,-3.806253923652227478e-01,-7.179827542198761181e-01
-1.020844322897329209e-01,9.907528728239124449e-01,-7.653488018207531274e-02
-6.147767934288410618e-01,6.113636703006007922e-01,-5.029384685258645460e-01
-7.663582464896064872e-01,-1.623815943227059355e-01,-6.122124376756422626e-01
9.109063288926924074e-01,3.392978573406271736e-01,1.678687228199796377e-01
2.101604521139668336e-01,-4.167607907536506340e-01,-8.771433439596734161e-01
1.164972976776373764e-01,8.106186006064031169e-01,-5.803427326035656142e-01
5.731964519336116975e-02,7.098923573962774292e-01,-6.840325788882102298e-01
9.315625092882781066e-01,-3.792814109545619150e-01,-3.300350243016865470e-02
-8.420864233402939325e-01,-4.840177712928031561e-01,-2.044699370759792412e-01
-8.946502000644049879e-01,-4.360734717698406815e-01,6.537652062663416863e-02
-1.600472431538221552e-01,7.288502784962089809e-01,-6.585137582861558814e-01
-5.532787239396476098e-01,7.746614061052924383e-01,-3.227037911388767610e-01
-5.910917333600363976e-01,-4.967045098310830520e-01,6.280452690524617188e-01
-8.498553676499178700e-01,-4.251220865776194069e-01,3.234806615213740022e-01
2.421681754907842321e-01,-7.144550909223315038e-01,-6.848137256407201834e-01
-3.673480236884882344e-01,3.468822870180471307e-01,-8.654092651348154197e-01
-4.545413476952367415e-01,8.606580120898794650e-01,2.044808575028157493e-01
-3.354929735841906679e-01,8.020704371861601123e-01,-5.155580215271594602e-01
-6.534778343252473087e-01,3.006694555000156699e-01,6.901199516950994317e-01
-3.341906467350372334e-01,-8.847125852861078554e-01,-3.355228162560855987e-01
-9.052343788999015484e-01,-2.413242919166501965e-01,3.332975697524054870e-01
-2.274970405141474861e-01,7.685307387509979771e-01,-5.850926890676918513e-01
-3.741705694903510460e-02,9.776363336114732849e-01,8.132708021023775380e-02
-6.627568380632737899e-01,-5.746530946037387011e-01,4.599045034432666101e-01
-1.019655774726354824e+00,-3.705225742434849201e-03,1.213038158537569494e-01
4.501908667345241311e-01,-8.093788701866224677e-01,-3.809588319658764322e-01
-8.162969946198991300e-01,1.543216724748456559e-01,-5.587385752928670790e-01
7.172228036493147885e-01,3.604076002868501077e-02,6.754986373721403314e-01
1.804635707195512695e-01,6.943509053402433517e-01,6.947503577851074086e-01
1.953889514273170480e-01,-5.829020918789918904e-01,7.667106394507641198e-01
-4.624288838506606658e-01,-8.658932377421185711e-01,-2.788469579666866260e-01
-2.993553435387238393e-01,-6.331680901171139464e-01,7.326905175035839379e-01
3.875703283864246340e-01,-2.054773689526343816e-01,-8.928172517443283551e-01
2.196435210166603758e-01,3.647270847470073796e-01,-9.079638143973745024e-01
8.154743924594490823e-01,4.018434453165823927e-01,4.059344501069546141e-01
-7.513208650250239318e-01,3.161805175930763618e-03,6.494249406643440858e-01
3.957054818915283767e-01,5.957666363556521905e-01,-6.864159822166214786e-01
6.763029374631438495e-01,6.980927190325922904e-01,-2.812592688069477931e-01
9.090877957310788959e-01,1.599788460659273825e-01,4.152626704059296792e-01
7.741258152974068718e-01,-6.316587709258907335e-01,9.357711815019369161e-02
5.894265533010876190e-01,5.723365323666315119e-01,-5.694931644309271235e-01
9.362684942538912480e-01,-1.297516814065557966e-01,-2.904858463879560482e-01
6.303839874557484180e-01,-7.713012661535947334e-01,-1.164119439289118957e-01
1.571579912047323946e-01,-4.188240239197746906e-01,8.996488482805218290e-01
2.618179270929914537e-01,8.320055967589742307e-01,4.890865853003582009e-01
-2.686118984389597730e-01,4.650818579720070178e-01,-8.460568660957985543e-01
8.791043406786723802e-01,5.998955185062741086e-02,-4.818557010390113748e-01
-2.857435581910610159e-02,6.712511687970008634e-01,-7.262113675067596308e-01
1.577234615673863694e-01,3.637859198711483888e-01,-9.099826185218417018e-01
-8.442866816490852688e-01,2.843431684822626537e-01,4.397025780708925247e-01
1.310553495307991145e-01,-3.885842545649180191e-01,9.219865512757591253e-01
-1.213365789245723914e-02,9.742941407532066389e-01,-2.327398292872276675e-01
-2.829243167361504829e-01,7.907327319262908993e-01,-5.766042371822899248e-01
4.683376268099317397e-01,-7.110652878342030858e-01,-5.458066085661458233e-01
-6.816303854882611590e-01,1.809985686275170647e-01,7.225505227330711877e-01
9.921675428042728839e-01,-1.422494100986016752e-01,1.293577418491881903e-01
2.348748123891251094e-01,-5.327176313107678807e-01,8.240285549778910701e-01
-1.009592901150347354e-02,7.244427404142421700e-01,-6.699188993733914410e-01
-6.072852269057986696e-01,-3.558734952168259857e-01,-7.202486485398497118e-01
3.408332124473417712e-01,2.132226012548271536e-03,-9.494435329415634728e-01
-9.477876500771786894e-01,-2.730052458987821118e-01,-2.288259790855146358e-01
7.671762192803607272e-01,-2.705019371720441060e-02,6.390559379158118336e-01
4.098992698842403026e-01,-1.321333413796283163e-01,-9.073896147444100446e-01
7.435482573344280866e-01,-2.269719319057894868e-01,-6.096846814705940698e-01
-6.885613475491652036e-01,-7.089755632808439900e-01,2.044774465962224397e-01
1.212389106722681822e-03,-8.687482764659032464e-01,-4.540853903125171009e-01
1.066756771906450796e-01,9.729626309873737888e-01,1.843595105089278485e-01
-6.182086043173358192e-01,-6.245762991524940189e-01,-4.565023328361936805e-01
9.062271093645449249e-02,2.455364892424824474e-01,9.744689478409942485e-01
6.599163458223827883e-01,-6.612025869289468449e-01,3.635034176383116766e-01
-1.516203270263537239e-01,-5.945062448213807027e-01,7.755002564400111931e-01
2.042100984117319329e-01,8.462448315031786961e-02,-9.885917407796194212e-01
6.868245634198554272e-01,7.291951767549926799e-01,1.088124993919075689e-01
-7.765373694008314009e-01,6.321802482566936110e-01,-7.840224014346211523e-02
1.001953514712478954e+00,-9.337149345334368189e-02,-6.879290166400746365e-02
-8.234759395384235736e-01,-1.015494112573839779e-02,5.768669515379255541e-01
-7.909738600735786163e-01,-1.482558150959970011e-01,5.827861212797383894e-01
6.769893251338550133e-01,2.008926468621739236e-01,-6.906087588350550144e-01
6.060519654952175594e-01,2.544211594072950944e-01,7.362507130540177913e-01
-3.984915731703447817e-01,-3.336242095461113277e-01,-8.650316378654567817e-01
6.178816372951976277e-01,4.046801940610953996e-01,-6.788962827784578158e-01
-3.687901670406172894e-01,7.239028730417695900e-01,-5.662564175860754778e-01
-4.583195177175863333e-01,4.366052768469537160e-01,7.628208190223234597e-01
1.767347653818816811e-01,-3.379679619240918420e-01,9.329302712026348310e-01
-5.445763178163405271e-01,-1.227776631230573789e-01,8.106513996955243551e-01
1.685295080322336270e-01,6.699450685063096378e-01,7.149426085914071249e-01
-1.778363803327050463e-01,-8.820545057405712042e-01,-4.575553350673189912e-01
-9.453588951845653954e-02,-7.909987640049522817e-01,6.079756032698003798e-01
-8.112337698210263515e-01,4.997464726259652212e-01,-2.837870751576241357e-01
-8.731302585768873081e-01,1.916951386820893444e-01,4.808927603344914092e-01
6.886623606258877039e-01,-7.089722771973455684e-01,1.452270790487533159e-01
-8.850141110540824529e-01,-2.724758295953620957e-01,4.078047222091950030e-01
5.598431094335866165e-01,3.983858080150319281e-01,-7.143482505794481741e-01
8.509531185025430711e-01,-3.091506589501285540e-01,3.691237829177774765e-01
5.056933575277466897e-01,-6.553536597548380582e-01,5.912077415085661425e-01
2.291389347849418640e-02,4.899466039208318774e-02,9.865392010673821321e-01
-6.563431977470722822e-01,4.393365394062616336e-02,7.475872863121180156e-01
-2.812342030151797345e-02,-6.499448062814421334e-01,-7.543439218190787221e-01
-1.815411615084819852e-01,-4.733108734154754527e-01,8.517069879205316774e-01
-3.882899457370535545e-01,-8.755307733756104716e-01,2.974977405188413693e-01
1.024186339577908555e-01,-8.750066969990629717e-01,5.376753936884302032e-01
-3.218809655809912740e-01,3.533459138705299929e-01,-8.944613960512837192e-01
9.375973782917680632e-02,9.844460364364322480e-01,7.743963215920079968e-02
3.500490192396112366e-01,4.530846881297579398e-01,8.378227999316033570e-01
8.748409483724706170e-01,-4.848331161715940252e-01,-8.988321058007692210e-02
-9.351528918596117013e-01,-3.490327620097772865e-01,8.798486140509238773e-02
9.383257037209875584e-01,1.237581370440145184e-01,-3.387822184045914953e-01
-2.063732954155954313e-01,3.886104478650168059e-01,9.028030513533829016e-01
-3.376793918437999142e-01,-8.215716337823457671e-01,-4.592213375060881786e-01
4.295632248047220325e-01,4.583044099411527905e-01,-7.719527715612090057e-01
-3.182381748017562573e-01,-7.611240227452116258e-01,5.353365545654870106e-01
-9.270888767559436472e-01,-5.549580313753688099e-02,-3.847741127687179796e-01
-6.548165152999534389e-01,-6.468871844095397394e-01,-3.496232824703324749e-01
-5.916220603446847859e-01,-4.379848218232023083e-01,-6.842648809257358966e-01
-7.898519364437278645e-01,-6.919429288006809231e-02,-6.036603771534689855e-01
3.078937527420918044e-02,-5.162247194557714192e-01,8.683748690703617656e-01
-3.575742611374154167e-01,7.170000078372597008e-01,-6.193932195062402668e-01
1.951334764734020955e-01,5.562217922494450129e-01,7.845571537546537355e-01
-5.885557252051670796e-01,7.526749426255591180e-01,-3.077139210115356072e-01
1.902452761288295213e-01,-7.626576115856055216e-01,6.341198292932157532e-01
8.367152739416731100e-01,2.385579294160714292e-01,-5.156229460983656754e-01
3.317309098525242361e-02,9.043383892832901338e-01,4.251217120237636427e-01
-1.508070993249116254e-01,-5.229701964037668516e-01,8.436739244858623143e-01
-5.765276096467061295e-01,4.619416023333911547e-01,6.821129073403855436e-01
2.542167011642695318e-01,-9.664431962478559068e-01,3.764110086125081744e-02
2.190664222640076597e-01,-7.346409345483714270e-01,6.465393831818402326e-01
9.549167528480447809e-01,-2.605813608863976061e-01,1.768264508862102402e-01
9.902331849098549021e-01,-6.441407996943307457e-02,1.417666878004324449e-01
1.040347513910903736e-02,3.756701377295305067e-01,9.309383117778018413e-01
3.302150182888164420e-01,-1.342878518211848005e-01,9.272938782565305349e-01
-2.242616974252970713e-02,-7.522798827153195367e-01,6.618738348552681838e-01
3.215620003107078073e-01,1.405157430071251046e-01,9.497530577366599669e-01
-3.064962678893842773e-01,5.122131708189103794e-02,9.452513657443023520e-01
-9.011860019289416046e-01,-3.491975911303052960e-01,-1.508481246288959354e-01
5.975605759878767076e-01,-1.936211623136601112e-01,-7.997459410317564465e-01
-4.051091987225159397e-01,9.206727335137786516e-01,7.637517651252125062e-02
-9.251312776048634667e-01,1.739706500901169739e-01,3.225286719165229021e-01
3.144399874174473863e-01,2.529485936494736409e-01,-9.017479535164550919e-01
-2.400098663521077480e-01,-7.554063520573799373e-01,6.197304600957789233e-01
4.967976648797679806e-02,-5.825996869394188815e-01,-8.137650977574527600e-01
-4.012907025609345202e-01,-3.250590122539467330e-01,-8.687575550523617407e-01
4.752897688565186907e-01,1.606064133802662663e-01,-8.645416043179183774e-01
7.050005360789235453e-01,2.747233043097701555e-01,6.249903762419717346e-01
-3.969968208970861001e-01,-4.542899963762504489e-01,8.019283749606236356e-01
-7.985076832412357772e-01,-6.307378092383399970e-01,-1.014531877757687273e-01
-9.305075885475823372e-02,7.301530434242370360e-01,6.947294441532171350e-01
1.142835075271082107e-01,1.899458734483536193e-01,9.631314627525957572e-01
2.348971709333318447e-01,9.191320755701987144e-02,9.825864421077247224e-01
-4.315329227775331344e-01,9.055682097654291218e-02,-9.053388075703895366e-01
-9.950283474835754927e-01,1.244765884246264165e-01,-7.989340361563070439e-03
5.437202673007677234e-01,-5.723832189624030731e-01,5.913376348402362703e-01
2.299903563751134195e-01,9.552429838724502131e-01,-1.808780137368497243e-01
-1.426562888103316551e-02,6.621958968477754670e-01,-7.565441371182040076e-01
9.904764955696567785e-01,-4.659229575106590276e-02,-1.128488071984657809e-01
-5.594666592100886460e-01,-4.034236813223621154e-02,-8.032780607073372048e-01
2.343408561458868167e-01,-3.881783437259106462e-01,-8.656515848971402249e-01
-7.805200207550581082e-01,-6.131449834338544846e-01,4.711294926177698322e-02
-3.056445386421850485e-01,-4.062014690609330042e-02,-9.475776340679754606e-01
9.068826034657107016e-01,-2.211694619122833438e-01,-3.530265585624122737e-01
8.788616177892516479e-01,-4.933395394117190969e-01,-1.464774580569492071e-02
9.760605683082471673e-01,4.249204170062060443e-02,-1.116214985053758796e-01
-3.155473741721295800e-01,-8.745165547409994300e-01,-3.928358850471734276e-01
3.913446417635342567e-02,5.142960788287599394e-01,8.602413449410114543e-01
-8.231552592535671398e-01,-7.078385979438150954e-02,5.630926853402528076e-01
7.783837991503430587e-01,3.338251511553477213e-01,5.388568931772232951e-01
-4.603137542195815390e-01,-8.972888769148900101e-01,-3.824857729633589914e-02
6.785607022989101900e-01,3.375779319139878276e-01,6.328027117585046657e-01
8.853934189217498307e-01,1.446575827568160610e-01,4.522487843164529342e-01
5.235118119860524000e-02,-8.654511947277558903e-01,-4.927155616821522477e-01
-6.568444011741383370e-01,7.241688063322044844e-01,1.947581637555592660e-01
-5.437089492779194622e-01,-8.586587191482408787e-01,-1.434698874511295547e-02
8.888763886158771443e-01,-4.560006277395777796e-01,9.803402778956160635e-02
-3.687197965336778682e-01,-3.840252899288517652e-01,-8.445246169856970297e-01
3.894656318445063881e-01,-9.236601575437682898e-01,-4.514008634887324914e-03
8.376422247365657991e-01,2.552727518881827903e-02,5.669559278903775201e-01
-4.246228708477596814e-01,9.765902460367498206e-02,8.872512931743981035e-01
3.519066566434759236e-01,-8.431298587835579506e-01,3.941034148788837843e-01
-9.455588507635825923e-01,2.824335579661639839e-01,-1.822535111410612252e-01
7.329281649800505338e-01,-1.908452966432034326e-01,-6.589195134183535307e-01
-8.310418612422439955e-01,1.675023433008430984e-01,5.194585044723234457e-01
-8.525221603494500533e-01,5.116866260734737049e-01,5.685459625895621788e-02
6.993263040005851527e-01,6.934502459457743129e-01,-1.735742677079655238e-01
3.315325193196217435e-01,-9.212912686927612338e-01,2.342112221527079818e-01
2.416436292379947615e-01,-5.109402183410627352e-01,8.091336740606102085e-01
-7.415327150542685430e-01,4.658918893424328078e-01,4.890986656939324551e-01
7.736925872969285800e-02,2.625228807094995842e-01,-9.551267377467443920e-01
-6.422004427091381196e-01,6.714437195751605802e-01,3.578459081137077002e-01
5.424519858822285379e-01,-8.487419088340124596e-01,-1.000856085199193848e-02
-1.255030621944311364e-01,-9.259011076912571081e-01,3.458069942085699733e-01
-2.494064470991247673e-01,-7.518119329357786373e-01,-6.053958652678055330e-01
9.223646693855880319e-01,-1.843659081618045648e-01,2.949284027568913058e-01
3.522050503717521486e-01,-2.509886164576223821e-01,-8.943738796277308500e-01
6.163534519341570261e-01,7.397500476577641981e-01,2.416558594777599989e-01
-1.674086455512823202e-01,-4.826815212576935910e-01,8.658108482916426762e-01
-2.347520695360413578e-01,-8.520202353685019103e-02,-9.671817948248147001e-01
4.878155848992051791e-01,-5.439695058581816012e-01,-6.619620957285606844e-01
5.869864513593217037e-01,6.439649406038084889e-01,-5.191440434636144241e-01
8.311189753239469624e-01,1.093207766232459285e-02,5.137296620664371094e-01
-8.591071245731043415e-01,2.445503200866956939e-01,4.629971612833127526e-01
5.302374656838140243e-01,-2.166752801354840385e-01,-8.270926133507647826e-01
-9.847594024478990848e-02,2.873356015363418559e-01,9.473512067626762567e-01
4.474580850851701541e-01,-8.087803010279808191e-01,-3.518128517387917320e-01
1.869988887831934288e-01,-2.918529454421832370e-02,-9.867901493336636021e-01
-3.694012448926591308e-01,-7.757491605748065844e-01,5.288054733846302424e-01
-6.931022136624562791e-01,5.885442821029870375e-01,4.238569128104870964e-01
3.365320193199537457e-01,9.201955979762280746e-01,-1.646592415384261487e-01
2.027915417251707486e-01,-4.854607111268419151e-01,8.484215347156144338e-01
5.854732960074013892e-01,1.983840009077748601e-01,7.806238391938511434e-01
9.232306805911049130e-01,-1.278851308176765234e-01,3.323722403039684470e-01
-9.138657758487714888e-01,1.932248280055790246e-01,-3.453416615390710320e-01
-3.174076157570003276e-01,4.396538032315523981e-01,8.392393972501462907e-01
-9.792483460912807525e-01,5.212846774367013367e-03,2.431014381351853382e-01
-2.815117440339080512e-01,4.868952939571499078e-02,9.606679339161515729e-01
-3.433820974102393397e-01,5.217243646083865594e-01,7.776251364153518031e-01
7.209623566816801832e-01,2.417463905041504213e-01,6.423640740399302329e-01
-6.003955741998192597e-01,-7.938056528402920309e-01,1.119702679733222267e-01
9.666306363018539738e-01,-2.131844872977285144e-01,1.017030317096462022e-01
3.300754906105111131e-01,-9.653362758140564548e-01,8.650895076038261217e-03
9.392233587149408924e-01,-3.276526825257311537e-01,-1.015607468984235373e-01
7.495453578520978599e-01,-2.751802323867973965e-01,6.045849090173767149e-01
-6.182210983928890791e-01,-3.370695604216144003e-01,7.057682881278983800e-01
-9.806599098106919543e-01,-9.695196315440250678e-02,1.921418739513066909e-01
-3.238557860203847283e-01,-8.707924143350236346e-01,3.716470227737401211e-01
6.448146853261644829e-01,-7.578111922122010569e-01,6.287486322415968172e-03
-9.083652664406562938e-01,-1.548820850319217873e-02,-3.928383061334189130e-01
2.601525765927125144e-01,-9.689100341177756537e-01,5.535615230604058745e-02
-7.298093589611698295e-01,3.813791352483168751e-02,6.826420154036584309e-01
2.150653990374072622e-01,-7.059567196681938439e-01,-7.208781771704574348e-01
6.950535025226598496e-01,-4.498669707379358007e-01,5.929087070556702255e-01
9.347238007795873049e-02,9.229812328769136931e-01,-3.760182957338055743e-01
5.105783914652327615e-01,8.786351877049080050e-01,-4.791410550941033880e-02
-1.341313110738324432e-01,9.703657535978383875e-01,1.242353119497967805e-02
-1.384024993324534381e-01,-8.380741390228984011e-01,4.983956445953934278e-01
-4.369408303579294661e-01,8.763801580181518336e-01,-1.307955749717392424e-01
-3.763240587413964611e-01,-7.057922141933797855e-01,5.741760843716863238e-01
1.242023862245546645e-01,9.783036940116280888e-01,1.797910484464213532e-01
-4.008548368271152018e-01,5.440748966806127802e-03,9.180873921025349826e-01
9.585214565801495334e-01,6.252199664197734263e-02,2.831143722339471425e-01
9.181529923039838392e-01,1.733585300193261347e-01,3.886185207294367561e-01
-4.366339988306667808e-01,-7.098625900979440573e-01,-5.189817416992373866e-01
8.748568602876296563e-01,3.828632511297246355e-01,3.207566484440839694e-01
7.733291614810949843e-02,6.759439572696239740e-01,-7.533540534848441883e-01
9.124131609641450424e-01,-4.009848194537712351e-01,9.154743905782349034e-02
-6.475517786006136367e-01,7.725360774199820091e-02,-7.702418363301448689e-01
1.754276839957555692e-02,9.026848994726334174e-01,4.297390742571753908e-01
3.959563062782203158e-01,9.111984647882320765e-01,-1.665543243145523045e-01
-6.998476419905331758e-01,5.959538505916232021e-01,-4.061982115558179229e-01
-8.569921364919146356e-01,-4.612651611953816344e-01,1.990623253777035195e-01
1.149897353989623866e-01,2.336545574451475982e-01,9.638081452408649996e-01
9.378799416162510172e-02,7.989714592610664967e-01,6.005067479373543682e-01
-6.586921227069911788e-01,6.697829841448412758e-01,-3.152633695095350963e-01
4.642682101021946006e-01,5.552918269044219146e-01,-7.046212062240584384e-01
4.212953086418928517e-01,-6.724520644138408665e-01,6.111500901289800280e-01
3.869227069795949658e-01,3.920983166611935467e-01,-8.382406496369223525e-01
2.943946794903282704e-01,9.503627438929237448e-01,-1.031210314213890505e-01
-4.937134649140769715e-01,3.510136076394648197e-01,-7.956955215350471899e-01
-8.264281594912786799e-01,-4.668370961886709851e-03,5.714028868640548264e-01
-8.657574693123413212e-01,4.944835594768307585e-01,2.139898034557161099e-02
-8.187256180588812216e-01,-4.429675517453054434e-01,-3.777733453185893597e-01
-7.909502470608805735e-01,-5.792897240804321113e-01,-2.462296315643925093e-01
-6.089979131390529377e-01,7.764197247131925383e-01,-1.537742215912425159e-01
3.157243134655186578e-01,-2.690011958900708211e-01,-9.111858206184964004e-01
-2.670483908687470431e-01,-4.618140644271515605e-01,8.357519355893128221e-01
7.352124550554315352e-01,6.774656702920488494e-01,-1.377208772678456816e-01
1.427683639973287288e-01,2.292548301587699761e-02,9.945064787059064715e-01
-4.491838108567228760e-01,8.968917461002748892e-01,-1.052143356593618741e-03
-7.443231079720745713e-01,5.043218631691949172e-01,-4.305971873999641097e-01
5.233914315634714820e-02,-4.105574496151339070e-01,9.076521319582038227e-01
-1.798617955624049192e-01,2.031301619744989018e-01,-9.956627213441647806e-01
2.448827775616817526e-01,-5.093050953541654602e-01,-8.406601417093703121e-01
-9.196195340319405220e-01,2.221791055623056621e-01,3.323298315085926324e-01
2.926756381366215631e-01,7.255070698720702538e-01,5.940248096622559038e-01
-9.706774993797031570e-01,-2.804673352309361989e-01,3.683447261402251344e-02
3.901943171855376535e-01,-7.594690018276204491e-01,-4.983135790477386529e-01
8.683635945434654557e-01,-4.318640679519571979e-01,2.596496660178925220e-01
-1.986283676878864979e-01,6.464189492555671990e-01,-7.405135966880874721e-01
-2.869478470084084187e-01,4.641461010858101699e-01,-8.394277752905325851e-01
-9.373801314860712441e-01,-2.392559422527458513e-01,-2.531479896017098663e-01
-6.220730154048939031e-01,7.734092839718152979e-01,3.907555850951664050e-02
8.818122635136244059e-01,3.865069076733028131e-01,2.913192731927028989e-01
-6.483095284335544939e-01,5.774618888142342144e-01,5.047770805454276921e-01
-4.180677117787708896e-01,-5.259448319865039911e-01,-7.375976164270917623e-01
-8.091791024933931986e-01,2.160761311985614774e-01,-5.539207609170333502e-01
6.024618834262547296e-01,2.491533751905963129e-02,8.198903833946067365e-01
-2.974662700426684570e-01,9.423039258750203206e-01,-2.300113183941977779e-01
3.874437746725026832e-01,-9.042462442254242116e-01,-1.563338661934207952e-01
7.166238172839272114e-01,-3.181314638593344957e-01,5.834953857307005887e-01
5.030287587068469346e-01,-8.544982054197604038e-01,-1.411538510505762345e-01
-1.192507378982208682e-01,-2.424942259921280263e-01,9.683346557587459991e-01
9.579550862209597062e-01,-2.527860646389279431e-01,1.429025396810468529e-01
-7.865108670989767736e-02,7.466135216459804935e-01,6.612221042933177362e-01
