-7.816420723572874499e-03,-5.959381016434401879e-01,-8.046878286217528098e-01
-9.711252679957067813e-02,9.724127232463328774e-01,-2.109382759840841559e-01
3.970252420049269482e-01,7.618776425308129152e-01,-5.159608333866576579e-01
-3.996165649015908650e-01,-5.246464809207226354e-01,-7.340011878397029177e-01
5.328594022545622005e-02,7.336327354644107679e-01,-6.952232888146497869e-01
2.755520931521953654e-01,-8.918713061208064508e-01,-3.281224365388560882e-01
-8.590327351457331950e-01,-4.940291624777460866e-01,-2.457116269564672828e-02
-2.200033413280211569e-01,-9.102638122304586299e-02,-9.738718741619454278e-01
-3.473545650734215506e-01,7.423734148866999172e-02,-9.321041271525629668e-01
-1.003174127315277359e-01,-5.613293804255514718e-01,8.115789556017478645e-01
-5.909303041060027795e-01,7.666667022743370863e-01,-2.893169337848954803e-01
-6.768045586411304271e-01,-5.270965962374069003e-01,-4.981619964521269428e-01
-7.600543645585823571e-02,6.326641637131162899e-01,-7.762416450044766769e-01
8.647228415283547687e-01,-4.300517517111385191e-01,2.265552596494745108e-01
-8.211381968477778903e-01,1.924472545548074620e-01,-5.298235495990648580e-01
-2.679347367578848171e-01,-7.435874617850484203e-01,-6.378608648816170845e-01
-3.239928636907518089e-01,-3.218630294697760741e-01,-8.855614274820012843e-01
-2.676668123850450484e-02,-6.373600679546919112e-01,7.724881015688446206e-01
-4.204677206985774629e-01,4.664666273655819206e-01,7.868667887920588466e-01
6.077704828372911816e-01,-6.129971539287875082e-01,4.843876438686546271e-01
-3.413096283785584384e-01,7.864195072902161465e-01,-5.072487964907220759e-01
-9.765965831045637646e-01,1.061055894644746117e-01,2.597852078844666707e-02
-9.982011710585392272e-02,3.421640866953015031e-02,-9.936424467089182144e-01
-1.322003414015339995e-01,-8.676676773855342972e-01,4.773936120534474359e-01
5.802700607547329331e-02,-7.981857840652925029e-01,-5.869853246934624291e-01
-6.167653431071470349e-01,-4.237570763435050125e-02,7.731900116140603130e-01
3.944756056295825042e-01,1.431078791263628303e-01,9.094546911503685882e-01
3.386828189263528799e-01,-6.588650808527106717e-01,6.530636611788948054e-01
-3.271408096728646853e-01,-4.687583584783389656e-01,8.187963174750774176e-01
4.654247382111655340e-01,-7.062613782488817993e-01,-5.594013854467575486e-01
9.034880414422702399e-01,1.636117356198453499e-01,4.055819784446639265e-01
5.627063032843412360e-01,7.773437128355761283e-01,1.912363444533292933e-01
1.911589556610274465e-01,3.486692429154467782e-02,9.646226949322793676e-01
4.605184701768659794e-01,-8.795214271923176286e-01,9.075963440095287729e-03
-8.074186190785195283e-01,2.548309812148231157e-01,-4.888124866347455799e-01
6.805101088483084260e-01,-2.284922339646089026e-02,-7.382226927286907880e-01
-8.533104044896637763e-01,-4.024464734856233461e-01,3.377220703343007946e-01
-2.009361344718033904e-01,-9.219979659225150392e-01,-2.669235059682569244e-01
3.528012579398329129e-02,-7.741186626498451906e-01,6.198205679651631606e-01
7.019776558452525128e-01,5.574592421215667226e-01,-4.255157325532893386e-01
-9.528294156181024155e-01,-2.111382248809764717e-01,-1.436686075788207451e-01
-5.164173442475085141e-01,5.437275235205848434e-01,-6.379420732129319482e-01
-5.235675963986771153e-01,8.135350244699968147e-02,8.582770184344756803e-01
6.699636822842077732e-01,6.490959528719167926e-01,-3.807232674984022958e-01
-7.406356243665530581e-01,6.479997643785350148e-01,5.124915305048923647e-02
5.984539149154260995e-01,-3.078256096424477062e-01,-7.497581215800905863e-01
8.955261570393404646e-01,2.203702392651249731e-01,4.065761031471552545e-01
-1.426379980408150616e-01,4.347239576686621199e-01,-9.046426666753640822e-01
-5.111655471209258783e-01,-3.242548409288677491e-01,-7.789315086290377055e-01
-5.019343055323908231e-01,-6.261885523261159214e-01,5.736199948174059982e-01
6.873647541388037130e-01,6.074264053530180618e-01,3.877144388715220158e-01
9.075108156118859570e-01,-1.691141893729674051e-01,3.644031269820653396e-01
2.463940108068128632e-01,8.854828820191812389e-01,3.902760641685527609e-01
3.663965974569917683e-01,8.390855386454955100e-01,-3.718714337878447074e-01
6.495352540531730279e-01,5.528642204818086103e-01,5.393468905353218101e-01
9.686009808074970417e-02,-7.705796508867465144e-01,6.611666841426380170e-01
6.200456701970271656e-01,-1.536153432695979391e-02,-7.924378400733930183e-01
1.369305883268234492e-01,3.440850845375508782e-01,-9.079335536138234408e-01
2.801822775013568800e-01,-7.743274939098487852e-01,5.434542240402310265e-01
-5.879700391416838867e-01,-5.058629918378106938e-01,6.410662740920205493e-01
-5.937110373724260315e-01,-5.227884118187651197e-01,5.954648308243324362e-01
9.133438868882403083e-01,-6.032324429671903632e-02,4.113977223855992960e-01
5.235372210692559314e-01,-7.613466867856629738e-01,-3.857048789413516920e-01
-9.871954772918968557e-02,8.792623464558613211e-01,-4.712787268002572305e-01
-1.721038525508110650e-01,6.581589347910304921e-02,-9.966793406533114297e-01
3.453882197835905776e-01,-4.180446164862322012e-01,-8.354438842009472843e-01
-7.483328858499180281e-02,-4.156039237619496007e-01,9.176862645591731260e-01
4.067028721662367952e-01,-5.586262152930693281e-01,7.191783049571589537e-01
-4.410430836021832501e-01,-5.034692871627556299e-01,7.394738300031982181e-01
-4.699077340078355869e-02,9.734680748504428438e-01,-3.030366515894701296e-01
-6.420894916577507550e-01,5.180091589412740838e-01,5.495287577466414497e-01
-3.163471693923770034e-01,-9.095162307002295776e-01,-2.453999531641462006e-01
4.108291931903310656e-01,-8.831366372896488626e-01,2.343532461867690042e-01
-4.149416525527747091e-01,-9.578800562509083572e-02,-8.847149437932383398e-01
-4.659067675325448410e-01,4.160202877776176811e-01,-7.680950542723532504e-01
-6.832233917153739122e-02,-4.105362028220265747e-01,-9.139705028318974023e-01
-7.710153095699854298e-01,2.899282753958270509e-01,-5.619659030453018067e-01
3.306912353549290584e-01,-8.382302225590102518e-01,-4.459323019036263713e-01
8.757728871395661918e-02,3.082386079069803220e-01,-9.507182142020954574e-01
1.493857148470167651e-01,9.639508189757954870e-01,2.230943374731093609e-01
-6.594190235855929005e-01,6.630551843271886847e-01,-3.025478756992524554e-01
-7.316111859071416923e-01,6.741642659315408848e-01,-3.583930879994765700e-02
-2.567034409978119491e-01,9.678694475710903911e-01,2.701847588322801776e-03
-6.770144806855892261e-01,6.848441155120105206e-01,2.660797035858672999e-01
1.982915818015761056e-01,-6.396880979629704367e-01,7.321909349798384481e-01
-9.430245071336114393e-02,4.032248631536129446e-01,-9.010327522714266513e-01
8.590932419022301314e-01,5.293838257018981253e-01,-8.524868397828302968e-03
5.045198496720050274e-01,-3.805920249240148379e-01,7.791880839969456130e-01
2.378853037318074959e-01,-1.505927994700959616e-01,-9.628297122209078518e-01
3.341645309868911951e-01,-9.005773642297059123e-01,2.826383586378502510e-01
-8.587734772903242719e-01,3.533018619205623156e-02,5.320281965968099991e-01
3.562874255347994734e-01,-2.183204979648500910e-02,9.287325348279946713e-01
2.864121480999385350e-01,-7.693414188176517232e-01,-5.677999372769031439e-01
-9.601869451363951313e-01,-1.966197877046245435e-01,2.461560766759221530e-01
-6.045232172145693222e-02,9.371965353763170858e-01,-3.558029176624035728e-01
-4.646313567976371739e-01,8.240268477643180045e-01,-3.178977992662428420e-01
-3.288598105602842936e-01,5.951223117105944871e-01,-7.428845554728163991e-01
7.233551738984249357e-02,-3.604527278492732772e-02,-9.935816713726161042e-01
-2.406755468042273138e-01,9.136189371773858481e-01,3.420160890285149358e-01
7.108201902468401778e-01,-3.680459791825027027e-01,6.140329971773682560e-01
6.434456336021417977e-01,5.919468725955583377e-01,4.476501506014091691e-01
5.756602960386616313e-02,9.916459146301891403e-01,-1.321480175288947956e-01
-9.282770095963239765e-01,2.165388029603795839e-01,-2.981295697855335103e-01
5.647117983242839756e-01,6.195241113924825765e-02,8.084715343674291343e-01
-5.788044239999624585e-01,6.176269739370877643e-01,5.271928221840237461e-01
-8.470248916395560768e-01,2.326647368315635234e-01,-4.531605145409129953e-01
-9.740787834308787252e-01,1.507508592427053151e-01,-1.371319768662619953e-01
8.791954195455137233e-02,2.492472944456942952e-01,-9.650825744365708614e-01
-2.384478795990074562e-01,5.898189992476534638e-01,-7.603056340988399997e-01
2.690776424901578090e-01,-9.450676609680637441e-02,-9.741662505499448788e-01
-3.779263680695057470e-01,1.219730611725484970e-01,-9.287210344924630157e-01
4.408776370115331106e-02,4.279276548762541155e-01,-8.957671213259584819e-01
6.280874277564835184e-01,-6.818224288832440694e-01,-4.023499643947301418e-01
-9.538391238738204159e-01,3.163391095914681039e-01,-2.169628020884681874e-01
-9.736599826735816698e-01,-1.690093184316486530e-01,-7.765083584303697495e-02
3.984092515250404754e-01,7.733270209482360213e-01,-4.555986834933299368e-01
-5.760065421218835136e-01,-4.603775552013781858e-01,-6.881445310586137287e-01
-5.295351926774974904e-01,7.871052225301785610e-01,2.959475475539533607e-01
-5.373383182404246616e-01,-2.473334612261022525e-01,-7.952947331073094706e-01
-1.678497405491149452e-01,-4.868464584726111544e-01,8.627540799257372717e-01
3.211613331018540185e-01,-5.847264101894054239e-02,-9.404830886029579284e-01
-1.962732069442723326e-01,8.400690619812958282e-01,-5.266041051286123320e-01
4.686734953782974999e-01,-3.978834729026942130e-01,7.815312198038021352e-01
8.021906043369132489e-01,-5.059535023187525793e-01,3.236465654110403101e-01
3.027911939122259199e-01,9.096377489279834361e-01,-2.748720536800075553e-01
-1.380865381432130334e-01,3.818421237243026511e-01,8.954256004705675176e-01
2.141955025984430827e-01,-5.959363958458592236e-01,7.673144863104239821e-01
-4.539487894408228974e-01,4.907419255359132260e-01,-7.553673573049807244e-01
4.437637100382833544e-01,-8.780824846879421441e-01,-1.531849329969247886e-01
8.654191627469693948e-01,4.232548011904953555e-01,2.792252320520813846e-01
1.144896078864411811e-02,9.912916662299796622e-01,1.370479717107728201e-01
5.407045343817268312e-01,-7.430053171369489506e-01,3.735613714690240172e-01
8.025289971628211116e-01,-1.485293298347150626e-01,-5.802571802365804610e-01
-9.649104611481457150e-01,-2.428314223878061950e-01,1.248080079653366148e-01
1.147683669635745640e-01,5.463418651246106927e-01,8.180019381363506925e-01
-8.974444065316564689e-01,-2.117722139418804495e-01,-3.833953194058871694e-01
-2.473808331485136680e-01,-3.725089858702001488e-01,9.031457141152530177e-01
-7.906854878309946821e-01,3.457511446963564272e-01,-5.206635467593235811e-01
5.665493067064361066e-01,-7.998915716710742752e-01,1.585103667862861332e-01
8.366036778850335365e-01,-5.224402630798093972e-01,1.193361542825703558e-01
-6.020504029497053544e-01,4.811856344235091454e-01,6.624987861802357214e-01
7.794177322149996590e-01,-6.314970751223279999e-01,1.033757109952059827e-01
8.987153456455775347e-01,3.692232469644691206e-01,2.436918587563394190e-01
1.250537284219214659e-02,-9.538311242833968917e-01,-3.126469995012400860e-01
1.642778996167869598e-01,-3.207015946354100921e-01,-9.216459882629810529e-01
-3.175096287951660878e-01,-1.031369473228574418e-01,9.556317899959683171e-01
-8.384157164310516164e-01,-5.117055447520112432e-01,-1.963362052796048807e-01
-8.160001477926165370e-01,3.827164244888454636e-01,-4.344596754114187220e-01
-3.656513531907096271e-01,-9.029392303507746131e-01,-1.937481166499269991e-01
2.462562783852324522e-01,-7.656736193325820450e-01,5.953609907703790727e-01
2.335160654706185668e-01,-9.450665628566869980e-01,7.104276659347137646e-02
-1.814929498061911839e-01,-2.859626434501610359e-01,9.379935554851012158e-01
9.430644551036543310e-02,3.117738970003734386e-02,9.981865713394840744e-01
-4.646544320009123874e-01,8.703097100029902888e-01,3.636482619128562997e-03
-8.037302584155698870e-01,3.451986915348007057e-01,5.111400540228310252e-01
7.952719555515423977e-01,-6.066778665406983295e-01,3.595832353383058427e-02
8.956101619661616109e-01,1.108631646984773594e-01,4.497629841350012092e-01
-2.612470946414136019e-01,6.557091824163460148e-01,-7.129187794337203954e-01
5.138544866953397294e-01,8.092606711773204786e-01,2.146550422474376441e-01
-2.766556810559970270e-01,-1.911463517174885607e-01,9.436237638204701961e-01
9.414904807079661486e-01,-1.281117328658224197e-01,3.451031928316964925e-01
4.739052813507116380e-01,-8.253770966789610863e-01,3.198364962687751389e-01
2.650522918801605510e-01,3.112147646658673938e-01,9.014282235632268270e-01
8.235111296935888458e-04,6.079822966705332732e-01,-8.027225590701094760e-01
6.645612932385585037e-01,5.494701425445779053e-02,7.170455173551135708e-01
-4.626148584550275888e-01,8.692213737442455734e-01,1.538141951315079581e-01
-3.114467249518704239e-01,7.680668104850725264e-01,-5.651006873580814993e-01
3.285983317460836051e-01,1.921477019386237106e-01,-9.109003515999416489e-01
-2.833360746099164995e-01,-8.241867943735761148e-01,4.892984637231183598e-01
-7.814555698838023812e-01,5.422522397178635156e-01,-3.087999746770919707e-01
3.104434535608425749e-01,-6.727217802121622237e-01,-6.751956172920627886e-01
1.817680652150286194e-02,6.820141686827924099e-01,7.366178602440653922e-01
9.210516333592001503e-01,-2.660118237640379246e-01,2.559973017238945658e-01
4.033004571126727056e-01,-8.984997112599361069e-01,2.480414107691348569e-01
7.172730308283509215e-01,6.834649446434282183e-01,-5.562265164034939369e-02
-2.258251348456361551e-01,9.323496767006069774e-01,2.418472741201565523e-01
4.570410401873413186e-01,1.896519189329196609e-01,8.851139438147868077e-01
9.937662387082020210e-01,8.937529777994909774e-02,4.594814402273275644e-02
2.518540411672096080e-01,9.645569046284819814e-01,1.778454133436006279e-01
8.848546865234721004e-01,-4.465953209289290626e-01,1.052937453384991257e-01
-4.196564727974007591e-01,-6.798186081482417986e-01,-6.007953180633621715e-01
4.901967082190510916e-01,3.949663964720004916e-01,-7.974749053180060221e-01
8.448460294108200985e-01,2.374807138327754696e-01,-5.009195764296151543e-01
-1.564673033339551711e-02,2.551153714259790095e-01,-9.635736981234999110e-01
-5.682132901001837322e-01,-1.786023725246763394e-01,-7.870957554363972042e-01
8.297259921222339685e-01,3.669818902480104228e-01,-3.953252358778228670e-01
-5.223535439580161838e-02,-9.587356719323195664e-01,-2.819508570642787482e-01
-4.867477628992653016e-01,-2.666580903110768019e-03,-8.695944669676960448e-01
-9.130367788755390512e-02,-6.657775544096793396e-01,7.325015887588052221e-01
-1.104602343779945706e-01,4.527745509672359558e-01,-8.839929407987049403e-01
8.749318886796180195e-01,-4.042253870913116165e-01,-2.637454746919031257e-01
-3.504251892407321267e-01,-5.468486867586992428e-01,7.583631539486247464e-01
7.050714480410121832e-01,7.162102607135942822e-01,-4.602566060952218568e-02
-1.563127908413436754e-02,-5.999565268224408277e-01,-8.081411642536726614e-01
-7.440137270661704161e-01,6.543033152510675521e-01,-3.890892451552618175e-03
6.534231770863996314e-01,7.824207472316684342e-01,-1.487423478637879722e-02
-5.594463104991487939e-02,7.902985708614633786e-01,6.167524643762102299e-01
1.235510685442720719e-01,9.566122240387858744e-01,-2.420177608401266334e-01
7.302103017630269255e-01,-4.440415019518533235e-01,5.375676704156572283e-01
-5.274555686702887547e-01,8.580895379276656243e-01,-2.135860308893451631e-02
-1.047938623379747053e-01,1.806093576027019143e-01,-9.754133485967506623e-01
-7.196184991156507893e-01,6.927856896600336212e-01,4.221269759340867678e-02
5.424533146860869293e-01,-8.445163277937728363e-01,-8.841417019254220466e-02
9.437231676632363842e-01,3.309442178028396131e-01,6.293863001867966434e-02
-1.479250758890029993e-01,-9.378926263609896896e-01,3.348176566282423661e-01
3.648410238993159971e-01,3.497609145281855847e-01,8.437877281251306982e-01
7.819314096560608940e-01,6.279744953801017493e-01,-2.309001621798314682e-02
8.913771215083399202e-01,-3.385782595923255700e-01,-3.298886538815141156e-01
-6.927588012261989281e-01,-6.953254325051968499e-01,-1.486077129808291708e-01
4.063411406393382386e-01,-7.076358881920403743e-01,-5.817908976402198507e-01
9.075361892250821683e-02,9.541599040380863705e-01,2.267863635531554567e-01
2.548908969098108157e-01,-9.408700046528493954e-02,-9.589553552705767370e-01
-2.333769139906290702e-01,7.828838133459071758e-01,5.813009034805911579e-01
-3.079407725356320680e-01,9.324718899473966038e-01,-1.647598446296651142e-01
-3.679234925958968505e-01,-7.776381422800991983e-01,-5.064186079880498292e-01
2.682490645627228498e-01,4.070251573014816993e-01,8.733177502657473168e-01
-3.340101193983711636e-01,7.080172397824450181e-01,-6.155898272994595466e-01
2.093710970568498364e-01,-5.723673167056088085e-01,7.760651121353886461e-01
7.323040845879134064e-01,-6.504638354636481656e-01,2.306878702457807739e-01
-9.256896150613331820e-01,1.636827753017894016e-01,3.090409350401540634e-01
-6.257935957534295213e-01,6.780960756814602419e-01,3.883398263855748489e-01
-5.621355755849064550e-01,1.944966748298461445e-01,-7.951975343378554495e-01
-6.688968159287150828e-01,-6.934948986356596068e-01,-3.146881292752997661e-01
9.742852244987710852e-01,2.179620593718677446e-01,-1.462253846049305084e-01
-2.393179429721784823e-01,3.335336250265875935e-02,9.775477125542176848e-01
-1.901806451291220279e-01,4.729059897018327019e-02,-9.809277488260638167e-01
3.452942992543954759e-01,-9.138978894641318629e-01,-1.037458573756469132e-01
2.986855421939657584e-01,-2.149941292163092266e-01,-9.346023890920607258e-01
-1.575357998211761312e-01,-6.690981524197754382e-01,-7.202690491417239604e-01
-7.003615189267087260e-01,-1.004776637248593479e-01,-7.076412274514662926e-01
-6.322959695560985693e-01,-1.302471176754094462e-01,-7.685865653769879957e-01
-4.464276098029007489e-01,6.399424792509716964e-01,-6.017228763879043374e-01
-2.745526136511280968e-01,7.833170750519803383e-01,-5.341386532764987871e-01
-6.565788649171437896e-01,-7.355457936390366047e-01,1.663471260098230431e-01
-5.988090235456284827e-01,-7.511230554333870879e-01,2.950709485703485457e-01
-8.098849410099272506e-01,-3.661848458080889102e-01,3.990625713406988351e-01
7.610259919621078506e-01,6.308011007412770432e-01,9.967292041803323122e-02
6.592318452246872518e-01,-3.643622290142827305e-03,7.474211007068252144e-01
-3.948507574497019945e-01,6.352732513506905709e-01,6.714700461341928106e-01
6.629313314539275748e-01,7.106163880385010234e-01,-2.439600240480291060e-01
-1.005029688808446009e+00,2.030599559041264268e-02,-3.968581282921252590e-02
9.143895691532094583e-01,2.602926403500973040e-01,3.202097195910904581e-01
-5.808416480195011111e-01,2.953878132598667383e-01,7.556035145108774831e-01
8.972478132169677822e-01,2.301704638570397921e-01,3.597415369331289914e-01
-4.087295038845465377e-03,9.900466102565895765e-01,-4.664662848968307435e-02
-1.742064245696886213e-03,-1.012941286172716504e+00,-1.947477747461361791e-02
4.692112347560006280e-01,-1.061855417187620720e-01,8.597027911908614595e-01
-6.940975404906696289e-01,1.085183441911845709e-01,6.925142475104746342e-01
2.204796201404146394e-01,5.913427140297201623e-01,-7.620533675676337548e-01
-9.011315306472093001e-01,-2.987419945673797650e-01,-2.905585177337545733e-01
8.354640194661321351e-01,1.631272350336523680e-01,-5.295392013170245882e-01
3.925889100510070867e-02,9.108948181308517134e-01,-4.359034397509298220e-01
-5.210132314936555264e-01,-8.561907580878858059e-01,-8.700768692185713304e-02
6.447717728847452978e-01,7.038460765147340759e-01,2.770914191257780601e-01
-4.063034042578150817e-01,7.348974680942157445e-01,-5.707762247261733979e-01
3.336119975747062205e-01,7.295632523605098951e-01,5.743808626298010367e-01
8.479541917735100576e-01,1.031579059747695232e-01,5.283355984952717854e-01
-5.643982105607144861e-01,5.837786102123390108e-01,5.911997575691171347e-01
-8.143975930655927842e-01,1.832201177753254445e-02,5.772118562576762368e-01
-3.999525426867691497e-02,-9.691303007435367878e-01,-2.576859588279016844e-01
8.780062637052498120e-01,-6.365256330333497747e-02,-4.876029739644023309e-01
8.379006278081941872e-01,6.848049401707095862e-02,5.467397649841800877e-01
-5.540303169839838615e-01,-6.232734193013016455e-01,5.312149532097829585e-01
4.664535147985076624e-01,5.222280916657414673e-01,7.062422494527037520e-01
-9.460191561538425775e-01,-2.260235039479692731e-01,-2.511631317865165580e-01
1.812343321105210070e-01,9.594771200533227518e-01,-2.763390792004075669e-01
9.498916509653938522e-01,1.339197620062926031e-01,2.129479440073422103e-01
4.805457974052090853e-01,8.765064190213940343e-01,-4.054641042879185420e-02
-4.986042375859088271e-01,-8.700136999380644331e-01,-5.201550191383944727e-02
-1.441808956234593431e-01,-4.695221996507948498e-02,9.909514997422768090e-01
-8.978160079988939390e-01,-4.035270744543155708e-01,1.424835884905628625e-01
-5.691464725776432809e-01,-5.462050487704679380e-01,-6.059209837411515531e-01
5.761871606979045435e-01,-6.709938664887838966e-01,-4.431436134658595094e-01
-4.240144935824921579e-01,1.885645958290645963e-01,-8.932820380438277752e-01
-4.948193782432624976e-01,1.169465564383371653e-01,8.633629041274417659e-01
1.440662435252980378e-01,9.843279600999856882e-01,-1.596279792041162826e-01
2.849168885880146718e-01,-2.929485712036724587e-01,9.017853228793495379e-01
-7.807476333028998683e-01,2.527154031873515838e-01,5.653869446681319966e-01
-4.034087171891082568e-01,8.062626158523554798e-01,4.694562886970534143e-01
-2.246447517147298623e-01,-4.410668398860080885e-01,8.714036213352498450e-01
-1.016478403280847598e+00,4.020567902670012239e-02,7.758872867316425614e-02
-1.408072935638332857e-01,1.363739920201011424e-01,-9.684150971138528741e-01
-1.893817808783497536e-01,-9.880896622236002846e-01,4.925952922971879415e-03
-1.009501693407744538e+00,8.175420889240120337e-02,-7.419487455410921084e-02
4.282986731582654749e-01,-8.950595777585339530e-01,2.131923540914778814e-01
-2.596240488723721707e-01,9.248009770605319924e-01,-2.504653317144218128e-01
9.268043213125465307e-01,2.312091984964979863e-01,2.921822183450849542e-01
-2.043156314118638461e-01,-9.893878500203920900e-01,1.043901129849995335e-01
-6.855361372600824454e-01,-7.144988207638258704e-01,1.410153350629985980e-01
-1.446782846230682540e-01,6.131615608166329778e-01,-7.889688597386348423e-01
2.840981648934703396e-01,9.830513742169401381e-02,-9.648017137440342283e-01
-2.299857322414579699e-02,3.348631064353795317e-01,9.442439299169697042e-01
7.597059054019171809e-01,-1.232829060226531270e-01,-6.548832495770413598e-01
-3.626492371756159239e-01,7.745658338937099208e-01,-5.273932651217230205e-01
-6.238599420418832198e-01,2.395325920706956047e-01,-7.563911106678868901e-01
-1.752453997616400597e-02,3.609516263716037177e-01,9.260602955949446269e-01
3.126546112042538628e-01,-5.880608346274238118e-02,-9.569183189616483620e-01
-1.840562832761894474e-01,-3.073686094533285562e-01,-9.189391649383000793e-01
-7.548382572755422959e-02,-6.780110005405873275e-02,9.920777789776982214e-01
-4.246148978601235191e-01,7.708778317560678328e-01,4.604708999251890811e-01
-4.338627561320609338e-01,-9.016275055303404340e-01,1.244385232240279443e-01
7.538237783932181246e-01,4.420518363423021624e-01,5.004751794641431051e-01
-3.829613749013549007e-01,-4.884994278135595391e-01,-7.904832463930701048e-01
-5.495062587089500905e-01,-8.427567507292346161e-01,1.512403968834976329e-04
4.620025503357796381e-01,7.733814578803592799e-01,4.069061061710423921e-01
-1.332762889753814628e-01,8.382652492485296314e-01,-5.053135531367594080e-01
-8.686306480677653541e-01,-4.059246388313794696e-01,-2.856402647329687738e-01
-1.809917637893433406e-01,8.485689051108949998e-01,4.823249692038598657e-01
8.520456349302557575e-01,4.280239829945694519e-01,-2.690515352204525534e-01
-2.947440286231072237e-01,6.267732612236942558e-01,-7.239589649733427779e-01
-1.284392956769477012e-01,-2.810474131317310109e-02,-9.961441270687841909e-01
2.139745456213304475e-01,4.379819885042797178e-01,-8.764013889406871982e-01
1.383253726170120268e-01,-9.613247898841593697e-01,-1.989619041436362645e-01
8.448733579821935402e-01,5.031474294955663451e-01,1.578075477672639670e-01
-1.317628884306815684e-01,7.657322137511168858e-01,6.035000724664959515e-01
-8.794374858292773878e-01,-4.073475607154137257e-01,2.705690797532080971e-01
1.064878509572998178e-01,5.685185956116408645e-01,8.166997359506038556e-01
-2.540709171396568489e-01,7.723369223479708001e-01,6.140018170809029563e-01
-4.533083236861100151e-01,2.137769730149303715e-01,8.529119050546356551e-01
-3.427201703353466855e-01,6.297075635838885743e-01,7.008976164284059784e-01
-8.223468180937577587e-01,-3.239364633551581885e-01,4.701914518038863289e-01
-1.963477032451326210e-01,-3.186673692463630192e-01,9.209058947299365583e-01
1.671348406987528956e-01,-5.995232693406805646e-01,7.840487588654923012e-01
9.543842809586672304e-01,-2.448778849944161992e-02,3.316414217361300931e-01
-7.173511109669077346e-01,-1.160132962409599205e-01,-6.853806311365939763e-01
7.364319764061898477e-01,-3.273129353135941222e-01,-6.280243640001949013e-01
4.274005833989524272e-01,-2.181913635149910491e-01,-8.678496642593600541e-01
3.288694552273180999e-02,9.393148499387092842e-01,-2.917214132986584718e-01
-7.110048882410699989e-01,-6.544096453005580072e-01,-1.506712367723652135e-01
1.379659083780716555e-01,5.231893799145461710e-01,8.563295741099028469e-01
1.925611409375972694e-01,-3.407090770955987225e-01,9.267335371179460379e-01
4.830913941358516706e-01,-8.190891667146837918e-01,3.042248154338387245e-01
-5.485215552637014991e-01,5.964655162513561593e-02,-8.575109478444579159e-01
-6.072784542215191707e-04,6.143480509884921004e-01,7.661842148123326757e-01
9.180098016006363881e-01,-3.683933517203692998e-01,-6.169685877260790152e-02
3.902786591917464798e-01,2.312223425359413997e-01,-8.814894692332693182e-01
-5.671599260106540141e-01,-5.090055347857157519e-01,-6.466447281433168603e-01
-5.696360696032796989e-02,-9.645648227965489818e-01,-3.012561471219519782e-01
8.681648519138940312e-01,4.942276749035475203e-01,6.535340301822904763e-02
6.578569421724629329e-01,4.869089192487641715e-01,-5.758346401280377558e-01
-4.423839845910216839e-01,3.314629474772767259e-01,8.331149436988928292e-01
3.878607607589598105e-01,-1.095191293515209753e-02,9.389304423945452616e-01
6.458684174299491598e-01,-3.006440696332212670e-01,-7.078980729054612508e-01
8.447135874268435485e-02,5.641693783516174010e-01,8.178666157293983385e-01
-5.299477252895608281e-02,-9.171409932828610279e-01,-3.551604044235137092e-01
-8.308409742243362262e-01,-2.055019667895114643e-01,5.152530179273762112e-01
-1.933737237115688455e-03,-9.029591152930714903e-01,4.361142827695737023e-01
-8.161706009424957164e-01,4.384778692345543960e-01,-3.429992460936752141e-01
1.076740399422962922e-02,-9.918742386207286543e-01,-2.226386047059006890e-01
-8.601609478408804854e-01,3.768811343626687210e-02,-5.086357061826342063e-01
-7.246247588185785737e-01,2.703391315985270715e-01,-6.439462514181936159e-01
1.069085733599383359e-01,-9.849346266125925675e-01,-2.108766883718717067e-02
8.557402359368839750e-01,1.584868318246398511e-01,4.405466912464180429e-01
3.228396202582334285e-01,-7.877294676165979004e-01,-5.252556438619737644e-01
-3.306858522044378024e-01,-6.390848581901437120e-01,6.813614392598064118e-01
2.255968307114414040e-01,2.900037732491347886e-01,-9.249182533678531604e-01
-2.959214988467099849e-01,-2.300254672886522800e-01,-9.268472988584772754e-01
-4.593220573432792442e-01,-7.711331152655099830e-01,4.686971296665355391e-01
-9.346374831490159019e-02,-3.350317950619088325e-01,9.254000329308634809e-01
-4.884000807193268900e-01,1.660629248077158393e-01,-8.585052275683173750e-01
-3.517903331633627784e-01,-8.046312483094110179e-01,-4.582186446685649339e-01
5.782666284471782436e-01,-5.373264952029978975e-02,-8.295486836498481287e-01
-9.339351315838081424e-01,-1.576994960369914600e-01,2.791727006198688188e-01
2.168377272398219757e-02,1.004181470444239554e+00,1.096042807174181510e-01
-5.220846074433819206e-01,8.053495389321411180e-01,3.029509935746002580e-01
-1.365292989493340770e-01,4.759483886260866825e-01,-8.591681315970771671e-01
-4.224885416955134199e-01,1.704707051631905446e-01,-8.814535872984106124e-01
-7.729598557402406200e-01,-3.899828732150832731e-03,6.424389333546031144e-01
2.085402049400769398e-01,-5.469592559123306330e-01,-8.185009041197950364e-01
7.104129142988612200e-01,7.188039467934320692e-01,9.977487735225072651e-02
-9.471168188382350639e-01,2.555436779168165917e-01,-1.525622425358294509e-01
8.054650212173995738e-02,-9.790927602540705488e-01,2.775337726323670040e-01
-8.933485694871799998e-01,2.628950921595493706e-01,3.243272595144808812e-01
-3.764888418800937941e-01,4.995355016045688878e-01,7.677568720566161353e-01
2.400099619284266628e-01,3.005117474294267677e-01,9.363130316033297929e-01
5.765897828177520834e-01,5.702432917524481448e-01,-6.111854984832069126e-01
-4.599953982653609552e-01,7.873222848881424873e-01,-3.690490855482557175e-01
-8.157146248110789255e-01,1.644891712948553381e-02,5.811085344194829583e-01
-3.929892697344443686e-01,-9.409621568485602161e-01,9.742375780703790844e-03
-7.158552438791250250e-01,3.253604273712790845e-02,-7.030071831398990723e-01
-5.348241749117338406e-01,-7.530627217268044404e-01,-3.925411781745521411e-01
-6.792348997974608782e-01,1.125089897534796018e-01,-7.342141318725275978e-01
-9.011716764724572171e-01,-4.197309450976000056e-01,-1.142351810523960648e-01
-2.940697693165721938e-01,8.139355073863888679e-01,-4.832140599166308559e-01
4.706067479669090448e-02,3.397644238708077968e-01,-9.458673683675270505e-01
4.809482182630268055e-01,-7.661714269841251035e-01,-4.490980526403008932e-01
-5.384173213130362123e-01,3.381598317924333630e-01,-7.661179391657728655e-01
5.777849509942830641e-01,7.631998574860316964e-01,3.009997501328574576e-01
-6.326174069073504658e-01,6.525651520416811957e-01,-4.162368315247325090e-01
-4.530314754418993117e-01,-6.406865906269623157e-01,-6.196713610229461766e-01
-4.938346574747283779e-01,3.419026397337309175e-01,8.031548930891621030e-01
-7.723249594252846739e-01,-2.402021188122097917e-01,5.786806775488987364e-01
6.484826597216103439e-02,-9.709533249398688559e-01,-2.333451991480457455e-01
-7.319788034134484533e-01,-6.535825475922139027e-01,1.546878668666554490e-01
7.444576790298780555e-02,-4.831795327949123808e-01,8.734254086371361359e-01
9.505983415980805429e-01,6.231344920989698860e-02,-2.927223079798085270e-01
-8.081937781416301814e-01,-5.716410246517630300e-01,-9.715618565415215513e-02
-7.107957199445564048e-03,1.050057520616665407e-01,-1.003158471810984720e+00
-4.714158054289236399e-01,4.715922816686069496e-01,7.289433593980627624e-01
-1.580379780640524812e-01,-5.742060624644272915e-01,8.101639536664347885e-01
-1.741211372991797457e-01,-6.760436273907388660e-01,7.138192864755511513e-01
-3.929199568804396248e-01,-2.903868999254847760e-01,-8.757848087508015578e-01
1.666945336947317224e-01,-8.702150685045062506e-01,-4.259932449594785453e-01
-1.481666863047939042e-01,-2.232930768902859769e-02,9.806281218672757705e-01
-7.923196086788464321e-01,3.851475456004530562e-01,4.716198110810194688e-01
7.097060409635916889e-01,4.395291063069998727e-01,5.348719842079692199e-01
-9.375040636169056363e-01,-1.786200166624891117e-01,-2.605145555236395016e-01
1.753628592048150636e-01,5.246860426983308567e-01,-8.307185273939362569e-01
-2.012346180222150671e-01,8.322994927125065834e-01,-4.796295244866758956e-01
2.411385443800627415e-01,-4.867129744920902779e-01,8.205249571270513131e-01
-3.448446586151475146e-01,8.803491219897392472e-01,3.450451872746747584e-01
-1.889272439093774847e-01,-5.138131172749066389e-01,-8.301172193499024576e-01
1.736056803897888801e-01,5.691325359646760562e-01,-7.766892496686662595e-01
5.186940146101591820e-01,5.637845063653301736e-01,-6.429966376601273792e-01
5.606465770817996574e-01,-7.871813476803357634e-01,-1.880230576276326060e-01
6.980528935267391044e-02,3.749779210608286673e-02,-9.979584383613773202e-01
-7.719115453777029845e-02,4.656942312548434937e-01,8.811998655718311646e-01
1.276644303602187946e-01,-9.625131489041450772e-01,-1.861405510902139626e-01
-2.467388542251647710e-03,-9.407916141289258682e-01,-3.331910137956928808e-01
-8.646457400962312967e-01,1.171552863696718738e-01,4.844205162472679516e-01
-7.939532269014746291e-01,-4.625254402273849541e-01,3.668304957518720433e-01
9.852299396218252570e-01,-1.391986839058655112e-01,-9.564081605866410485e-02
-5.657440846868980744e-01,4.586230338366426573e-01,-6.906032134022037638e-01
8.510055434943375463e-01,3.042297740399033112e-01,-4.187799930682222227e-01
-3.542675407001822929e-01,3.824525778482824601e-01,8.493031747627131089e-01
3.301396256208533053e-01,5.413964822681709421e-01,7.765156582649644923e-01
-7.652483054001755214e-01,6.803560670153992185e-02,6.492245831994634120e-01
-9.120800850060116760e-01,1.234590239658143601e-01,-3.538033203734756715e-01
-1.788311896186977612e-01,-1.258688094639820176e-01,-9.828556469135962814e-01
-3.851563281155043206e-01,-7.935165964186210452e-01,4.465600722554565749e-01
3.709208480223950000e-01,7.803488284918500550e-01,-5.306595829510836193e-01
-5.618333916377004078e-01,-6.612931723904293957e-01,-5.041641946590499357e-01
-7.872894686140894382e-01,5.729474346879109836e-01,1.827722625228578313e-01
-1.972151461672250194e-01,-2.758311716140167125e-01,9.340582544595744663e-01
9.575104922120881712e-01,-2.809372144842262609e-01,1.146829112001608586e-01
-8.163046887649938466e-01,5.523922885662991833e-01,-3.756447616656347077e-02
7.413236180481219684e-01,5.680512899900163060e-01,-3.714734464554465543e-01
-7.836463120399199678e-01,-4.618959484765635115e-01,3.695195023468119122e-01
-2.568328388842884835e-01,-7.074607504261809510e-01,-6.531905562333745197e-01
4.234695864821864109e-01,-8.133918486125840674e-01,3.929207821063099293e-01
5.165608591052928134e-01,7.178530758439652937e-01,-4.440217351580904026e-01
-4.061351385833126826e-01,5.486717201273152433e-01,7.126393676420301748e-01
1.350698342541985786e-01,1.924199444415870541e-01,-9.747826065255932315e-01
8.997411226869648365e-03,-4.952022008447312107e-01,-8.770274578217730488e-01
9.037633659691033383e-01,8.083068522922702559e-02,-3.633316346550864440e-01
-8.375722535885029574e-01,-1.260530870583581320e-01,5.456359395106582522e-01
-6.687062848613317678e-01,-7.371304925830256538e-01,2.159343919566662773e-02
7.464416802368475379e-01,-6.284495429847395398e-01,-2.106001457511657848e-01
-1.423352912799058859e-02,6.894741425022341552e-01,-7.255949792992687497e-01
5.726441508138613995e-02,5.555500794756207394e-01,-8.191059975581492791e-01
2.149212438354390908e-01,-8.834939116068537546e-01,-3.920068486909772942e-01
-7.244985029724618775e-01,6.662900689832593759e-01,5.669539753972400314e-02
4.544587358222250129e-01,8.304604385125736732e-01,3.134640314292768681e-01
-8.548356996665544827e-01,4.963278433639180774e-03,5.088145728478424834e-01
7.435839366113048410e-01,-4.314324607641948361e-01,4.939497200285768996e-01
9.912563142434240859e-01,-1.275617005498982659e-01,-6.893450512026881583e-02
3.643475314626443140e-01,9.420853948069306538e-01,-5.708118097282699477e-02
-1.243089490720099555e-01,1.344634923781254099e-01,-1.000629172124222421e+00
-4.220555249336291892e-01,-5.557803157740857092e-01,6.921786885058150984e-01
9.286088724138222839e-01,3.590642649625707117e-01,-6.858177571923579352e-02
-5.630753335855136488e-01,-1.053538314401527010e-01,-8.270597412690505745e-01
3.562694936869204021e-01,-3.484187962777550440e-02,9.431679544402091775e-01
5.064939835490239739e-01,7.744862037359740992e-01,-3.958083863218588294e-01
2.176272796615526528e-01,4.543439702067460506e-01,-8.667466430197643401e-01
3.794838785026180550e-01,9.084176771610622536e-01,-2.069938398563748727e-01
2.213548541962757632e-01,-7.474912761563272667e-01,-6.216536676381501092e-01
7.382594784493621276e-01,-6.517303708747209656e-01,2.629450176314406806e-01
6.137462569424038117e-01,7.273625234155158825e-01,-3.169960911178350549e-01
-6.518275910752585611e-01,-7.477253994961914341e-01,-1.142810873739731753e-01
8.721392564890707577e-01,4.520047061070964212e-01,-1.552113652721263393e-01
-6.735081213395965882e-01,-7.033506403754540282e-01,1.580823966666588531e-01
9.503427949305484068e-01,-1.540904313736009001e-01,2.722526529090211755e-01
3.983682989501298732e-01,-3.378478936741283190e-01,8.631413425657524785e-01
-3.837671765803953861e-01,-4.810444728647058077e-01,-8.027179690498755793e-01
9.557707654845399858e-01,2.754318178936252526e-01,1.668666646123703745e-01
8.510983345230807018e-01,-8.614658746597241012e-02,5.322031551187217380e-01
-9.758689110632384756e-01,1.814093596990110913e-01,-1.474161591475950106e-01
-4.378076368536014118e-01,2.532778678258414407e-01,8.697324338922227671e-01
-4.821643423590411537e-01,6.860692676605013585e-01,5.635602509125217097e-01
-2.743849518626669676e-02,-1.019945371974926296e-01,-1.003147494035528497e+00
1.718176022326222963e-01,9.631573535623501048e-01,1.658801377400952737e-01
6.332709941898587713e-01,4.117540902215111043e-01,6.495160746925996431e-01
-7.759641648074842024e-01,6.320007714782556185e-01,1.589422018722892460e-01
6.453518220978649023e-01,4.941048561690802310e-01,-5.948498639216579509e-01
-5.484440770269082277e-01,7.796905412893063714e-01,-3.430057487658370041e-01
-7.483242511681326148e-01,6.616725236613084649e-01,6.948518185457049079e-02
1.282257548546284209e-01,-3.346914115142237689e-01,-9.201602490780810273e-01
-2.999202263895546783e-01,2.442721435072852110e-01,-9.074625207937039306e-01
8.734981573687660150e-01,1.731088585392432933e-01,4.558941772644322099e-01
9.536230336906016403e-01,-9.099652245534387007e-02,3.032444003447896663e-01
-1.135208013686007517e-01,-3.046898741510634667e-01,-9.314690718512005363e-01
-5.469697034293197202e-01,-4.474997380563146554e-01,7.248682828864193572e-01
-7.042873265058430254e-02,9.208786080030360033e-01,-3.905525701550554563e-01
8.503098296600324069e-02,9.096814712618201959e-01,4.205167430713879773e-01
-2.919269223194844720e-01,-1.071055224604137712e-01,9.491851258955793513e-01
-3.888926364567708502e-03,-7.291199882919612296e-01,6.779917650624991410e-01
-7.399448763552144426e-01,4.747467905571441937e-01,4.636592395526480392e-01
8.392967773550172872e-01,2.625257038526719877e-01,-4.643893333355656461e-01
-5.058101945472404798e-02,4.927316588070172476e-01,8.601779649042669007e-01
-3.149647173763843733e-01,-9.205458776204865634e-01,1.710974236578562957e-01
