-9.338506250461620084e-01,-2.328521618739047561e-01,-2.764574104032077595e-01
5.613453914057509042e-01,-7.892387571861210205e-01,2.480037079777539233e-01
6.153943745957060618e-02,-7.920026308913290514e-01,6.109393561269458317e-01
-7.153142673488442904e-01,-2.994497676629654381e-01,-6.102134120208458912e-01
3.297627546669704840e-02,-9.750940779646328771e-01,2.692506409567298475e-01
-9.147526284643157091e-01,3.666041915469026025e-01,-8.863809305401508520e-02
-8.560188657701632564e-02,1.278237472866098068e-01,-9.792544113307342091e-01
-6.305186080379233671e-01,-7.185661277674868508e-01,-3.020309661291642467e-01
-4.494657989178814095e-01,-8.154424259533502584e-01,-3.577969063056832266e-01
1.764465987826109861e-01,9.453596861641391236e-01,-2.428504053020988374e-01
5.239173430485956073e-01,-8.133921418369118861e-01,-2.908342932196523178e-01
-4.755058057921366932e-01,-1.732913822251494207e-01,-8.531851689850874498e-01
-4.879559527734518565e-02,-9.973665402416814763e-01,1.071019894529795236e-01
-4.195991098086173654e-01,6.067627722531971912e-01,6.631688418049824785e-01
4.406664549708241840e-02,-6.774279630002781882e-01,-7.288116104438673304e-01
-8.444247598350304029e-01,-6.407741595567593984e-02,-5.607305316950084162e-01
-6.987911917330096312e-01,-5.267252983399118849e-01,-4.764845829101362895e-01
7.544220307262936021e-02,9.778185067288196475e-01,-2.046011251370334072e-01
9.678829579540044747e-01,2.188852449405487843e-01,-1.698098676423921427e-01
-2.959071713088414768e-01,8.669109756156543334e-01,3.750815463213416079e-01
3.163970739033409307e-01,-9.422213667966279349e-01,-6.603811769788692221e-02
3.972073466494707716e-01,-2.341322512057275318e-01,-8.678033063445274031e-01
-5.951244241965831794e-01,-7.892419082588708612e-01,-1.462335812169460181e-01
-2.428433194708290999e-01,8.801937001242219338e-01,-4.056044402194666221e-01
-9.512389626631599926e-01,7.099958257122321315e-02,-2.740856543304034942e-01
6.707249856244122954e-01,4.911065345065402377e-01,-5.375503218671225936e-01
5.693068841135949798e-01,6.706710166497199532e-01,4.788410622400556815e-01
-1.324479053226260972e-01,9.713328503038375361e-01,1.194631259075499274e-01
3.161939606791448476e-01,8.491403908122240329e-01,-4.197200179033292455e-01
-9.981370393877547764e-01,1.119436382847548289e-01,1.398080964555108718e-01
9.363075920427137155e-02,3.755989555299286131e-01,9.261289801299135149e-01
4.827159350415740624e-01,-2.372141492982946243e-01,8.174275163648611064e-01
5.949173539515457687e-01,7.414048954565386484e-01,2.542567900327353803e-01
-7.438470184666272633e-01,6.482887080316577233e-01,1.101405444592088306e-01
1.094862452055537644e-01,-6.831484058234346124e-01,-6.907404145142408414e-01
-7.127622649304089508e-01,-4.115273820183697473e-01,5.755032639825223839e-01
2.126049055723918391e-01,3.442570221925571605e-01,-9.167574728464895628e-01
-7.455327920278546072e-01,3.404467001783228475e-01,-5.384985029588794658e-01
-1.380138807551635205e-01,9.607095150847935194e-01,-2.065703849924321600e-01
-1.158194667704688097e-01,-5.368868005048751391e-01,8.263991100816556745e-01
6.055370288035965415e-02,-1.578216650567573487e-01,-9.718690679216266393e-01
1.190678607069818595e-01,-9.215339887756627268e-01,-3.254144036863936273e-01
7.821676750216990381e-01,4.952163926668087246e-01,-4.004438953425037417e-01
-1.341904352410257066e-02,-5.669159024952332704e-01,8.327985271349184204e-01
7.122042121968235051e-01,-5.108181124055862776e-01,-4.504456843742196126e-01
-8.904917484210517209e-01,-2.566530323260168833e-01,3.952146278878465591e-01
1.358225904350141011e-01,3.391179726424625174e-01,9.393537632352000344e-01
-2.479724546195803681e-01,-9.823387348456048551e-01,-3.505914998379765918e-02
-5.717925712253947301e-01,-4.807174228700623053e-01,-6.443056172384088454e-01
1.025091095164479132e-01,7.299999890535148195e-01,-6.555012944585950629e-01
4.551748406114208834e-01,4.156799486497908536e-02,8.847867514486859042e-01
-1.634129282183869880e-01,5.546569790793591803e-01,8.066083181469091423e-01
7.868176183327064699e-01,-2.158399333919020502e-01,5.757052264900727190e-01
2.185423925354396391e-01,-7.378795461401331801e-01,6.199777166256917882e-01
5.287507965252588038e-01,1.828897155201351932e-01,8.398951767975967320e-01
-1.279033726064612020e-01,1.001421844716786413e+00,-1.452972036243122544e-01
-7.240590862739828548e-01,-4.686583580724272280e-01,5.184092237220370158e-01
-4.004157201994910098e-01,-8.742794208737644235e-01,1.918087965978802489e-01
-2.651637045965858364e-01,9.501896334069095396e-01,1.598563131006250707e-02
2.564565265064004951e-01,6.886488877870703407e-01,-6.874335317537998424e-01
2.167885107602937622e-01,6.638413189994242236e-01,-7.019233070428123611e-01
-5.968031997969593105e-02,5.227408010200726984e-01,8.545550595828642626e-01
-9.406693202865549219e-01,2.885841556774065286e-01,1.853878850604245565e-01
3.274652580457356188e-01,-9.270870272705247217e-01,1.955188225545954062e-01
-5.526377733342853205e-01,-8.252462454263475022e-01,-2.021912507410812687e-01
-9.427400791687924331e-01,-3.003174228646752764e-01,1.143302061570047740e-01
3.380720880488295998e-01,9.385059500346457639e-01,-1.593379042136956469e-01
-4.165234853308581731e-02,9.711064292159029554e-01,2.233949282306866291e-01
2.762600336536155665e-01,7.894101061423592913e-01,-5.434463617461310347e-01
4.860504208715124563e-01,-8.496942740401992600e-01,2.888841753684566749e-01
9.177828395554598062e-01,-3.477543170946661294e-02,-3.729069433543162337e-01
-6.865589997459965454e-01,3.267166854104396334e-01,-6.398510684877223298e-01
-5.833204080009557480e-01,8.107740499158870850e-01,7.755728006803958019e-02
-5.141379900078199006e-01,-6.857181699817279652e-01,-4.790878493591355092e-01
-6.980424541048588227e-02,-9.295830633434677415e-01,-3.333387225338403925e-01
-8.587970386440850756e-01,-4.434014923113064333e-01,-2.727870212023402186e-01
7.431418787387351899e-02,-7.533722142696016588e-01,-6.490272697645178557e-01
-9.722802661010879754e-01,2.546574556813557821e-01,-2.574648421162754539e-02
-4.375338712283435294e-01,-8.934108747238156401e-01,1.301040513270363130e-01
7.619303710190992174e-01,-4.097278672664902976e-01,5.028653309992422438e-01
4.655471941400980973e-01,-7.712913090695243667e-01,-3.929203097346463114e-01
6.703852346617702462e-01,-5.911623779114822952e-01,-4.383463481634709002e-01
7.481953243628535200e-01,-6.559760697745498081e-01,1.121355279417461104e-01
8.580758639068885030e-01,-3.599640670204952708e-01,-3.637171435391243768e-01
-2.332511025772781785e-02,9.920073828943483107e-01,1.127328733844513726e-03
-2.824811178875349382e-01,-9.505503727846421613e-01,-1.292276132990134285e-03
8.824656241285760983e-02,-1.749876260992723198e-01,9.899257454539285295e-01
8.928032367639499034e-02,9.230451496587790405e-01,3.828071497337737772e-01
-8.083134817591580701e-01,-5.851186669917588512e-01,1.028305619132035414e-01
-5.396079178450794434e-01,8.434472517737301445e-01,3.161167561351467797e-03
6.425311011812722128e-01,2.142034476970234302e-01,-7.503764230952520986e-01
4.804924340726084431e-01,7.816451046639294464e-01,3.848628851869957401e-01
-9.906988762974939799e-01,1.110293560848423788e-01,-5.003123673767397722e-02
3.278847248296260508e-01,1.253295423156408073e-01,-9.476261064672127921e-01
4.308182743962185590e-01,-8.692074905410114294e-01,2.597335137667601823e-01
5.049361791639478403e-01,-8.468310434488368621e-01,-1.545257038715554532e-01
2.675478062300420956e-02,-9.970237819428968695e-01,-1.393720331043843963e-01
-6.975682537742908806e-01,-7.120390425309426341e-01,-1.162582004429299140e-02
9.278273426540247781e-01,-3.631411858201878395e-01,1.298621874823057687e-01
-7.504039976327978034e-02,8.302184160581553840e-01,5.682130122751831713e-01
4.975565356481549406e-01,8.805363757439452210e-02,8.423170967364435047e-01
5.774578854001676254e-01,-7.123666544902998998e-01,4.039983990851686579e-01
2.459205275815914415e-01,-5.385360077082392838e-01,-8.043448033205523595e-01
3.938695688736694733e-01,6.782332623534618188e-01,6.010242448085499900e-01
9.517747523382973363e-01,-1.021560615889959001e-01,-2.794617537892548631e-01
1.300253173593103606e-01,-6.499259510636659076e-01,-7.332313234856292494e-01
3.204106960164009865e-01,-3.846228626438982223e-01,-8.600945973448163029e-01
-4.876113065280778813e-01,-8.670570424898642603e-01,1.081005732724233531e-01
-1.673332765750610782e-02,-9.895045073726570495e-01,-5.838943428315406664e-02
-7.869689731961160284e-01,-6.229709943178731724e-01,1.513973768000176079e-01
-4.048035921844903018e-01,-8.487758342016930024e-01,-3.687033526732753086e-01
-3.055837945717156390e-01,-9.356305452353960161e-01,1.366695711646171985e-01
-9.297559834022298686e-01,2.460311116132985199e-01,3.102960501336096133e-01
3.757026536903770308e-01,-5.450612547426844090e-01,-7.865800077346988273e-01
1.392719982497272191e-01,-1.385742898210456375e-01,-9.716007619325400801e-01
1.084686580681818030e-01,-7.534635826646147727e-01,6.203724310810100340e-01
-5.856198482687580142e-01,-3.390992164975073497e-01,-7.478870504365880967e-01
9.015511309947487062e-01,-3.735595780036916613e-01,-1.875790564142728600e-01
-5.213597742721596262e-01,-5.464457090289587260e-01,-6.418575345467866233e-01
2.823988809206527950e-01,9.241309341359418283e-01,-2.752644193971120479e-01
-7.565351212483213406e-01,-6.102919404286514249e-01,2.151056701746094368e-01
2.950046494025400645e-01,-9.627884711128703588e-01,8.695804116731237210e-02
9.019795690911687480e-02,9.288259403353664734e-01,3.433713033099624057e-01
-3.886102746778636319e-01,7.156886839499944086e-01,5.839670997394603713e-01
3.505349921161314275e-01,-7.213599190941509809e-01,5.928263436339923365e-01
8.918656351061807763e-01,4.079667538125484327e-01,6.926126005956723120e-02
2.474106912948660988e-02,9.939905393739082440e-01,3.408972370786648998e-02
-1.384837325656125377e-02,-9.647109203964182589e-01,-2.943094426304342925e-01
-8.437406386968542282e-01,5.219290650046920499e-01,8.433557775171883486e-02
2.015161608111094294e-01,1.097775062727912865e-01,9.764229719970171084e-01
7.678359581113951560e-01,-5.181606290965967698e-01,3.788270009853584863e-01
-4.367284807506758293e-01,8.523617479641352190e-01,2.582906846119044086e-01
-7.342437395362075847e-01,-1.900946691352821682e-01,6.538824787701942309e-01
2.181995559706712828e-01,6.207286572010928954e-02,-9.767969337071971125e-01
8.748033872691619584e-01,2.945574923449449378e-01,3.588081656874715919e-01
-1.141403403621469997e-01,-3.274297113651587487e-01,-9.364868772024979027e-01
4.124818499340452971e-01,8.674091465685010993e-01,-3.051106324144410298e-01
1.459163753658101748e-01,-7.611378635221160982e-01,-6.443566464020288320e-01
-6.246743612517225985e-01,7.310765717200617964e-01,2.474654893424150237e-01
-5.444395569139006685e-01,5.787211184004797948e-01,5.964546051807391169e-01
9.537678151634154666e-01,8.116584796214727782e-02,-3.415377051523500462e-01
-6.118963308465170670e-01,6.243548414019031156e-01,5.027235891795469591e-01
1.306334460226766525e-01,1.233711102479223554e-01,9.854518113831798320e-01
-8.644881746698936942e-01,3.668846872286634087e-01,-3.546183391081467184e-01
-8.752088185774513640e-01,-4.611695960859046872e-01,-2.449890437693715006e-02
6.541470450845877638e-01,7.240697239531261875e-01,-2.692515377730766990e-01
-2.166173095414717642e-01,1.348310003513671779e-02,-9.778683606767313297e-01
2.357001309779533926e-01,-7.242923975897312960e-01,-6.487906313907343403e-01
-6.327328795167069808e-01,3.520550106072964369e-01,-6.798859251277619142e-01
-2.145803490790288148e-01,9.773574283576096366e-01,-8.982557565094232213e-03
-6.769723385933958948e-01,6.927513099804030183e-01,-1.205475468340546363e-01
4.740755476423992310e-01,8.518319409557211230e-01,-2.101926590181168175e-01
6.448076078984703585e-01,7.504718511913395229e-01,1.650978978105983042e-01
7.471293992991587807e-01,-6.337080236466452465e-01,-1.164807193408409214e-01
8.246666715768932177e-01,1.407082361452747198e-02,-5.883328245726707761e-01
-6.439199892626011890e-01,5.609844798657375176e-01,5.219884853579918049e-01
8.873446051332350981e-02,4.405599035643474881e-01,9.026229070275245681e-01
6.675782149773644425e-02,-9.996182871270455905e-01,-5.257790166054444880e-02
5.353570634646369619e-01,-2.490009221388065352e-01,7.851225445407183923e-01
5.729085546105454618e-01,7.782089552446331826e-01,-2.639464175041703609e-01
-1.585291148725546662e-01,5.208274518425541899e-01,8.517748764838910525e-01
-5.075140641392401619e-01,8.509164292541141483e-01,1.627871520915372405e-01
7.203906412598090059e-01,5.340946206615324598e-01,4.188799942453769187e-01
-1.072655849799195593e-01,-9.870824849697072967e-01,1.678359920290201368e-01
2.978262804826144472e-01,6.328748281517929675e-01,6.852620807772578093e-01
8.439884702035023167e-01,-5.194893920894118056e-01,-1.050302058042207887e-01
2.565320079070860793e-01,-9.685446681177426465e-01,-4.875478934817552290e-02
-5.671526261651580469e-01,-7.442414780494930326e-01,3.147690812582629727e-01
-1.576031312051354161e-01,8.328769895759720043e-01,-5.295784767776671176e-01
4.167650959623221962e-01,-7.233687669456081437e-01,-5.505562690017588023e-01
-1.002067615142275825e+00,-2.606354760506328361e-02,1.980159670856176219e-04
9.452588694806587366e-01,1.294028300338207205e-01,3.127621650029468459e-01
-3.052371421141558128e-01,5.365330622840059904e-01,7.769141396164470637e-01
-5.825630353080929469e-01,8.293100501573692496e-01,6.589902805372090111e-02
2.080226655398443314e-01,-3.345501041359667527e-01,9.107697893155815017e-01
8.705053961835290677e-01,-4.475484123514015256e-01,1.438185975047137355e-01
5.657111822270280976e-01,6.350299724541171864e-01,5.522579548490472723e-01
-2.211076222664799806e-01,1.686349566964917834e-01,9.593457060644359213e-01
7.005081040795597680e-01,-4.245835005867029666e-01,5.953542798321775908e-01
-5.166423753561295573e-01,5.296658511372475120e-01,6.678597995620076944e-01
-7.285861812948483118e-01,-1.053131023466202798e-01,-6.762331227117948096e-01
-4.042939101370408572e-01,-7.554409876165388837e-01,5.459971063640211009e-01
-4.301671769655885935e-01,-3.650529876565609677e-01,8.383166710549496692e-01
-4.500065156554851620e-01,-8.894380238406375261e-01,1.403859812836875595e-02
-4.590116092220835053e-01,-5.894166920342108762e-01,-6.451210618904895666e-01
-2.672618127534657773e-01,-3.698598647406056150e-01,8.781672823516468718e-01
-8.274120104961240063e-01,3.807027776831998778e-01,-4.145523689893839125e-01
-4.176098906189014692e-01,-7.466537125901985261e-01,-5.111117735432493259e-01
5.004084091733176226e-02,9.532150261900752541e-01,-2.775458866051558338e-01
-2.321714532463478309e-01,-9.719766215251531838e-01,2.764103904375824622e-03
-7.258127934242357693e-01,2.230788309070368125e-01,6.495361983145501172e-01
2.302746169082461325e-01,8.482779706604210990e-01,-4.736602770245997296e-01
2.406609727334526050e-01,-3.502550669417607287e-01,9.119237523572013560e-01
-9.364150666124759770e-01,-2.344220182120413110e-01,-2.854075204378456188e-01
6.815286237703990224e-01,-5.569726323817107971e-01,-4.549556189508101589e-01
3.228267424951578035e-01,-3.783248110883133952e-01,8.899542395863305755e-01
9.646335347679949601e-01,-4.321274398590473770e-02,2.751363980307273138e-01
4.607250960390831818e-01,-7.604713058418958171e-01,4.453764577880506836e-01
-1.834328890628261211e-01,8.241290102441216625e-01,5.536449134749948930e-01
7.421296154007301915e-01,-6.568741362195983369e-01,-1.809508912910997858e-01
-4.809495286875413722e-01,-8.685535049090006288e-01,-9.661808435080684876e-02
7.304827381441882928e-01,-5.417767626265559411e-01,-4.152801664618238076e-01
-8.093281946418016126e-01,5.685040253889050987e-01,1.925397062672804804e-01
-2.810536654672734710e-02,1.988881005443850214e-02,1.001455584255231290e+00
-3.794708069286593100e-01,8.139443098220038308e-01,-4.551085991787052754e-01
6.777985049727957012e-01,4.855228168413154299e-01,5.218009018478029226e-01
1.708002078636745580e-01,-2.627541280022534509e-01,9.529372499357213755e-01
-7.291086507513352410e-01,1.350974763268968926e-01,6.842252420559258308e-01
-3.575036189901888983e-01,1.928375490715106555e-01,-9.058042328225797135e-01
-9.951424422403551961e-01,8.462941415926027167e-02,8.289573765514399173e-02
7.760574558390228583e-01,-4.120112780697186006e-01,4.450516020588914379e-01
-7.722658753497223527e-01,-6.144910559404235251e-01,1.393673789870155388e-01
9.921606979304500307e-01,-9.922421303505907231e-02,1.051394055523686977e-01
6.304124503259694867e-01,-7.696819805742722842e-01,4.058254042781788556e-02
-7.503952812953214035e-01,3.723014796528484327e-02,-6.573198773364145042e-01
7.668897950694966159e-01,4.532556161675780904e-01,4.546980546198902129e-01
1.892992693106863855e-01,-9.731263825838680770e-01,-9.483057166293813733e-02
4.819370108782347617e-02,9.848327884148212474e-01,3.872216197251918124e-02
-5.268290358233896908e-01,7.231839465887071050e-01,4.604839991123850229e-01
6.059768684090431901e-01,-4.734908465286246509e-02,-7.808647213372447160e-01
9.173057723048467782e-01,-2.538030127745710129e-01,-3.104414339300429759e-01
-2.096185604408985215e-01,-8.290670474870985851e-01,-5.048488589318151920e-01
-4.724046831410518288e-01,7.112943306669042287e-02,-8.939581436499463019e-01
-2.522648559616395003e-01,-6.076912916224590927e-02,9.750849073248041288e-01
7.377595106829741844e-01,6.696861631968418216e-01,-1.456585121376811620e-01
-5.493869369596534602e-01,-8.051856397950731825e-01,-2.246650972348516184e-01
-8.050509723631464887e-01,5.628566403187859057e-01,-1.691279791717921130e-02
-8.532674102806026006e-01,-5.116992113138933984e-01,1.378977813583057710e-01
-8.818378227175024398e-01,-1.518891710210711621e-01,-4.365651189682523414e-01
-3.117256196320958850e-01,-6.040005699437820397e-01,-7.344171665086012268e-01
-3.934850459297244418e-01,-6.181590447441477343e-01,-6.859567969546761512e-01
1.869180495506670425e-01,-9.413751314187458474e-01,-2.230894713142185792e-01
2.756697953171513005e-01,-9.477487728105798981e-01,-6.877953222197541634e-03
-1.904983229490604946e-01,4.623518158273213774e-01,-8.658729549318808782e-01
-1.351724776495985547e-01,5.801906156699827566e-01,-8.092788187936321709e-01
2.640130706919192605e-01,3.759724396349450326e-01,-8.591843329332586876e-01
2.596350152393883115e-01,-1.760450297947064313e-01,9.426574598172975383e-01
2.790784847405602398e-01,6.915978038135782713e-01,6.610944566691581148e-01
1.000428788707826477e+00,3.065636033557996021e-02,-9.248607295859037625e-02
1.205783119685551186e-01,-5.039264547633138802e-01,8.576066075877499806e-01
3.041832654491785082e-01,-2.350717094107378224e-01,-9.296697290105895295e-01
1.008429231312975988e-01,2.525463978775449592e-01,9.656323467503734603e-01
8.802208167115114223e-01,2.722529475891482531e-01,-3.829586110722489334e-01
1.113811343860512115e-01,2.979973606279417986e-01,9.414020767511944721e-01
6.516906768847746667e-01,-6.587466528346388461e-01,3.517627232260070458e-01
-7.088609219710827469e-01,6.222176303705015954e-01,-3.698564109721274029e-01
3.417905612844977514e-01,8.043211706018534857e-01,4.547198126442342780e-01
7.460539215795425338e-01,3.205967085981175635e-01,-5.601293656629970918e-01
-1.612066132343792924e-01,-9.039247675253785363e-01,3.687210949459760467e-01
-1.120596954676370549e-01,-2.034813875742984279e-01,-9.652704370459367356e-01
-4.970770513343636954e-01,-3.416365418218383354e-01,8.007629278959234043e-01
3.289564691526408180e-01,-8.939208234434762312e-01,3.376027870501745465e-01
-4.818724936965713690e-01,3.733225826015277860e-01,-8.003229900161776822e-01
4.625170732246409178e-01,-1.105848372517828637e-01,8.727878000023652216e-01
2.598479171619270667e-01,-9.701132970242445364e-01,-1.493368491659017860e-01
7.725875264033801315e-01,3.764707412449674190e-02,6.125064010537000225e-01
1.498312876421463158e-01,4.954805209770061225e-01,8.607299275176701903e-01
9.658373808447712205e-01,-2.988212324108670964e-02,-2.740897145988629435e-01
6.464328958603737796e-01,2.674393700255610073e-01,-7.122874119489558398e-01
-8.225372369292538455e-01,4.078661605533430157e-01,-4.053306088868592894e-01
-6.389970552791484071e-01,-1.592346477888798295e-01,7.609404697003541163e-01
1.411844934414253627e-01,5.292365111601337047e-01,8.400399185895168763e-01
9.316114427965623002e-02,6.862452465312425254e-01,-7.056891218294079060e-01
6.744637334513540194e-01,2.928525807728688535e-01,6.696381218973942451e-01
-2.215145716343796742e-02,-2.281399939486626616e-01,-9.780507364254665825e-01
4.220947301432708132e-01,-7.770885357592468567e-01,4.977699871542304866e-01
-6.741392621591199563e-02,2.580309236989485888e-01,9.457541345686840684e-01
4.251275139953820115e-01,-4.899486618365750945e-01,7.616092718690018470e-01
-4.755367162842544237e-01,4.126712560518728812e-01,-7.821783058561854185e-01
6.613669969654401015e-01,7.485159695902453558e-01,-8.541109446196011590e-02
9.813420438905905152e-02,1.893246478830996893e-01,-9.714602990646313829e-01
-5.930151069577898060e-01,-2.218463784206922418e-01,-7.671539404768979997e-01
-9.326687242892081064e-01,1.985496629440429428e-01,2.632636648909371657e-01
-3.213199487886138073e-01,-8.727906341656646028e-01,-3.850814153956401142e-01
8.009305686239770461e-01,4.821605584965215630e-01,-3.604852818704241124e-01
5.272340705113190973e-01,-7.119071845067119764e-01,4.799480209800544572e-01
2.988509317450072089e-01,9.182348729551261801e-01,2.185088236611626433e-01
7.893187591902126599e-01,1.175195869792745179e-01,-5.968746787928216335e-01
9.885606428562204728e-01,-2.307449944876227566e-01,-5.188264389040650459e-02
3.374109386600141480e-01,8.909757510912199585e-01,-3.109108593088930617e-01
3.981947021035054934e-01,-1.614275764678992087e-01,-9.253361381421880694e-01
-4.954650175274685764e-01,-8.423476055316090338e-01,-1.456615522365900250e-01
-6.167741886197609658e-01,5.890464625167309842e-01,-5.336897692320548003e-01
3.252757273449606856e-01,-3.005828347276703338e-01,-9.138533578983614181e-01
-6.108603655733899629e-01,8.056762730144654272e-01,8.807802156353583545e-02
5.538660518563670587e-01,-8.201771191739836153e-01,7.704716802270566989e-02
5.859846606283962422e-02,2.521030462319956977e-01,9.647821858044892673e-01
-5.478974476148695816e-01,6.619403219470182398e-01,-5.414553423635343199e-01
-1.834855467003536078e-01,4.244831776575835880e-01,-8.868487870674993667e-01
-4.893088352652474188e-02,-1.007832874158822944e+00,3.534733008197796233e-02
-6.529581612042918426e-01,-7.343348575477827156e-01,2.358303858491276328e-01
8.552864229084404801e-01,4.963319559594366326e-01,1.624763302419958422e-01
-7.522298479731516219e-01,-2.703977097293213672e-01,6.182710915027074261e-01
3.017789966099590493e-01,-9.540263850637072940e-01,-9.150655803070879835e-02
-1.338379983788783034e-01,-8.399779114332559526e-01,-5.433498879545006766e-01
8.596110449859157843e-01,4.672685488293851774e-01,1.758118647082175801e-01
-7.648405051361986118e-01,-6.240929298518687052e-01,2.059872499350672848e-01
-7.546825983408360639e-01,-5.342013580022589858e-01,-3.433430517984666364e-01
6.261526606884169066e-01,7.756312245165715158e-01,-2.902009173091526020e-02
9.650171455061593573e-01,-2.193142417701728630e-01,-8.501214555303865383e-02
-4.022075069501798716e-01,5.778928014829205484e-01,-7.217499756125329569e-01
3.942979851984572681e-01,2.432784905762614691e-01,8.941365639742443472e-01
-7.326448750668067555e-01,-3.615542907442925169e-01,-5.853758197528939888e-01
-4.066480588629025061e-01,4.250822386748682735e-01,-8.161731058543023609e-01
6.527674995806964642e-01,-9.151475339709119750e-02,7.366528738497047923e-01
2.878740191221595968e-01,-9.335536261536535596e-01,1.462845189836039783e-01
-1.927835504472512340e-01,-1.261274663564892484e-01,-9.735557204994363945e-01
9.561044716699400592e-01,-2.050853935093099600e-01,1.710812725579894944e-01
-1.496900022146870068e-01,-3.088532830274106078e-01,9.293963500180520976e-01
5.017200522770779575e-02,-9.961453651687823818e-01,-9.493433363868986063e-02
-6.306199931799173486e-01,-7.574002666464180189e-01,-1.955835149944818441e-01
-3.394454087182616764e-01,-8.948430884544865682e-01,2.995419578464955102e-01
-8.348497968835478789e-01,4.813353157078684719e-01,-2.328244620992919733e-01
1.834935393548756399e-01,-3.589051882076955274e-02,9.782195769060325619e-01
9.629199132807652051e-01,-5.225711234742994038e-02,1.948693260298285379e-01
1.735208148329219768e-01,2.917456544584322020e-01,-9.472723755844226767e-01
8.918089340989810987e-01,2.780402441924003654e-01,3.590570460667663055e-01
1.012810774512504119e+00,-7.191412765790219930e-02,8.424533940436670920e-02
8.476308295472481102e-01,4.213191950665791663e-01,-2.875062798756906068e-01
9.994527915780779814e-01,6.630794273530628280e-02,-4.408598010099347431e-02
3.435245502853019883e-01,4.005974162417215712e-01,-8.507536166959032142e-01
4.450764917252063024e-01,8.566883728444183443e-01,-2.369829700361330838e-01
4.802723471574993352e-02,9.998454571530311918e-01,-9.854352888882632680e-03
-1.001232508447946756e-01,4.479657335631223036e-01,9.004093937377992685e-01
-3.025023022488766977e-01,-5.807087102757358954e-01,-7.543659998908790465e-01
-8.676615332063626340e-01,-1.262660775523502532e-01,5.245004830584097943e-01
-8.522889498009000864e-01,-4.347559141630065183e-01,2.608306168856468488e-01
4.448341926356663700e-01,-8.043927812664588561e-01,3.515254130027404833e-01
-3.249728755587839579e-01,1.620505510652152925e-01,-9.080825984491319725e-01
8.766566495848793217e-01,3.424390926661270429e-01,3.745272288870530319e-01
3.113793886539193978e-01,9.493959147009971566e-01,1.169948311004874453e-01
-5.162928372716486525e-01,8.369575491236712628e-01,1.725713289921516069e-01
-3.474137250117652620e-01,-7.885758005073649768e-01,-5.451701971956999238e-01
9.239726453295814546e-01,1.906496633841034960e-01,2.727442100251698531e-01
-5.825367079735371822e-01,3.610071231353306209e-01,7.159518145224024188e-01
-5.404417026194028306e-01,-7.348567466936933856e-01,3.882180003375271804e-01
-5.946977329744683738e-01,-2.755488087519487039e-01,-7.545289132570447421e-01
-8.425635148378054495e-01,3.689200778764198940e-01,-4.223388635646155298e-01
1.095460188516173550e-01,-9.547517354776813292e-02,9.905182648568817694e-01
-2.488029999200332409e-01,-6.142010243759788990e-01,7.498638234147446680e-01
9.121830842032498943e-01,3.344613612913571732e-01,-2.360283955034683245e-01
4.847141931540550064e-01,7.885279406447308626e-01,4.188342483205830802e-01
-8.730833688019504768e-01,-2.205567309355122574e-01,4.446714634680700717e-01
8.965074319929138280e-01,2.774406455687024042e-01,3.370896195524829553e-01
-8.464607656573212013e-01,2.992350254092162598e-01,-4.050401611157959936e-01
4.571323770184729240e-01,3.584155714466489284e-01,-8.127617875575124939e-01
-3.351030449469861727e-01,8.962328221970243813e-01,-3.000120806737343049e-01
3.339398976082822434e-01,-6.904974928902231079e-01,-6.226902372527013396e-01
-8.312209554298691794e-01,4.582963366547964656e-01,-3.640529928412397087e-01
-3.623367427581247746e-02,-5.715792050351735654e-01,-8.197510993640979571e-01
-7.386153001594734230e-03,-7.939320326986551990e-01,-6.184241538626141788e-01
-7.248353487224442615e-01,6.241835799189116019e-01,-2.588028735106232547e-01
1.280020074555124066e-01,3.960246475318439097e-01,8.821965648685839989e-01
-9.869722827606490778e-01,1.616232323075296462e-01,-2.000674410206175133e-02
1.102515544197631009e-01,8.520680092794173932e-01,-4.938225410376917979e-01
-4.766170766442389128e-01,-8.360801934643298239e-01,2.535270523762129247e-01
-6.714695350931282336e-01,-6.102294991140431168e-01,-4.198521005486858249e-01
-7.922742773836348451e-02,7.502908997304577055e-01,-6.753418494765630609e-01
4.043945994736228844e-01,8.900644579423495628e-01,-1.469600813972232745e-01
-2.937885882239447688e-01,-8.447601538733929827e-01,-4.507896487960312837e-01
-7.425023579481564440e-01,9.361322903355477620e-02,-6.489060196795728430e-01
-7.615845274038496315e-01,-4.804769844659074196e-01,4.632077123310202604e-01
3.679941927521475642e-01,1.307456533498277673e-01,-9.069328564226784017e-01
7.555270852159087225e-01,-5.449860811560675034e-01,3.911939477880347904e-01
9.163368318775425569e-01,-3.783340672785812098e-01,-1.735789900202031055e-01
-1.917910706171630508e-01,-9.728424636658427049e-01,-1.143339754724213841e-02
-3.265059951229067892e-01,-8.522044408137993132e-01,-3.894337966203162416e-01
6.607860376668950320e-01,3.384933145227337348e-01,-6.774909732150034003e-01
-9.772667931817904385e-01,-2.326522811772557542e-01,-5.847825028795018004e-02
3.361500147300163777e-01,-2.410183836385406397e-01,9.274879811751460812e-01
3.739068240635434193e-01,-4.570098119101487777e-01,-7.980875869437125125e-01
-5.171599644174343924e-01,8.404426133786554454e-01,-2.614137562534726289e-01
6.740380608912489580e-01,-9.205388619547302809e-02,-7.138434295115543282e-01
9.642888873308474995e-01,1.921039566650365182e-01,-1.182082552852183194e-01
7.437300629001557528e-01,5.623158390046504307e-01,3.940313135541599898e-01
-1.890490362953386461e-01,-7.088158709750934650e-01,7.021548446918809416e-01
4.447693188227889727e-01,-8.613906252251519735e-01,-1.669006233030033703e-01
6.481082622991727327e-01,2.713013220280550697e-01,-7.139322921579802639e-01
-5.171558334628475473e-01,5.240503638701993205e-01,-7.055964290415716045e-01
-2.123371189421727478e-01,-6.871519016674583202e-01,-7.003296622067798349e-01
-6.064855457264008987e-01,7.561445509382701269e-02,-7.960443922879415490e-01
-1.892712238315098494e-01,-7.539622691735557991e-01,-6.393793973936989783e-01
-7.990511848516664017e-02,5.464510098045285112e-03,-9.974564875261661134e-01
3.361841057425396517e-01,-9.323800938660264936e-01,-1.055815892199382135e-02
-3.999314562994663591e-01,-9.173449086095002425e-01,1.041767646527220342e-01
-9.720622614639025105e-01,2.357060001535856153e-01,1.398447224312111548e-01
-9.924897326527866437e-02,-8.929939742254653368e-01,-4.288279185666434290e-01
5.400539299588080766e-01,-1.427344234514556220e-01,8.335940011421837381e-01
3.755231738083509851e-01,-8.452144240526840990e-01,-3.793337374994525946e-01
-7.035218082654101091e-01,-1.505406861932787888e-01,-6.943370852242587432e-01
9.159490045506648581e-01,2.954726195473518224e-01,-2.820659824112273228e-01
4.563533276454769250e-01,4.392331120247776055e-01,-7.667269012168047571e-01
-8.408504468713092761e-01,4.474220359778863787e-01,-3.069033829962546367e-01
-1.180336794368129494e-01,3.875719094986858071e-01,-9.070543075282858636e-01
2.156764955338588141e-01,9.762478542548814753e-01,-4.796200642692874383e-02
-4.477042650547488067e-01,-7.775829712172759034e-02,8.869729764040151787e-01
-2.024612256406204680e-01,1.316949893294796226e-01,-9.649123537400845496e-01
-5.818304753785354944e-01,-8.231951781228384890e-01,-3.502352386370066739e-02
9.495417444727034528e-01,1.622681401937991763e-01,-2.191576809740364840e-01
1.848235078818744881e-01,9.413443531971841249e-01,-3.012728267532904791e-01
5.681207382987968346e-02,9.297438256569309223e-01,-3.594995650267407972e-01
-6.490625205414926047e-01,-5.523557843770932063e-01,-5.285173670707787874e-01
-9.296407840299225622e-01,2.584058001379260228e-01,-1.884835082717366828e-01
6.728020025798546744e-01,7.244855025215134470e-01,-8.088077812460936489e-02
8.226974995636923138e-01,-3.865034459868630506e-02,-5.658703168193228716e-01
4.289453739872168270e-01,2.623342646299381964e-01,8.544841362470406709e-01
1.654403760417667239e-03,-2.633759353045800888e-01,-9.535812461143691188e-01
-2.377793619882793974e-01,-9.223613577285411091e-01,2.980794329169346724e-01
3.219535462099373246e-01,-9.234600258944876128e-01,8.264255851046392598e-02
1.261965071848864806e-01,9.705265219056158355e-01,1.022312782134015274e-01
9.396985714656655997e-01,-3.598712875540132083e-01,2.116241017751275752e-02
-8.370269640520233700e-01,-3.383450164537337712e-01,-4.167739580719261872e-01
-1.713106731472748556e-01,-9.099527142944535685e-01,3.161260465732688152e-01
-1.960887435475418272e-01,-7.398025063706594739e-01,6.438808761516905399e-01
-8.407847352668740282e-01,4.608733449779025548e-01,2.236258427823217543e-01
-6.490550795083397384e-01,-7.620854999531321283e-01,1.237344158784359389e-02
9.210720502101998886e-01,3.561567860402479191e-01,1.553107096300408163e-01
-8.239252129907844724e-01,4.897015852679024173e-01,-2.423173005316253403e-01
-8.642499176656375237e-01,3.403376331940124455e-01,-3.651760892262337355e-01
6.695092681504437593e-01,1.257370574280699260e-01,-7.293479182133697503e-01
1.716541774430194178e-01,4.153449233408732510e-01,-8.814077149649242049e-01
-4.682582003926373249e-01,2.041198525106887873e-01,8.592268715541785395e-01
4.160190035088171673e-02,-9.171139332755607887e-01,-4.055928625656737840e-01
-3.324597643346280940e-01,-3.439807194042690530e-01,8.736650633059380722e-01
9.301214714014144347e-01,3.314494815429521735e-01,-1.345609043576596886e-01
7.765055178020028315e-01,3.076425869595369456e-01,5.545034810170131889e-01
7.122741642825789476e-01,2.998285666275218309e-01,-6.438126417345677588e-01
1.403848737216187303e-01,-5.188249766139496622e-01,-8.266932517216775134e-01
-6.733121553292711337e-01,-6.955339161044270524e-01,-2.769694699430857998e-01
-1.324369807244956676e-01,7.618918979727489216e-01,-6.159635264786958997e-01
7.283950674447782492e-02,-8.196938369220130305e-01,5.923871897444804580e-01
-6.078983608879400258e-01,-7.138317721910102109e-02,-7.953055889564655256e-01
7.613079041921668733e-01,-3.734460289744231942e-01,-5.122963094846598731e-01
4.834152709912816759e-01,8.394837788263775913e-01,-2.214003900077857745e-01
-4.194229185240644364e-01,4.464359547507102954e-01,7.960424517714572712e-01
6.121502149047068908e-01,-5.320708704024389446e-01,-5.613148657377668993e-01
-8.555723923679187104e-02,-4.953025254455886706e-01,8.703969572891250284e-01
1.706037842867151599e-01,4.189479219421187728e-01,-8.714189920439532333e-01
-8.330996059736798243e-01,-9.622814405513077651e-02,-5.383371750990334492e-01
-4.355908211930559215e-01,8.887830668486256247e-01,1.250792854606050108e-01
4.071904225865501797e-02,-6.872254503273843573e-01,7.108914129252812408e-01
9.713508974377667027e-01,1.139924834155131850e-01,-1.316222752591497958e-01
-5.478746748480929352e-01,-8.295897066633459715e-01,1.307083944798875519e-01
-9.171833625951144597e-01,-3.475050683510501615e-01,-2.291249479053369398e-01
-4.664285258518358623e-01,-1.515699378339883108e-01,8.454600418117057536e-01
5.337695013147633061e-01,3.300375071571217678e-01,-7.882262381826971032e-01
-2.824736955024678697e-01,3.519700192971705333e-01,-8.873113613552821022e-01
-8.048353610688281368e-01,3.795762413463786844e-01,4.523697050439083323e-01
3.977179070892947720e-03,-9.831222748355642471e-01,1.884675974371138318e-01
-1.718013518233485470e-01,-9.556367586595572172e-01,2.002309174079703047e-01
-9.317110116396589703e-01,3.015968595582889655e-01,-1.462050868224591127e-01
7.232700199766806115e-01,-5.151318124949926247e-01,-4.284560641370334655e-01
6.332661846077571877e-01,-1.992653174975855812e-01,7.441265041472761022e-01
6.052200944593453258e-01,2.165714715822882053e-01,-7.592538521857186140e-01
-2.075038517303422203e-01,7.858954147913573829e-01,5.677569140316260921e-01
-4.446787494520174078e-01,2.180733662404479856e-01,8.708144754729133519e-01
4.959690186164572578e-01,-5.659049620392467839e-01,6.762385544500492118e-01
-5.230444367815196838e-01,-8.622573827051958073e-01,-1.331488221134716488e-01
2.033673283677420451e-01,7.903208910161547696e-01,-5.478764288838973151e-01
-9.005363626505138996e-02,-9.978158620643159948e-02,9.888776577055197192e-01
-4.363952620806071381e-01,-6.646212330509090327e-01,-6.164567045065482143e-01
4.809942740845554177e-01,8.007015356112071602e-01,3.810895671080296587e-01
1.143786244072388936e-01,-6.884556803539140235e-01,7.252417667913031440e-01
-3.230249858128567686e-01,-8.971629949339842147e-01,3.095048276906749996e-01
3.699757469514043939e-01,-6.547714054222052438e-01,6.681837271811970069e-01
-9.904363165972581706e-01,4.425627064623879892e-02,-1.061684848143514132e-01
-5.084704090876470683e-01,7.494232335734031247e-01,4.676989161850268473e-01
9.978766111449045850e-02,-5.789021203392331616e-01,8.131063816747623463e-01
-3.839623504524890540e-01,2.594987229950204699e-01,-8.844580118179973249e-01
-6.504176040053885610e-02,-2.343255838508246369e-01,9.643063803163796077e-01
-1.684365734012577276e-01,4.326309283737541644e-01,-8.704969600855221312e-01
-2.268416143351449366e-01,4.839794133445903812e-01,8.457680565011662654e-01
2.069973448909531721e-01,9.390845850302653730e-01,3.051617923025501944e-01
-7.352682931365098762e-01,-3.756159405427023645e-01,-5.842348593229198528e-01
-2.083368001663481791e-03,1.354161473324940745e-01,9.994313647476457119e-01
2.117488261440063704e-02,6.180843245001439445e-01,7.953321318994871492e-01
3.353316740741581481e-01,-4.120003533085109804e-01,-8.513338878373568619e-01
8.809260976479560412e-01,4.121098119800197246e-01,-2.576711569702082039e-01
9.922366247335613343e-01,-9.931241540265078882e-02,-1.624105112471758150e-01
-7.177954292617656495e-01,-6.968586885287026966e-01,-1.289121459714014373e-01
7.168969510301923531e-01,-4.480394945842490761e-01,5.196431171017036332e-01
5.088913987041910891e-01,3.515472371733047163e-01,7.809537749067784196e-01
7.827698545307018030e-01,-4.263808801827025929e-01,-4.819529889969620950e-01
-2.523599140522447826e-01,-6.354478089611834690e-01,7.395846805123070800e-01
4.843843312223592990e-01,-8.539008607470216505e-01,-2.501725987595053158e-01
7.359570943227153883e-01,-5.071522978835542039e-01,-4.514328366651345625e-01
-8.725166150204010096e-01,-4.581511590817418100e-01,-6.298683257837751903e-02
-3.313231109453208534e-01,-8.947627557744513016e-01,-2.504672752454752960e-01
1.425125802367992467e-01,4.017884464401173528e-01,9.050201199291038057e-01
-1.642042102607064735e-01,4.682652187762726403e-01,8.737271233295725859e-01
-7.832279127125844065e-01,-5.318235089458317466e-01,-2.776244147212704183e-01
3.385231791351117625e-01,7.229187557697005495e-01,-6.226206142663275322e-01
3.999999832064397021e-01,-8.870323171470154699e-01,2.422449357298118999e-01
8.740092222115181109e-01,-2.391701940605992505e-01,4.364521465027226821e-01
6.391517742736695373e-01,7.266068211436877977e-01,-2.473314800993516582e-01
-5.668597927532393471e-02,9.687293423565500605e-01,-2.228319446999132702e-01
8.626359867723022434e-01,-9.098673049173816585e-02,-4.852457056079760855e-01
-3.872974488951110850e-01,-3.543488716632791080e-01,8.446501298218150877e-01
9.175430667475810154e-01,3.284042952961186423e-01,1.884526410564306420e-01
-4.220989011900724286e-01,6.477080248033505461e-01,-6.149704436783032246e-01
