4.216265921422006346e-02,-1.000284546216954062e+00,1.946678511809802475e-02
-4.053372275214945919e-01,4.077152911997888318e-01,8.179133675243018820e-01
-8.197129155138396239e-01,1.859837016924731704e-02,5.762178436436021789e-01
3.645562392094901516e-01,-8.862164525877592736e-01,2.354234912929067114e-01
-5.649572932495735555e-01,-1.294525433508566525e-01,8.297331493348165665e-01
6.563463265550073533e-02,-8.016061117071550113e-01,-5.763223514252233670e-01
9.427844127215917469e-01,-2.785941189882570335e-01,1.270773916202201925e-01
-4.730102392560114194e-02,-8.304928820835252301e-01,5.596051156860047948e-01
1.738683264634217896e-04,-6.943817139292792762e-01,7.161134587018554987e-01
5.619410635626032047e-01,3.267821018871080452e-01,-7.491664412999816669e-01
8.400458093708580709e-02,2.419546898464798590e-01,9.772829187623162106e-01
6.684012629863378407e-01,-6.869148314578046310e-01,2.558287963330333481e-01
-4.331564637211869906e-01,-2.494328723900891553e-01,8.710629035636311412e-01
-4.833720107081083683e-01,-1.043096673249541556e-01,-8.599351022327728078e-01
4.653458894044107397e-01,-2.821348078584837160e-01,8.341882468765248193e-01
3.759731495731732376e-01,-9.429950484917174469e-01,-3.134244331739789724e-02
1.679682781207630649e-01,-8.915898537200808160e-01,4.118742740139358927e-01
5.217405424557902682e-01,2.475665408866707107e-01,-8.186450956944143487e-01
3.748150420830503871e-01,9.258692974988813607e-01,1.257906597343906863e-01
-1.110168121912234740e-01,5.393647299096038412e-03,-9.835791966310621914e-01
-1.989206930610465662e-01,6.836007809994773532e-02,9.736563577597919794e-01
7.927474314816634893e-01,1.209500642906162354e-01,5.679760185226040425e-01
-2.104872139848922019e-01,-7.770936149756311195e-01,5.918452302890814254e-01
6.297870555244523549e-01,-1.222785889083116695e-01,-7.659275428290587273e-01
1.366370965751807776e-01,-9.466810924023989493e-01,-2.648483789846628467e-01
7.624738211614339178e-01,6.219567927619149561e-01,-1.087262760152004487e-01
-1.425051755814197574e-01,8.026282495958272367e-01,-5.819612286428804682e-01
1.861027620616803324e-01,1.246040118230288263e-01,-9.618424997607206706e-01
7.164620042972421610e-01,3.959290152258509443e-01,-5.719312273413110770e-01
-2.432399686283052698e-01,-8.857614890454907908e-01,-4.296697959716391235e-01
-7.275039195685655269e-01,3.890159963773311969e-01,-5.718048477196933099e-01
-7.680947465607800284e-01,5.915591173025341876e-01,1.325188368601903921e-01
9.401904228583268797e-02,7.909855827659446614e-01,-5.777167297745963159e-01
-2.243429500145935861e-03,-5.295300635062574202e-01,-8.398276336510696050e-01
4.377380607780639310e-01,-2.127666605726186988e-01,8.478897574606336640e-01
-7.781769422504692946e-01,-6.347094310310297249e-01,1.316905555206134178e-02
9.998083913957808155e-01,6.734766815513711091e-02,-2.340792784666873971e-03
5.022102363109568479e-01,-7.518196533270090631e-01,-3.798102483554922637e-01
4.860476845489502540e-01,4.137039962740298588e-02,-8.641342870125884312e-01
-9.639508452980944941e-01,-4.082798593587638747e-02,2.317949913104656035e-01
8.644217759873351614e-01,-2.040209439544047876e-01,4.292486012831217002e-01
2.035829365485591555e-02,-1.735838533826685459e-01,9.688915149659318438e-01
6.525466978925971162e-01,7.600351971002726748e-01,-1.179413709012765571e-01
-9.644129113682468057e-01,5.060825018148201737e-02,2.871822407966186930e-01
3.599971008707224529e-01,4.522046554127305829e-01,7.981129841016193494e-01
-5.859202671235541615e-01,-8.091066823026222821e-01,-1.307086543873701712e-01
-7.454527111704465359e-01,4.236296457631368306e-01,-5.297852834733841609e-01
-3.253865842113067286e-01,-4.672597414253502057e-01,8.387495317936835004e-01
3.586131579113100432e-01,-7.998713426480508204e-01,4.525131509112544914e-01
8.655836935026580692e-01,1.120069511165878301e-01,-4.596839795258735317e-01
-7.439767289703037578e-01,6.448866366729846256e-01,-1.495977334490712907e-01
-5.959203670298753863e-01,1.592365668886208396e-01,-7.774881094773332668e-01
-4.900356900194731691e-01,8.279751779212956020e-01,2.672591933436470057e-01
-7.869689279371820945e-01,1.815205054348542069e-01,5.694994149492752511e-01
-6.448956650116071110e-01,7.363749970017438029e-01,-2.455838063002465654e-01
4.436849649578979982e-01,7.443837755162187320e-02,-9.153790695656714993e-01
-7.452567569419256133e-01,-6.716859564019732609e-01,7.797873076623734745e-02
-5.245959064276736195e-01,-5.341184119257509355e-01,6.332491817600796047e-01
2.558987917794829370e-01,-2.969253826080095471e-02,-9.523979376369710037e-01
9.049054889010280656e-01,2.407110134624475817e-01,-3.684784462791174664e-01
9.043851465875002438e-01,1.941730784797353060e-01,-3.532183551347352624e-01
-6.355710206959633846e-01,2.611272248979725763e-01,-7.314000858430588226e-01
-2.194544953999459369e-01,-7.804639005376369232e-01,-5.875577225855522778e-01
-4.363997655637569806e-01,1.428887947190894958e-01,8.911169947279751202e-01
-1.636762012770720809e-01,-7.581216001574145880e-01,6.525204337740483362e-01
-3.458897261601943107e-01,-9.335753485709959998e-01,-2.860372815794588047e-02
5.059532932363276503e-01,4.973842016094270901e-01,-7.190931398226584337e-01
1.026272224776007824e-01,2.344819118366961996e-01,-9.639366136784711658e-01
8.064279687659829943e-01,3.158425176374523025e-01,-4.947113352385418827e-01
-4.745077784285692823e-01,3.321673806637355786e-01,8.403491162476258713e-01
4.739566987835801548e-01,7.734260076671964912e-01,3.997142954374716672e-01
6.011286034460927574e-01,-7.226821850796292246e-01,-3.223217398658833610e-01
1.052779430250568582e-01,-3.481359871512045290e-01,-9.334614503350595616e-01
1.460735440780250860e-01,-7.539636675655162490e-01,6.117791730089982005e-01
-3.138346036302801234e-03,-3.558430223724239894e-01,9.238386777386302651e-01
-1.883323895329468492e-02,-9.766249511847669984e-01,2.332359529276516463e-01
3.706021537009298039e-01,-2.524187970355492028e-01,8.906556479505304269e-01
-3.824357176565820748e-02,-8.670314660926795591e-01,-5.075786471639122110e-01
-4.788196848271366046e-01,-5.878867927562511086e-01,6.570135250079349731e-01
-4.891433331919352590e-01,7.432222351503825486e-01,4.578731979369171645e-01
1.842928311913390460e-01,1.727405321837591212e-01,9.498461476114020696e-01
3.161946660526111508e-01,3.970915976577635842e-01,8.563737718357610218e-01
-2.070423284335128622e-01,5.833840980300387669e-01,7.870652403356298565e-01
3.501850371395823780e-01,6.447262130752554610e-01,6.781275899172209964e-01
3.196158608732935780e-01,2.050921256913085522e-01,-9.167370947077181365e-01
-3.516734002544150695e-01,-4.847942195285921962e-01,7.903440057385004991e-01
-9.677587306980525161e-01,2.727802274725273923e-01,-8.599472795347376519e-02
-4.224693370078325821e-02,3.842244348803725007e-01,-9.258031208768933151e-01
-4.081083830061580930e-01,-8.742746937224037396e-01,2.745905521970978258e-01
1.919205797869052987e-01,-3.165695951844205713e-01,-9.303441013760131995e-01
8.663773994785133326e-01,4.826562269692117879e-01,1.955179724946724262e-01
-3.183276794405196647e-02,7.222592173405107951e-01,-6.835859763718509230e-01
-6.527077245807250128e-02,-9.229229874310030945e-01,-3.745234192856206623e-01
9.743251471516286566e-01,1.191231343423007349e-01,2.402317862071545185e-01
-4.619456766622461741e-01,2.687272587278147218e-01,8.502819518075517280e-01
-5.696338189124688922e-02,2.479420862903387868e-01,9.650085229177193247e-01
-1.917341770567075609e-01,-2.350275882848638365e-01,9.603108047663212465e-01
-3.262022809042355864e-01,-8.251106032238458843e-01,4.544455862193544360e-01
-1.010162853671695421e-01,8.243120629884751471e-01,5.656011132019752585e-01
-2.701852537414475286e-01,2.505834283343269520e-01,-9.391312908121356440e-01
-6.828129828883729990e-01,6.857511083094893767e-01,-1.683029665875719061e-01
-5.233785051398730515e-01,4.766752273724351174e-01,7.092208642382876738e-01
6.114217064764997378e-01,-7.701252049770047903e-02,7.859396087798803388e-01
-2.803044325775170820e-01,6.667880431682284836e-01,-6.731915543590243356e-01
3.698234917035531089e-01,8.118061921021745286e-01,4.456581687658460744e-01
4.913192788582084192e-01,-1.955931989623080347e-01,8.350372240222757592e-01
7.248867761443728019e-01,1.570424804887965431e-02,6.816546158694157809e-01
-4.571679430327528770e-01,-6.343066481059925765e-01,6.244125104118736225e-01
-2.713559535851574056e-01,-2.556631966877127016e-01,9.185917356010314672e-01
-4.626053205063251905e-01,-8.514975683187335775e-01,3.021297714943023682e-01
6.142125769641795623e-03,-6.623035327274247042e-01,7.625908680744631907e-01
-4.789986943293474408e-01,-4.712604528017572680e-01,7.320781248067154134e-01
-3.482888239834620592e-01,-7.509366573879480145e-01,-5.796983413480457648e-01
6.121311802894168208e-01,4.832261463140435226e-02,8.245681942764043759e-01
8.822396253984392533e-01,-1.251269920377187927e-01,4.342856699503060969e-01
-8.089002024277687219e-01,7.397085986515336553e-02,5.518546437544912253e-01
4.994812122261530485e-01,-8.045549012427639646e-01,3.471078435380358096e-01
1.878785310727962010e-01,7.235342065787543353e-01,6.547724887270819361e-01
3.423969834556836456e-01,-7.666518845830235795e-01,5.266965116511642675e-01
6.011062183029132200e-01,4.145964671643279642e-01,-6.901584569435219585e-01
-5.133598542235293660e-01,-8.050608525835434293e-01,2.817991754507170321e-01
-3.516159105606515567e-01,7.887800206794942648e-02,9.442963498981675752e-01
-3.419750032046844392e-03,3.772770278016389645e-01,-9.200040763008164868e-01
-3.692316212580810109e-01,-6.844718005039494846e-02,-9.291010735671736409e-01
-7.364832921326776027e-01,3.038093864500276964e-01,5.999751698146313927e-01
2.021292743594069186e-01,9.526311191541260159e-01,-1.352627543370165386e-01
2.966961604213907977e-01,2.586305003779637568e-01,-9.137138911029154542e-01
-4.266577307668849295e-02,-3.019268912076545908e-01,9.615075504481721547e-01
-3.440044096640375998e-02,-6.588604716210207934e-01,-7.457480757981257424e-01
-8.451567755107864954e-01,4.418798099445886973e-01,-3.106669318845410310e-01
-4.079416734649434773e-01,6.952666861117423602e-01,5.930937691663970002e-01
-2.785509173788335360e-02,-1.581433599845240290e-01,-9.788672865131592404e-01
-7.821759393393946658e-01,-5.862156990387334954e-01,-2.176329534870230786e-01
9.644641171083312425e-01,-5.812745686124797841e-03,2.745387320257804964e-01
-1.076829528000279312e-01,9.776475521839393945e-01,-1.157498502079745001e-01
7.498411066640401357e-01,-3.997911519315554552e-01,5.245486192425181660e-01
6.298878114278297913e-01,5.177040836286590508e-01,-5.923311817698924120e-01
3.744199952717729984e-01,-1.854114925719431706e-01,9.171969086364752943e-01
-8.550822534707831768e-02,-3.660974914926589663e-01,-9.190164034768169010e-01
-4.489586507150432060e-01,-2.442197270965835165e-01,-8.519879781438332023e-01
4.879540450762822612e-01,8.412359786666046002e-01,2.951809991315105242e-01
-3.566723577529717359e-01,-3.192816103392109861e-01,-8.875872787039755796e-01
-8.597466766757109191e-01,3.800598438253648403e-01,-3.461083178406217375e-01
3.214558830715771309e-01,-8.156429363849063696e-01,-4.889693854045052968e-01
-2.587934653758204306e-01,-9.386786470172903130e-01,1.765684249745925749e-01
5.857465159748643790e-01,7.217279893137239499e-01,-4.008633692370725532e-01
8.845238178795655770e-01,-4.283017904549962784e-01,1.936661444056312076e-01
4.040322161053522820e-01,-9.311952848416665818e-02,9.105877410187213084e-01
6.548223821174528059e-01,-6.752693258307371771e-01,-3.189944889369819570e-01
2.956451962563482749e-01,1.856355946305129553e-02,-9.558254377801918000e-01
2.375665548922587245e-01,-5.095794596757784456e-01,-7.978837897971420290e-01
5.454381279318651909e-01,5.943716559416882816e-01,-5.863154591354861056e-01
1.876486466515498996e-01,8.195736062147256362e-01,-5.471099120851441455e-01
1.341565334716477917e-02,5.344994104005095226e-01,8.291479705313131721e-01
6.770169500613272273e-01,6.466410180983833689e-01,3.871847915387487959e-01
-4.001493250780681632e-01,-3.595906060388694425e-01,-8.440282173936345389e-01
-6.850738024842836227e-01,3.937975834259456742e-01,-6.263324148083406762e-01
-2.675911202290340296e-01,-1.776873540137142993e-01,9.504104160998729789e-01
-7.339230434521640811e-01,6.311515367376627772e-01,1.674238887887482818e-01
5.863310606591543017e-01,6.585269857506094171e-01,-4.754568304554070979e-01
-6.483927559771003324e-01,1.665820263213748098e-01,-7.574631460126080018e-01
5.020318001759548066e-02,-2.475309862793130811e-01,-9.717700362264138914e-01
-1.085725770800261697e-01,9.003511645353198256e-01,-3.965601662287919771e-01
-4.952209009085954405e-01,-2.882933454086949454e-01,8.280397722161444429e-01
-3.881067121862638025e-01,5.851209018114253979e-01,-6.825114438782695636e-01
5.454662525525998118e-02,6.548578912598782553e-01,7.492682552925087336e-01
-2.326085959133942227e-01,9.740528642063558604e-03,9.757370741718830454e-01
-6.217971256765884025e-01,-6.335403433858165512e-01,4.320092838521126799e-01
7.427705833905651200e-01,-8.122880397191377388e-02,-6.638297459830218017e-01
3.397564189500140719e-01,1.010527746210400507e-01,9.351051470640519003e-01
-1.586428373645833445e-01,-9.533893190384318261e-01,-2.658949219849132684e-01
-1.081387435422220267e-01,9.958227476017542656e-01,6.872162770153576739e-02
-5.953540177399808675e-01,1.411380673579960311e-02,-7.937174649748621746e-01
1.223275657141450756e-01,-3.458816361758873525e-01,-9.470371649098913158e-01
-9.281095563554540018e-01,3.311965244528545238e-01,1.167061449867520528e-01
-1.501991026634783011e-01,7.540416775986954478e-01,6.225948868842059447e-01
-2.232010706424222557e-01,8.080873813081442814e-01,-5.704884946608944629e-01
-8.732257084426230387e-01,5.178564932105333279e-02,-4.821468880205608820e-01
-5.894976139552077221e-01,7.031780912152181262e-01,4.283253512718204759e-01
-5.274632481683866336e-01,-2.126121395415227489e-01,-8.185844914831974517e-01
4.876168526178916718e-01,-8.696602751115549701e-01,7.169881650446269239e-02
-8.168661512905244226e-01,-4.285408096783989151e-01,4.258402952032862565e-01
-9.659584618518675114e-01,-2.959878200647696467e-01,-1.994455450136229518e-02
-3.710773945765390436e-01,-6.256633586582633910e-01,6.816523112922655558e-01
3.407301086055500861e-01,-7.182846865703684802e-01,5.850256241157897330e-01
-9.803413069121618140e-01,-1.338237847580437401e-01,2.061767421103033113e-02
3.874484533617479354e-01,-7.913129024806691003e-01,-4.744538892651856132e-01
1.704895352979745871e-01,-6.840511350650987366e-01,7.043666625359368272e-01
5.779708761059317856e-01,2.010207984844999962e-01,-7.833868750723980146e-01
-3.549322685379501796e-01,-4.411860824100113931e-01,8.234243755212602434e-01
-6.418459042908006840e-01,-4.847528333201464035e-01,-5.928863082845445831e-01
7.536600876476234889e-01,3.019955555078254195e-01,-5.811635995754711459e-01
-9.294345916510700079e-01,3.587321057746005182e-01,1.402278929370217309e-01
4.961805205791623014e-02,-1.005142040726316965e+00,2.262386347303721804e-02
3.445337490771087086e-01,4.115992064039299958e-01,8.328066897486043896e-01
-9.058107255980953898e-01,4.249112080956347071e-01,1.957618745795184356e-01
-1.265334788468988059e-01,9.659445906709757113e-01,2.429517681505810323e-01
-5.951779295807453352e-01,3.648871633138152659e-01,7.082125390514536489e-01
-2.747993485424138349e-01,1.433281326855817828e-01,-9.608856877663204399e-01
6.526005343787914803e-02,5.095360380159434932e-01,8.666587409911834516e-01
-2.656200148796012961e-01,-6.757828895378573675e-01,6.839562764982288767e-01
3.197999117961084492e-01,4.705544628793665307e-01,8.221260376516577040e-01
-1.150062797660227482e-01,-5.905998991609693327e-01,-8.082362320141740497e-01
-9.322484148860152864e-01,2.100095157671890700e-01,-3.015089714417091282e-01
6.338914005044175015e-01,-2.780846043908275500e-01,-7.310799648577814835e-01
-2.268616295882927847e-01,8.728169933766339872e-01,-3.926113820046237546e-01
-9.495684534291413126e-01,3.221927701954939716e-01,2.852045212644723632e-02
-7.034599684382643048e-01,-4.999542661851599790e-01,-5.226899072154674863e-01
8.548012801825872753e-01,-5.037946646169841891e-01,-3.133964620033154874e-02
-1.986076597015818679e-01,-9.023636221962400006e-01,-3.881201002977958114e-01
-4.338247915115145958e-01,7.426621164673370412e-01,4.799358577449827634e-01
-4.464080827181748368e-01,-8.384433546776021151e-01,3.019100380361877667e-01
1.792102737466677240e-02,9.397735905693274105e-01,3.489799776727036673e-01
-1.950499784349496446e-01,4.294334284408517499e-01,8.769376190952036243e-01
5.132828118587029476e-01,-8.532975087996256258e-01,-7.051737215847601881e-02
-1.614553952109795687e-01,9.341270090188396047e-01,-3.188256868934515875e-01
-2.011687550158307303e-01,-6.555285974882944788e-02,9.731577270660577428e-01
2.928900298771671684e-01,2.797842384927896608e-01,-8.998076850521130599e-01
-2.722319148671706324e-01,-2.260321359609694103e-01,-9.420130705406540850e-01
8.038914366292121416e-01,3.812088965214350811e-01,4.331719626436124071e-01
3.440219226178120593e-01,7.373535222781002485e-01,5.832653195932405721e-01
1.688370332640529159e-01,-5.047892715609944014e-01,8.383593072129392754e-01
7.867833037411967601e-01,-6.375273735119871832e-01,4.379068938758074597e-02
-9.675377155386911676e-01,-2.649513830822145324e-02,-2.851136576197376149e-01
4.651517066852380866e-01,8.169831398826082891e-01,-3.607734661169205159e-01
-1.356623455443696780e-01,-7.556668811688609377e-01,6.412391282942609960e-01
7.924599510346391762e-02,-6.363769755132011596e-01,-7.442748992703696054e-01
-4.235678213454688867e-01,-8.918624991351993270e-01,1.846313564017216247e-01
2.258115952147942418e-01,-9.696847040334940493e-01,4.250550364721028193e-03
4.413328874447709493e-01,-6.030481815560292391e-01,6.655195700139687753e-01
3.792500815180811502e-01,-6.723633653064583493e-01,6.415486683954199076e-01
-7.146059837097851197e-02,-9.025969339955888793e-02,9.785913233524115018e-01
-2.620282827006108484e-01,4.229473250585037702e-02,9.506951211202855356e-01
9.305965019952213702e-01,-2.749944857447855218e-01,-2.411700023052453234e-01
9.245684481122482534e-01,-1.826188160142249994e-01,-3.487814624751910397e-01
9.641380175239470107e-01,1.365483675817467657e-01,-3.237779014927710114e-02
-8.983490867701027227e-01,4.236375016199449006e-01,-2.248256487836385736e-02
-3.491702531223105366e-01,5.752256462379310431e-01,-7.351420228555822778e-01
2.460201187459826744e-01,9.315072943630015034e-01,2.865650172586827193e-01
-9.469300810391603207e-01,1.974598115446264124e-01,2.613486922745305030e-01
8.362538123763569864e-01,1.844484668136050706e-02,5.589376722856894686e-01
-8.034985059456516421e-01,3.768443158557990835e-01,-4.677321026693615491e-01
5.780438742500230154e-01,8.058029170429809040e-01,1.100662971335556461e-01
-7.644583590502743720e-01,3.915895401742568449e-01,-4.997070176154034260e-01
-4.460040346251061827e-01,5.470244797490189104e-01,6.958660245077314954e-01
4.423976959896424033e-01,-6.136269777018923399e-01,-6.739277125910880795e-01
-1.103664834720743948e-01,6.124859395770279047e-01,-7.636777163301082805e-01
7.390983673881453830e-01,6.489523722753707258e-01,7.561766717202313137e-02
-6.635814706666804952e-01,-2.737317523146363119e-01,6.809943927207271486e-01
8.175153540610399228e-01,-3.761443157312911456e-01,4.193961929843981196e-01
-9.332739851065366965e-01,-3.625978470864135161e-01,-5.044658933331567369e-02
-5.579293576654310582e-01,1.848048265382537525e-01,8.220975896756331780e-01
7.967354116789929774e-01,-5.556687433160663048e-01,-2.617874532675528165e-01
-7.813998203062770820e-01,6.142493564374300608e-01,-4.652099394999930151e-03
-1.387634728960062402e-01,-1.078760254607441689e-02,1.005768646288294654e+00
-4.436753247985166237e-01,8.810229424185214153e-01,2.058301661872516744e-02
-6.188915247645343509e-01,4.544203758483008615e-01,-6.475197079141620238e-01
3.905315498300565014e-01,8.428773748456083181e-01,3.819722486465208511e-01
8.488130796601157657e-01,5.073463430950065911e-01,1.373634109108857471e-01
3.884484517884070898e-01,-7.783544246947033951e-01,-5.004871660908961628e-01
-8.577446462021944829e-01,-4.642949601193855358e-01,-2.478056094176994129e-01
-5.898473441557650077e-01,4.491712845087261208e-01,-6.752900699124161354e-01
8.967216736500732699e-01,8.153258165872484531e-02,-4.084744202430017901e-01
-4.282787133020631298e-01,8.598511881720498629e-01,-2.575120463904200241e-01
8.348371730360107934e-01,-2.997352700459970376e-01,4.715161177769557344e-01
-6.552810601335797847e-01,3.367002857653961789e-01,6.978862110189643086e-01
-8.083328957042844598e-01,2.144028928365639408e-01,-5.159503923364889832e-01
-8.072091395494944699e-01,4.663714698583910634e-01,3.629639576019421110e-01
7.936090805373968715e-01,-5.364745006314013409e-01,-3.010238756623310197e-01
4.232582422584164061e-01,7.767411603878274784e-01,-4.717023919629692585e-01
9.831004894770681846e-01,-8.899617664359170399e-02,1.216649709597962120e-01
5.546688787299428602e-01,-7.891940704201371171e-01,2.427407161354096787e-01
-3.203503111706457185e-01,-7.754476378574814976e-01,-5.240775841880499497e-01
2.607037102099298703e-02,-5.926554105666207439e-01,8.132512509310196869e-01
6.137992465366802763e-01,7.840481439627488003e-01,-1.115222456318763627e-01
-6.016183970772128742e-01,4.468900796921230212e-01,6.734109208157321724e-01
1.408601778258378179e-01,5.432097580269136250e-01,-8.156560772904081213e-01
7.135028250080377443e-01,6.348998692554671530e-01,2.844472074785243110e-01
1.209357415496074145e-01,8.699074898561117708e-01,5.116861453376877478e-01
6.317683406158589587e-01,4.507691963367015942e-01,-6.340547203717024072e-01
8.703415630817550319e-01,1.251819342505137989e-01,5.173972349068022281e-01
-2.134621342770539609e-01,-6.948771781351696930e-01,6.692024988559829302e-01
5.982240903144674382e-01,-5.721036884602810346e-01,-5.718708000515260181e-01
8.032432809843640387e-01,2.706952384025607464e-02,6.207654722255112612e-01
8.967350322472283919e-02,-3.729038432792941005e-01,-9.396402330128372782e-01
-2.570322424638016856e-01,3.539572002044139576e-01,8.910909622890895720e-01
-8.091711415329070345e-01,3.366029920816858700e-01,-4.793066676169302487e-01
6.395964647773397793e-01,-4.921068815768164240e-01,-6.166665793159976650e-01
9.388458143989932836e-01,-2.818848817522326966e-01,-1.986533043025532907e-01
-3.696365110650995378e-01,-2.685799610849035624e-01,9.003357271224422531e-01
-5.577348827039535495e-01,-7.306952495148073545e-01,4.198026526053182939e-01
1.385441531717089558e-01,9.598527758746916438e-01,-2.524816822554159512e-01
-7.778758768171787352e-01,-6.298393535210886629e-01,-1.394106065497349722e-01
-1.811988138265994697e-01,4.593746542471580097e-02,9.872522957650960995e-01
2.125394136731862949e-01,-4.445533540162743269e-01,8.808540828731776795e-01
1.172497077834391693e-01,9.603844127857374957e-01,-2.282436042082457150e-01
-5.106031899090236470e-01,-8.181829376592888448e-01,2.945586418726206523e-01
3.291668543287618043e-02,-9.152975515375103566e-01,3.659894128492921506e-01
3.742263366983539230e-01,7.627126093534049023e-01,-5.222425117806682726e-01
1.520640188372875123e-01,8.425850016220661765e-01,5.034987009637748034e-01
8.021801465647536711e-01,-4.153508686485126167e-01,-4.479337722474444061e-01
-6.958980438207834629e-01,6.356266026975643246e-01,-3.547396999122808814e-01
3.184911095086224164e-01,-9.110521931772274096e-01,2.805390934247291024e-01
8.396959477402656802e-01,-4.763769124257296594e-01,-2.831463310551067813e-01
-6.196618691297024473e-01,7.669542252715157993e-01,7.027232338585838456e-02
-3.984923175686405639e-01,9.256805373550756888e-02,8.991262495060630133e-01
8.384451071245418996e-01,-4.366980774028844103e-01,3.273972625744940856e-01
-8.360224466339401250e-02,8.967484516167438802e-01,4.175134254229427855e-01
-9.906198370065658620e-01,3.165280513162874523e-03,-1.540591299074472141e-02
-2.294117097811896600e-01,-2.023891406392859804e-01,9.540672143647954684e-01
-1.593410431565995822e-01,-8.148070094113628592e-01,5.659413577675505014e-01
-6.227272178183319573e-01,-4.562114852019081290e-01,6.401364041540619221e-01
2.496336779904536618e-01,-7.332235562121295347e-01,-6.188144658009512300e-01
-8.971300070758462253e-01,3.919391330871422330e-01,-1.827922737081966731e-01
-5.484139515538064696e-02,9.436580746134093367e-01,2.728030040251994692e-01
1.005277045844930495e+00,1.131263528295612698e-02,4.289567578743234272e-02
-1.107679695235033873e-01,9.900065733028076131e-01,-9.575466779429397945e-02
4.943305005407238467e-02,9.607037079667980484e-01,3.356476470913647980e-01
5.328031608046848167e-01,8.311979657306327596e-01,-6.227745900613040203e-02
2.123577613323379409e-01,9.499526455793607660e-01,2.402922218116064212e-01
9.762147621514614126e-01,2.193134299966675582e-01,-3.428528037050690425e-02
5.676861609054556501e-01,5.618559732939076845e-01,-5.917932643506196300e-01
3.431016192515773389e-01,2.718053767857799841e-01,-9.002765007219395432e-01
-7.088473229187429725e-01,2.164099467814978028e-01,-6.871224402264184405e-01
4.689399919590239163e-01,-5.936222972391789199e-01,6.523083343092405118e-01
-6.605450722485606274e-01,-7.277438274512485483e-01,-2.791944562661093365e-01
-5.129975844107927951e-01,-8.448561505254644777e-01,8.058121906105086829e-02
-5.243276625496217092e-01,3.180715243511560986e-01,7.696793677631899033e-01
8.517347895486503395e-01,-4.806055109414241189e-01,6.924426392258459240e-03
-1.064281584943594094e-01,9.939930741947615722e-01,-1.634407359184001651e-01
2.476485238713546921e-01,5.386620509026254222e-01,-8.127182295084685038e-01
3.519782092998871570e-02,-2.567570954951727269e-01,-9.641960401069340492e-01
1.990770138290176294e-01,-6.351587091876725877e-01,7.724638438728061995e-01
-5.396612361165673000e-02,9.804321157079654014e-01,1.739745840071757824e-02
-6.373144032076484278e-01,-3.023481803269255641e-01,-6.961882569579082025e-01
-6.832750063424399833e-01,-5.891203035895157258e-01,4.109469813538019212e-01
5.250873027418896388e-01,-8.001422963064226401e-01,2.880313363354397582e-01
3.885973044982334312e-01,-8.101379119396516781e-01,-4.658906681271907657e-01
-9.391423146298898406e-01,3.112421107471708970e-01,-1.529128293981966147e-01
-9.376918943919290150e-01,-2.019822943262874759e-01,2.852694318539121254e-01
4.660413983466746290e-01,8.842951200163238212e-01,2.189384684686827148e-02
-6.065347729202646976e-02,7.356962502941769566e-01,-6.980103672468970233e-01
-6.176725498230136724e-01,-7.729319929365692232e-01,-1.723638777487847273e-01
-8.976121096954924050e-02,9.892221571363244426e-01,-8.781086423662065599e-02
3.491003144060833008e-01,-8.257526666811429994e-01,-4.078681947591617507e-01
9.439770081166515281e-01,3.258868726989322950e-01,2.680689533153094925e-02
5.226860911503229401e-01,-1.813780708469121539e-01,-8.363227943802662434e-01
4.054187099949842499e-01,1.354479406196434053e-02,9.008318281521590087e-01
3.651085506365850941e-01,-7.654670716543542364e-01,-5.605838911336779029e-01
5.727818252136155364e-01,-3.549217412521049608e-01,7.388904316475797263e-01
3.165651251423661772e-01,-3.318539349436036012e-01,8.958183684698125537e-01
3.370164752932124919e-01,-6.025506285951528485e-01,-7.108607366396437754e-01
-6.746893721666356036e-01,4.160072622237062090e-01,-5.685270646977326203e-01
-7.619897166417761991e-02,-9.008713278620092968e-01,-4.280901696165513859e-01
7.557543759280854756e-01,1.847067357681644040e-01,-6.138035066319724731e-01
-5.811101755961982640e-01,-5.831316120056927454e-01,5.592301680319297086e-01
9.192131006473429344e-02,-8.717336144793482733e-01,4.807890833047852586e-01
8.635354507997791140e-01,-5.978463299468320113e-02,-5.253878149029682643e-01
4.884972573655888550e-01,5.518821052363670487e-01,-6.588957188858435288e-01
1.006673065178486648e-01,-5.754374779489058733e-01,8.135604230631616751e-01
5.250364578278270411e-01,-8.309895685605129811e-01,-1.222508301823273386e-01
-7.032205796162604994e-01,-7.226601134489394340e-01,9.313262897325857992e-02
9.441223468970687538e-01,1.677146687460802088e-01,2.356822899692305184e-01
-4.300898538352857514e-01,6.803584656257770646e-01,6.107362653502441674e-01
1.754661509617534143e-01,7.396661624004315927e-01,6.595795022299021371e-01
-3.359241297841490392e-01,-4.064932138000778017e-01,8.397947622024228842e-01
3.608289039215285127e-02,-5.938590170621240727e-01,7.940697378813963425e-01
8.417075809452433388e-01,5.452307453210374355e-01,6.679605434369963179e-02
-1.676830662518436765e-01,-9.907844036651182185e-01,-5.315853173176734309e-02
-8.939754219611949493e-01,4.776088982349109835e-01,6.339033155940003439e-02
6.513737037883717829e-01,6.409687950224154940e-02,7.464663192322655849e-01
4.411946882825577565e-01,-3.573331976597748927e-01,-8.484076850306306872e-01
7.369242064097983880e-01,4.508661470947554761e-01,4.754325386022303368e-01
3.173721554452770821e-01,9.283017676519015327e-01,1.351329831539128112e-01
-7.267003009036894501e-02,9.231162227469921211e-01,-4.088639032076333835e-01
-9.151468287157938919e-01,-1.781775048670603823e-01,4.024176457928134165e-01
-5.917582149459606200e-02,1.848559589461583885e-01,9.643629352289173617e-01
8.518607125442922978e-01,5.094325990882857536e-01,1.347582954413421019e-01
7.523119027762804611e-01,-5.326084554526230308e-01,-4.362342200640184076e-01
3.972233303113579805e-01,-5.201942724042872834e-01,7.611425415956313278e-01
6.768145845981855535e-01,-7.405912325863104329e-01,-2.599195603912374253e-02
3.219653208691985458e-01,-4.995434160041666849e-01,8.123320878827985370e-01
9.206394090773091232e-01,-3.054102755869780861e-01,2.459304278824528678e-01
-2.445170840482306096e-01,1.021744980650167445e-01,9.551102735627263751e-01
-4.568191625840911652e-01,-5.638143105980156777e-01,6.969571903954696612e-01
-1.989307278399457535e-01,-8.327927050189720681e-01,-5.356321322053353429e-01
9.352095305676748349e-02,-3.974397821081158133e-01,9.080073961023722440e-01
-7.437283335404792917e-01,6.711277932452016648e-01,5.801700324159455441e-02
1.339877582860727612e-01,7.386187476837771659e-02,9.878718870300362553e-01
4.934825965409837534e-01,-8.605002240389496571e-01,1.253942269898481732e-01
4.968260823612954957e-01,8.682718288899431425e-01,7.138446129781735039e-02
9.273101632670160965e-01,3.543004836966127113e-01,-6.017687060358819368e-02
3.067831948248102569e-01,-7.638176104792260279e-01,-5.690978545660769772e-01
9.554334758016057583e-01,-2.331225555240271363e-01,-1.403288948972295502e-01
3.960377521374844889e-01,4.160944266969356931e-01,-8.196926891690325956e-01
-9.201086138755502075e-01,-2.355878124048511602e-01,-3.018361209477612439e-01
9.131797595712182192e-01,-3.848784372647995888e-01,8.579792387162785139e-02
-3.233723299619327141e-01,-7.465223935832274726e-01,5.962703268497395737e-01
3.996204266623543666e-01,8.841444757505260155e-01,1.859640383035445210e-01
6.164012776556729856e-01,3.202479357570726659e-01,-7.270109772552905136e-01
6.477922252638768086e-01,1.830664839633407148e-01,-7.373893311347999857e-01
2.155901501902655892e-01,-8.624883459844034927e-01,4.640521690327119586e-01
1.212250370079795136e-01,-8.635634989963277830e-01,-4.539759369952841572e-01
4.128892357298869498e-01,7.831067535368229082e-01,-4.476044793037294856e-01
6.385329680817907194e-01,6.379256056732872660e-01,4.287899377109709032e-01
-6.474838393535856662e-01,6.635573090663564599e-01,-3.513017431245838984e-01
8.040507185232916854e-01,-2.796157786008626189e-01,5.039883646375280524e-01
-6.151420697165558282e-01,-3.667169483432712318e-01,6.951688725835637461e-01
-3.307050102837001404e-01,1.123537509390946931e-01,9.172094246367790138e-01
2.406212100409780286e-01,3.649802612359506204e-01,-8.815834416432603016e-01
3.265392373498852280e-03,8.110989301453492839e-01,5.958997056171739803e-01
1.531198023639537553e-01,-9.653745432590443709e-01,1.827521222519165878e-01
-6.179822698215917676e-01,-2.968501517736368278e-01,6.980507631155363768e-01
-8.719453727944413979e-01,-2.054226759089262666e-01,4.448077309771166221e-01
-1.838927120538479398e-01,-6.377566440723499985e-01,-7.271737496115123767e-01
-3.576925529204174059e-01,-7.851261864728901196e-01,5.077724061338222405e-01
1.092696101711294332e-01,9.883341660181550470e-01,-1.029491283157570880e-01
2.628607503006663570e-01,-7.231801437316307535e-01,-6.207195655176412918e-01
3.226690788161091228e-01,-8.239355289259560067e-01,-4.616558357101082088e-01
8.218825918889276494e-01,4.928034158082407190e-01,2.786658430268362796e-01
9.839224176516456755e-01,5.307717135730574687e-02,-8.908205151214644568e-02
-8.051826612822566842e-01,-1.969813805733214573e-01,-5.586418270256610086e-01
8.503248630366017080e-02,-2.643956324453296536e-01,9.644680817435298259e-01
-9.774390793708600533e-01,-1.905939455093310919e-01,-2.072841331398073486e-02
3.730535539632042763e-01,9.240771246455492527e-01,1.964927686245305800e-03
-3.007353118251426261e-01,9.330399016526720324e-01,-2.099373837445457913e-01
8.053493054050402389e-01,5.928738017682892991e-01,1.078866237679085710e-01
6.229263841169500049e-01,-1.774684091506178174e-01,7.434895327407051724e-01
-6.956505181686517547e-02,-8.598805395869717483e-01,5.192253224290951374e-01
8.039535779575182062e-01,-9.368416770085503942e-02,-5.677251141384463962e-01
-8.097581353168820106e-01,1.865096324731977534e-02,6.099754638197725232e-01
6.278793574622836271e-01,-7.753762084258202236e-01,1.081952072204537124e-01
4.699516208674161533e-01,5.157213159975986283e-01,7.033321893128673397e-01
5.532595137963952636e-01,5.977815502940290182e-01,-5.692122630070718392e-01
-6.597310933842815972e-01,-1.100254528957191613e-01,-7.493687446356485093e-01
4.415423845929579150e-01,3.270527750670615408e-01,8.191327610136185378e-01
-9.868922394987920121e-01,7.490600814576352587e-03,1.903236576814945069e-01
9.756212831208480596e-01,5.522242115466334533e-02,-9.543410465297083589e-02
3.462647518788842249e-01,-9.344517104975160748e-01,-4.737681914640876589e-03
1.085272302907026448e-01,-1.796024015248394723e-01,-9.753380689421304872e-01
-8.818639223784254799e-01,4.603487113798970104e-02,4.466545354048118144e-01
3.054221321816475987e-01,9.140059059300496003e-01,2.124895307336146233e-01
-4.750393212881558469e-01,-6.774793618759423763e-01,5.664183812266722073e-01
-3.697837521072237787e-02,-9.997811556024022162e-01,1.164198246548795584e-01
-9.082905813859134536e-01,-2.797921089829644159e-01,-2.281584835154529534e-01
9.232750972618224417e-01,3.975431286617561732e-01,6.824803919482905212e-02
9.007705876343170548e-01,-3.921719718466781246e-01,-1.606525072193112635e-01
-4.185390184294968674e-01,-5.693601487003051576e-01,-7.050748489252669504e-01
-4.965344364103276287e-01,-1.774251358801043899e-01,8.509048919424188062e-01
-5.248324123128095264e-01,-3.346152674488616641e-01,7.716432472663493636e-01
9.557526507249625158e-02,-8.458467616132405720e-01,-5.057970214359689409e-01
3.397229567655466465e-01,4.667759300300238223e-01,7.992267817887004355e-01
-6.647637870694226292e-01,7.256029954311595809e-01,1.613889151149287271e-01
8.698525537047209211e-01,4.458626752327863874e-01,1.849972614586179454e-01
-3.040638049906508322e-01,1.150937619035089510e-01,-9.366621554056877574e-01
-8.079081996644239538e-01,-1.688103843698227913e-01,-5.678031604479831795e-01
-7.417626545164807128e-01,4.962010650413938295e-01,4.765552889530825786e-01
-2.357714843482562050e-01,-7.226085082811891658e-01,6.760478064721244795e-01
7.999525788256626191e-01,2.461029416508870027e-01,-5.154058362994409226e-01
-9.688850061806711933e-01,1.211517560819740241e-01,-2.062259466122528806e-01
2.927905523683825839e-01,-7.074593122273663548e-01,6.526531166754553359e-01
-2.200941180956187890e-02,7.262179068592966580e-01,-6.998791585263548498e-01
-8.846356180097895150e-01,1.187249890379601658e-01,4.651381667395267372e-01
-6.303254618968957557e-01,-4.389078814168414500e-01,6.442744004046658812e-01
-7.821375017653298123e-01,3.548807939451399385e-01,5.238298296028320866e-01
-3.466454804397537531e-02,-9.509534887134558634e-01,-2.977923660986740995e-01
-2.676435154292639562e-01,-2.010007504851966109e-01,-9.627488058112964042e-01
-9.330139230240274140e-01,1.503433274570089295e-01,3.363170133916115745e-01
8.527051227929601795e-01,-5.086197380769121867e-01,-1.059838859039767267e-01
-9.861778306877240219e-01,1.083358586477553565e-01,-6.886459869205323325e-02
9.285008012846658332e-01,-2.620036116394252601e-01,-2.062661544327119290e-01
-6.650498438737850737e-01,9.217184838454085816e-02,-7.417747983466006501e-01
5.306587093684909939e-02,4.812063225787439613e-01,-8.851417776642509505e-01
3.124389144597761736e-01,-9.164844135024632354e-01,2.923617845546347405e-01
-8.887148814534472363e-01,2.605674434481229373e-01,-3.993687432937665927e-01
-5.370512502986898307e-01,3.456618880352163026e-01,-7.791813791350894469e-01
7.099979421493791687e-01,2.558055803739150286e-02,7.086674597708910728e-01
5.069341964327477301e-01,8.674856970811366530e-01,-5.240226739910931741e-02
2.675767853496742732e-01,8.778345374636422616e-01,4.225906272709503142e-01
-2.148187438195253429e-01,-8.679387951793101630e-01,4.669002104866380454e-01
-5.240576078174115082e-01,6.957672687039443415e-01,4.753747235011721584e-01
-5.377519260720536876e-01,7.425151908185965155e-01,-3.897932421038861062e-01
4.275496109713646242e-01,5.309375716133362122e-01,7.497430286158495161e-01
-9.355746010458678708e-01,-2.125864992095336248e-01,3.065486747878984342e-01
2.690732587676135379e-02,2.047318045688401311e-01,9.918276430411028244e-01
3.656703614039535921e-01,4.752731599892722203e-01,8.018905873849296873e-01
-2.214879849535658363e-01,-9.443603204823169950e-01,1.851532520713675134e-01
-1.082259667614830362e-01,-5.759491364615159092e-01,7.935231447565000984e-01
-6.919332616972972971e-01,4.363337066773035344e-01,-5.758875467217425825e-01
-6.869031599169244107e-01,1.542807167359953324e-01,-7.169350968980908734e-01
-3.190515497937281703e-02,-9.265169975705946914e-01,3.374993894326476784e-01
8.679012774030734345e-01,3.411615756945142186e-01,-3.939822984811421347e-01
-4.560616349315992357e-01,2.314591383043513861e-01,8.625215241105697039e-01
-3.546639667753007652e-01,8.728159658709430113e-01,3.521231869908363898e-01
5.638763516519671448e-01,7.132087659187534845e-01,-4.135481113512274876e-01
5.160125918212955520e-01,1.163339647396778032e-01,-8.435053813091640817e-01
5.521695172768736892e-01,6.823987114498019091e-01,4.661798455671981034e-01
-9.619562820493225974e-01,-2.515380506126002613e-01,-1.910494955676623335e-02
6.874537619765903884e-02,9.863289868828444273e-01,-8.762568865774647553e-02
7.223723479350800947e-01,-3.934503339644931930e-01,-5.470437277041038104e-01
