1.407330717162083300e-01,8.275149374037102934e-01,-5.460211075172465289e-01
-3.953879258264648699e-01,-7.635593752969408454e-01,-5.100566360461111781e-01
-7.830119071831903588e-01,-2.849161151562081273e-01,-5.567919962607865703e-01
4.623546770159528974e-01,5.985175301659009239e-01,-6.338059571839984585e-01
-5.008188958759449694e-01,-3.105709019936739868e-01,-8.228717710855064649e-01
1.102891574899337729e-01,9.812981084672849352e-01,6.259425006399582658e-02
9.712426769113486902e-01,1.170497065550407390e-01,-1.599775740786646694e-01
6.640559243496114983e-02,3.976799468191458131e-01,-9.179077604797992729e-01
1.093017634524335868e-01,1.963692383947703290e-01,-9.718419250690611966e-01
4.831902868224042802e-01,1.014529462479813460e-01,8.602610674788161438e-01
1.161783293521019139e-01,-7.354972677547035875e-01,-6.828082525687823034e-01
7.459447129980855129e-01,4.045220953683351106e-01,-5.137985661527870729e-01
-3.557645214840469139e-01,-2.388738263900596070e-01,-9.082746072504269685e-01
-5.196479677837273492e-01,5.769485141935070116e-01,6.173441414913388714e-01
5.380062051022288516e-01,-2.375204409082457835e-01,-8.038347101488628743e-01
4.638621790393196442e-01,7.897402765013079584e-01,-4.389988541687829260e-01
2.777353695576184056e-01,5.177783860240283698e-01,-8.047079189177905878e-01
4.469816660442731959e-01,2.075848133718686817e-01,8.722374183620094090e-01
2.891987218323117670e-01,-8.648471102677098843e-01,4.265526193230477769e-01
-1.675432734235142163e-01,5.325218043719028849e-01,8.173931975889698887e-01
-1.481708612630954769e-01,-5.732308218095535368e-01,-8.010624608679889347e-01
8.085654047333722394e-01,-4.490502399144021828e-01,-3.320392056529535285e-01
-9.908482382413608125e-02,3.437708466306152455e-01,-9.329865663542867837e-01
5.935015786884662026e-01,4.842215200608963599e-01,6.414937139831848878e-01
2.129665292945272237e-01,9.312471445823050642e-01,-2.691532348515339179e-01
6.905220098700147746e-01,-5.027427225568755764e-01,5.004468922038728396e-01
-2.535535101815041825e-01,-3.524724950921541144e-01,9.025920792021351335e-01
1.172657962255119479e-01,4.054245671035547338e-01,8.928499569243556477e-01
6.401785633231039663e-01,-6.029294741850877576e-02,7.640151078745942570e-01
-1.799138198463354765e-01,9.885832812159860428e-01,-1.367089789049318327e-01
-7.937835794861844985e-01,1.942845832205130144e-02,6.140735674543759126e-01
-8.132858232666492215e-01,-5.291189774636767540e-01,1.267763717815024727e-01
-1.717396332897633271e-02,-3.571047923191980611e-01,9.167527554382467470e-01
1.075017418485513113e-03,8.985997079430086965e-01,4.221788538038201422e-01
5.045899308080882273e-01,-3.017739356837059739e-01,-7.811035757059824336e-01
-7.103880508607659516e-01,5.658822814731515605e-01,-4.286197615872829880e-01
9.866400654309733786e-01,-1.065304905612716735e-01,1.391065889501787722e-01
5.505142978174171198e-01,8.109486694727917611e-01,-3.162278797033024613e-02
4.290399373690434448e-01,4.071834689576626087e-01,7.967485690990935288e-01
-9.403737257126016935e-01,-4.154123584796991925e-02,-3.139564560520036185e-01
9.035247827530450415e-01,-1.048167916328128640e-01,-3.817857006483187932e-01
9.305392372218668218e-02,-3.786701807612856130e-01,-9.040168380792541480e-01
5.672839291175062471e-01,-6.081115203358988808e-01,5.707628082939718572e-01
-9.465716243791828521e-01,-1.482418306304131850e-01,-3.116947506787292599e-01
3.595179689411832080e-01,-8.294441642196199727e-01,-3.922250716798787451e-01
-5.106316037598599422e-01,7.802450882348803685e-01,-3.814628456765183917e-01
-8.125750167948584402e-01,-3.142619930292969710e-02,5.954565509119468247e-01
-2.292736087578450821e-01,-4.397441041900605058e-02,-9.865134240248153441e-01
4.605327634099624645e-01,4.090167245519527595e-01,-7.705716101876094459e-01
8.225471468887010085e-01,1.099078694076158075e-01,5.333165101292260957e-01
-8.108008836531972463e-01,-4.227379731222920545e-01,3.945303060722925581e-01
-6.524620818271105183e-01,3.168078692492343196e-01,6.774150383728773095e-01
-5.523481851612900284e-01,-8.147354452289949922e-01,1.679969815499665342e-01
-7.667829282755170839e-01,-4.198111622007889010e-01,-4.608708062530494365e-01
-7.268319676856335176e-01,-4.528053391259662663e-01,5.339780674206074940e-01
3.807652625854949235e-01,4.092626627686115626e-01,8.531343088007118380e-01
-6.703309284873580909e-01,5.602416478366585295e-01,-4.994357642276786580e-01
-4.325151903588070890e-01,1.334089450120466425e-01,-8.698393717797709979e-01
2.022294584856266786e-01,5.263480335045602754e-01,8.096225440439616117e-01
8.543009085576780404e-01,-4.948460753329537304e-02,5.294273627915366820e-01
8.592102652094476545e-01,-1.861231658351386251e-02,4.917216550128593600e-01
-6.991531343937578136e-01,2.083576902605779047e-01,6.890979633399884063e-01
-1.756729485722278439e-01,9.842162250962390724e-01,5.445815238177798695e-02
-3.961573011494229912e-01,-5.790732710861711263e-01,-7.160202516639885273e-01
-5.093068884956450382e-02,2.926579553706623038e-01,-9.690606596462243427e-01
-2.541032085021220910e-01,8.173340051427686603e-01,-5.093304338574048407e-01
4.126315430137092455e-01,-5.522283582947590252e-02,9.204131522313323543e-01
2.347413668688469804e-02,3.185405836497469667e-01,9.448114999495195176e-01
7.418403428233241170e-01,-3.935047367607714952e-02,6.655421218452938215e-01
-4.554378035401087099e-01,-7.086792530284221625e-01,-5.762200631512479632e-01
4.183882008296989086e-01,-8.898647668388618426e-01,1.252448393357091794e-01
6.492625809941960924e-01,7.503490682908782183e-01,-5.432144271329041735e-02
8.478230252071175532e-02,7.913125624631099919e-01,6.084971485276791103e-01
2.540640843447715125e-01,2.953050084048105539e-01,-9.012873248154666950e-01
8.491638810694226991e-02,-2.000380721697593012e-01,-9.658602305646107888e-01
9.014614088245735679e-02,6.952815410625275971e-01,-7.190321605087680590e-01
4.442271212822266335e-01,-2.881318764524668508e-01,-8.449680320225770869e-01
1.743703526569065354e-02,1.004436853284456754e+00,-4.055582076749802978e-02
-3.804113853304136317e-01,1.633881207965943438e-01,-9.138585468288269453e-01
-5.321904950413249846e-01,-8.465690970800353599e-01,-3.718060615145542258e-02
2.209987950696331305e-01,-6.676767007923265496e-01,-6.865698791941818868e-01
3.247419041842058429e-01,-8.123820645188665202e-01,-4.749893870115482475e-01
-2.173133495758755307e-01,-9.046074816386939776e-01,-3.703180206275251685e-01
3.240426517224180847e-01,-9.258301193604093760e-01,-1.897193406575689023e-01
2.446548850660980878e-01,3.066101387272386347e-01,9.114593734218006116e-01
-2.564689647737908307e-01,-1.749072645937404429e-03,-9.578955444067777103e-01
-9.931188554442649252e-01,-1.330810303451158694e-01,1.198561008101666908e-01
-1.328946154348219777e-01,1.795856472784218005e-01,9.780657722626208139e-01
-3.042303354673358551e-01,6.069158512204262390e-01,-7.385158876002795303e-01
1.679616037341449264e-01,7.586749565392417738e-01,6.314991484533807320e-01
8.249071078290929337e-01,-5.554238930606522073e-01,1.811813229837031247e-01
-1.416040798243226595e-01,-2.357354425384328156e-01,9.562105285703981217e-01
3.716842456403545748e-03,9.808867362817038638e-01,-1.848304675317755941e-01
9.702507353213543073e-01,-2.797600374339549445e-01,-3.948362540573552293e-02
-4.361864259404854005e-01,-6.614022435864430616e-01,-6.171515367752484771e-01
-2.517235313087966275e-02,-7.266726992469103585e-01,-6.835749374731315831e-01
-1.121616514357717947e-01,-3.115579654481744898e-01,-9.510773900007015724e-01
-2.172849172991018485e-01,4.642597623681838370e-01,-8.549774056745343964e-01
-1.482788284809653523e-01,-9.927652303562378711e-01,-4.505410939136902243e-02
-3.470743888493800777e-01,3.107167880807300553e-01,8.948486763063389082e-01
-7.551027081064425328e-01,-4.500907621813612369e-01,4.382376600887987750e-01
-5.256716135599930340e-01,-7.567149810046919223e-01,-3.939420750874636501e-01
6.603180419527467926e-01,-3.912322139152330513e-01,-6.390508104836352121e-01
-3.824533213931249898e-01,-1.820270065696725781e-01,8.927258056815035037e-01
3.138270153408848628e-01,-9.415874396466397123e-01,9.662095984249954861e-02
5.554064384954162659e-01,-3.120007301158826407e-01,-7.557233165953537446e-01
7.579795643441663566e-01,-4.185849949532521319e-01,-4.905242695407199260e-01
-3.562444238254756090e-01,2.188814774738835900e-01,-9.090760388654079982e-01
-1.916591600147608820e-01,-2.676074129971142135e-01,-9.351264830452794552e-01
-3.590126357202755303e-01,5.756986897355638177e-01,-7.549934676979738191e-01
1.147777335437862034e-01,1.440105548820233561e-01,-9.931342100682486462e-01
-3.876542768782074155e-01,2.488412622769212157e-02,-9.146417256196941459e-01
-3.061070082418756999e-01,9.617697776564937406e-01,5.058190955498961111e-02
6.510061043935926328e-01,-5.174126886067971220e-01,-6.045060179109422727e-01
9.138107371974251159e-01,-1.747181070131437197e-01,-3.420980613043779206e-01
-7.790833135635439888e-01,-3.188185351812555246e-01,-5.056863707694706500e-01
5.948710359562061623e-01,4.626768366316536540e-01,-6.703226991167779980e-01
1.537382146028000440e-01,-9.710919271759378413e-01,-1.444719103007297001e-01
4.454536233472826678e-01,3.418683327928367377e-01,-8.167601448895395189e-01
5.169264172132671531e-01,-6.191837692216098192e-03,8.615604170870916345e-01
-4.151483693011737697e-01,5.502778043725458090e-01,-7.182745025804239125e-01
-3.026009023308725010e-01,-5.583805749081494074e-01,-7.862537196569668874e-01
-9.330497190576278466e-02,1.802989427020227908e-01,9.734185247289249832e-01
-4.137361909952910199e-01,5.783435130610097286e-01,7.061069017212296961e-01
-7.268125425244490456e-01,-5.415788132154258916e-01,-4.160695907959888196e-01
9.996012090420063056e-02,-7.374477894355643270e-01,6.425239587207282055e-01
2.168271785532341067e-01,2.611815029313312997e-01,9.351799929939459410e-01
4.254903316663470603e-02,-2.636499034598524527e-01,-9.727051421564448797e-01
-1.281491673422911065e-02,9.580536531326615535e-01,2.709052963458271068e-01
-9.007833334667889602e-01,-1.600224940936490203e-01,4.111494518146864841e-01
-4.390308934221801018e-01,-8.835000675663565728e-01,-1.680830093178721230e-01
-6.867037709795280331e-02,6.630787594881190072e-01,7.345592767595260364e-01
-7.324074457247415904e-01,6.500421083016646451e-01,-2.093722503248868494e-01
9.746368737214459177e-01,-1.928483738838721873e-01,-1.359735476374720198e-01
-2.091709327160290455e-01,-7.531284253329821876e-01,6.081393576313894878e-01
8.143042854955945264e-01,1.400717580684776413e-02,-5.778911956454864107e-01
5.410904209259149722e-01,-1.471217680355398627e-01,8.373820775729325927e-01
4.430046723156957356e-01,-3.589489865991666862e-01,-8.310959084096559701e-01
-1.021846498392820213e-01,8.083707796652642719e-01,5.674726069681985674e-01
-4.713303674141154365e-01,6.884098435300387564e-01,5.394721792093088997e-01
4.196429714346172068e-01,-8.910665402032592608e-01,2.506175205636302361e-01
-3.743596032561120612e-01,7.659618986841364441e-01,5.386319262883616510e-01
-9.112833791686699714e-01,-8.820242453594559495e-02,4.064280204155045761e-01
3.708673489587938077e-01,9.327899641093908567e-01,7.657455965074460094e-03
-1.552397684490573748e-01,7.063168395307969361e-01,-6.754888639145391060e-01
4.883431290134997438e-01,-4.196682607390850861e-01,7.810769818687248733e-01
9.318231615001355550e-01,2.098085373648871377e-01,-3.016908300443358892e-01
4.630284228798889901e-01,-4.344165894223120938e-01,-7.732853411062069471e-01
6.981697430955994266e-01,7.059759494426491866e-01,-2.637171091178426921e-02
2.368074025465790045e-01,4.856303967372487818e-01,8.422816198760680884e-01
2.398065615456513588e-01,8.468956891601805426e-01,4.218864070688213563e-01
4.500429360856325611e-01,-2.104419513231734484e-01,8.647090696949215616e-01
7.482329333708581665e-02,-4.024494736577098331e-01,9.157936789597356242e-01
8.923798246925754296e-03,-8.975766147254183869e-01,-4.094295336591204371e-01
6.318010736184362930e-01,-7.870064769539464322e-01,8.863875204270611763e-02
-4.111062904154432207e-01,7.785149998754468115e-01,4.761454935398393151e-01
-7.552387092705453719e-01,4.269591421352696842e-02,6.666982048354930246e-01
-1.937015042528006659e-01,-3.504859100572335628e-01,-9.198353746918593865e-01
-7.811898479948320428e-01,-5.829825035468036987e-01,1.220650503693009314e-01
4.907968628079543705e-01,-3.263143319441687007e-01,8.100237635451659202e-01
-7.041586429548128967e-01,3.025083152195328640e-01,6.592135312926364898e-01
1.802573915271981839e-02,7.303265683251094487e-01,6.887867072514112232e-01
-2.186959360294684629e-01,-5.364538941121026472e-01,8.025394049325352830e-01
-4.161127953567345661e-01,-1.798103153415514521e-01,-8.991802100316701463e-01
-4.821188764061406506e-01,-1.028721677923745692e-01,8.460460193819397956e-01
3.342505806336271146e-02,-9.576256098666247052e-01,-2.739581487785824332e-01
-1.757946433155925803e-01,-5.233912079873442869e-01,-8.375096187433471728e-01
-5.309803060901737704e-01,3.306157675009152586e-01,-7.637998313404283923e-01
7.076327953147858452e-01,3.887959818870763140e-01,5.891262184459269413e-01
3.816121568407134235e-01,-6.074640942671151178e-01,-6.967261007523992689e-01
-7.981230708579538369e-02,9.525760872810468127e-01,-3.017410257472240565e-01
-2.007621679098119949e-01,-8.680293742092051179e-01,4.629245641096115249e-01
-6.386578508128202269e-01,4.474427936977946052e-01,6.136319060714632290e-01
1.007188159479008999e-01,7.958795387092099105e-01,6.228234190168910889e-01
-9.477440946039781267e-01,-2.936855867507212614e-01,-1.512342434131155010e-02
-1.869928502181311680e-01,-9.620115354747164060e-01,-1.353901575152497982e-01
-3.336002560080372215e-01,-3.591213467930665093e-01,8.877070371325989084e-01
-9.004499491209979611e-01,2.617158547174209260e-01,3.440424588712228671e-01
-6.296887807864716136e-01,-7.918293628085405489e-01,-4.390638805409351197e-02
-5.504898687472979946e-01,6.478374834976536878e-01,5.203551375047466010e-01
5.735626288779195336e-01,6.667558264973909576e-01,-4.750605097654989617e-01
-7.451727071167909555e-01,1.717530966934427139e-01,-6.689364708604844667e-01
-9.319573110247204584e-01,3.088824259138062689e-01,-2.390178702385086507e-01
-2.682533710801629501e-01,1.762876266455319640e-01,-9.438038706315803328e-01
4.424358421520852569e-01,2.698161296555999233e-01,-8.400801512360348555e-01
-9.597505420207790294e-01,1.514960607326596986e-01,-1.879649237714100252e-01
4.348940730765659679e-01,9.011309039402687349e-01,1.513756421360321243e-02
2.768314282086428157e-01,1.853117755200276717e-01,-9.392278416505558392e-01
5.094292754959111047e-01,2.247522887777374800e-01,8.234821874470519276e-01
-2.620594589390204954e-01,-5.608206091197462384e-02,-9.627198030521755268e-01
-6.245336680076681857e-01,7.603532251623598137e-01,1.740296507154649730e-01
6.857807302766192326e-01,2.168849828553747958e-02,7.253898067621350476e-01
-9.503942540302098285e-01,-3.294535638603998118e-01,-2.030657515854679060e-02
1.487969246739487550e-01,8.295074539344531317e-01,-5.505099194371434468e-01
3.501218204150507995e-01,-8.132879848361567188e-01,-4.445916756372026435e-01
-9.301858132567218940e-01,-4.162526950691888272e-01,-2.921238737752902132e-02
-2.060726532382425591e-01,-9.361159224705719595e-01,2.988415574305757771e-01
-5.861448689081119046e-01,-6.585948313299299084e-01,-4.600341846853620020e-01
-3.424351102790449408e-01,4.127950763444863114e-01,8.553931030389206880e-01
6.503524457494901101e-02,-8.995295009670499775e-01,-4.489992380852882436e-01
-1.584475995388986147e-01,2.117377681558859082e-01,-9.618181584867394607e-01
3.191722940629249106e-01,-8.557702907053440500e-01,-4.066582891740966321e-01
-1.031722140085411937e-01,9.386062199417670726e-01,3.516452049413452130e-01
-9.641327640612932237e-01,3.425239010815904483e-02,2.708755261471649800e-01
6.148098903962767592e-01,5.960550421993352499e-01,5.294850849540301274e-01
-3.333038297745926637e-01,-5.093991011938986402e-01,7.725545371988313814e-01
-9.732699288408170890e-01,-2.373823695342233697e-01,5.193362448417210286e-02
-6.802171970577650661e-01,7.383560008691113508e-01,1.007467884563562205e-01
8.966930383394748905e-01,3.962979143769204127e-01,-1.560962016716483658e-01
-1.315518405766965826e-01,9.777948975714955138e-01,-1.759362752091250537e-01
-4.759021280835730172e-01,-8.608519524149874647e-01,-5.040314498120583575e-02
-3.442079212425168122e-01,5.640225918598343879e-01,-7.462013998993703989e-01
-5.388002023401598783e-02,-9.788149677573126928e-01,2.104775329673046480e-01
-1.851763065150782983e-01,-8.244628495649024558e-01,-5.267332308930755547e-01
5.892637721851656796e-01,7.285270513973617357e-01,-3.443328700861068570e-01
-2.700546141170806491e-01,-6.041094106723650103e-01,7.499555037303616833e-01
-1.373509050993565739e-01,-4.603657120627008825e-01,-8.723532238661322324e-01
2.117809351481682589e-01,2.360957491757859072e-01,9.344117360768605662e-01
-3.027123540150977177e-01,7.127130783293157412e-01,6.426466103028508625e-01
7.864389824895016146e-01,-5.954004522235653019e-01,-7.881397215112949384e-02
3.034003009211304613e-01,-9.520689733135807575e-01,-6.125896303704149448e-02
2.654035206150255899e-01,-3.756261503665692808e-02,-9.561979406335296972e-01
8.465110309775595310e-01,4.715239955843028019e-01,-2.974406487378082331e-01
-9.751441833467987541e-01,2.258558987707702803e-01,1.272947594383159742e-01
3.615328025105100096e-01,-5.151572737950398384e-01,7.860611114306639280e-01
-2.398799088610968633e-02,2.952553475736444111e-01,-9.554439716551000883e-01
9.798638851686448936e-02,9.325499238545894576e-01,2.931723308421303464e-01
-3.230591090660022147e-01,6.710799868323824580e-01,-6.739448180172471492e-01
3.193297272776879359e-01,8.006234189445748939e-01,-4.983252304094537566e-01
5.357730172433970983e-01,1.243827487274617866e-01,-8.359631156354075943e-01
4.794802928523786423e-01,1.987350350534391463e-01,-8.591221379211101405e-01
-5.753061159247661351e-03,-4.491942877049067695e-01,-8.769753712011094660e-01
-2.096487086502033803e-01,-5.356993098872410153e-01,-8.020863712857381200e-01
9.375475151181998923e-01,3.135908676488459723e-01,1.498673124821608693e-01
9.163287790729196525e-01,2.944440207816419464e-01,2.889104412134217981e-01
9.427075538163885993e-01,-1.466011604830081139e-01,1.976523780321238488e-01
-9.352325514448867061e-01,-2.976618069812347334e-01,1.540870000536385676e-01
-4.455019116035515148e-01,-6.812267522121456809e-02,8.888900671071916504e-01
1.699551527918109206e-01,-9.498397973597005883e-01,2.815507996559964421e-01
-9.450375537046444840e-01,-2.585297712183424190e-01,-2.098486930800623207e-01
8.612837302834703834e-01,-3.602969537348644780e-01,-3.747644775877269074e-01
-8.620973708767109001e-01,-2.267800941988117047e-02,5.125120860364524855e-01
5.019385057827107088e-01,-7.659147971932931398e-01,3.962321431820268747e-01
-8.265935032527372828e-01,-1.978958786738277062e-02,5.511783801476717315e-01
-4.564392728063809135e-01,-8.125546390347780923e-01,-3.373470812587476830e-01
4.606277933151669557e-01,8.568305201888641864e-01,2.830120963443776283e-01
-2.135251753308813616e-01,-9.623893161392156614e-02,9.569056948385471495e-01
6.752900261587014841e-01,-6.238091668230816289e-01,3.577277088852149345e-01
-5.932881986427411825e-01,-1.039761431605610159e-01,-7.849973747466763019e-01
8.731681559536152992e-01,4.748463707197089767e-02,-4.701400299304680508e-01
-8.947353762120229259e-01,3.796353579571776771e-01,-2.456582787270920054e-01
-5.249771329112328244e-01,-5.707673518057303497e-01,-6.480016041957429307e-01
8.307813702897558494e-01,5.673407861412952391e-01,3.806096440497836689e-03
-8.366313661204356489e-01,-4.733914336907575904e-01,2.527016043061904305e-01
-7.881816098927128811e-02,-5.271809109902708679e-01,-8.641818259030784599e-01
-5.256935462498739664e-01,-7.284052193272053666e-01,4.080992665566829380e-01
-6.966277562867990714e-01,-1.691654698326667335e-04,7.235441314132723400e-01
3.276936587574065252e-01,-9.343413868125863830e-01,1.687690672922221580e-01
8.016907665755291790e-01,-5.438453557518821979e-01,2.414058957972824992e-01
4.331205148258200910e-01,9.042592518354866105e-01,4.401180145451494274e-02
-8.211388998883383250e-01,5.678066118375267868e-01,-1.266091101912692196e-01
-6.688595911320815990e-01,1.775424379342291012e-02,7.469960140021449924e-01
8.594141340235775806e-01,1.062443067014041814e-01,4.772087251849278511e-01
-5.243638183935974695e-01,-5.611740496805956990e-01,6.318270713015587958e-01
8.859189795214831298e-01,-4.573987825512204619e-02,-4.713567780106462379e-01
-6.437018269771327406e-01,-6.262610922055139584e-01,-4.724939323108309219e-01
-8.538116961029500462e-01,1.400620370398757419e-01,4.657936146670345057e-01
-8.266296878011960558e-01,-5.464577712705018797e-01,-1.374737824166802347e-01
8.235375991443282251e-01,5.725756070793098784e-01,4.667583133967569825e-02
3.174445997293662836e-01,-4.192817389940446948e-01,8.534689601342816401e-01
9.924641536150187182e-01,-4.134527524822970840e-02,-5.014707398990478349e-02
6.421836907941433914e-01,5.033296681184390442e-01,-5.689176157912161358e-01
-2.727470489676580567e-01,9.508780929282196759e-01,-6.369838529010372029e-03
1.306944866011219841e-01,5.711984943984388385e-02,-9.964707577405214067e-01
5.268108689146207002e-01,-6.297638352828894837e-01,5.742700049057167799e-01
-6.025615804229045303e-01,-7.083423675093559746e-01,-3.876961948386536405e-01
3.985027406936818284e-02,-2.284151943854456634e-02,9.889911465629486198e-01
6.632742798056165956e-01,-7.235113924918189499e-01,1.723160868876730534e-01
6.467722241275943029e-02,-1.013308410750823008e+00,4.701199235373395430e-02
5.470919251460183430e-01,-6.845544503580144879e-02,8.368714181289522713e-01
8.823286993859591476e-01,-4.292559838755621859e-01,-2.794641628660148869e-01
-1.056117940452623860e-01,2.330742181665695911e-01,-9.543452822343108100e-01
6.172767002340244780e-01,7.588342498049251983e-01,2.352678499183294691e-01
8.312089054433153823e-01,-3.992515043160297372e-01,-4.254083813089944988e-01
7.134193370232880249e-02,8.162538987643415123e-01,5.988841977019485618e-01
-2.385688910918764838e-01,-7.655367888490737238e-01,-5.851774819981158116e-01
-8.644695467715649562e-01,1.766643534549292363e-02,5.001746614501840771e-01
6.479838748676604032e-01,7.137212091921496526e-01,3.197646386907270766e-01
9.488683574635542461e-01,2.959867942677321118e-01,1.113298832696330981e-01
-2.890961222353318205e-01,-2.418598961007869252e-01,-9.366418686501556401e-01
-4.585441885394737072e-01,4.155334630825931463e-01,-7.989287717925945831e-01
2.932075506484229516e-02,-6.769299947773442794e-01,7.383528350999366552e-01
-7.193629076131086153e-01,6.442051327139607375e-01,-2.978935419439716070e-01
-1.275888817044192880e-01,-5.626498885857845744e-01,-8.226521357749496666e-01
3.053895868668421998e-01,-1.133542559231680014e-01,-9.552971344788031560e-01
9.509475278492334968e-03,-6.893797661821960965e-01,7.161326448484155449e-01
-4.103918237881925557e-01,5.542653827143185774e-01,-7.357120136413758393e-01
1.432257646152893804e-01,5.693998596503493381e-01,-7.925096507480184904e-01
2.671853900077018062e-01,-3.776826638402344116e-01,8.834482947277150222e-01
9.780164206088963474e-02,-9.875305526979932802e-01,4.245160719928808141e-02
8.117492205112764037e-01,5.497642279822121392e-01,2.355344827833214527e-01
-7.739570371443119656e-01,-3.065984203958654897e-01,5.666775391788996252e-01
4.216146721706106604e-01,5.973655359794726172e-01,-6.896015901250982516e-01
8.644867686586336086e-01,5.100770806783120337e-01,6.841118851845504056e-02
-6.865351860935782202e-01,-6.504199429213486372e-01,2.876823791177339773e-01
-3.531167692461277818e-01,-5.430753312922719234e-01,-7.457685405696674596e-01
8.945734973064709550e-01,1.469756480209087890e-01,-4.231084882337334263e-01
-1.465928636590241585e-01,-9.744984165076996385e-01,1.196994141440035631e-01
-9.854227247053791716e-01,5.641955136476269062e-02,-8.563825362970609034e-02
-1.531445152411519961e-01,-3.336692671253719822e-01,-9.322268629399218520e-01
-4.607820311799499385e-02,3.868219774285976964e-01,-9.261939365098150745e-01
-5.372268069214894970e-01,6.927793979461512042e-02,-8.439672078629228968e-01
2.839697726962173707e-01,9.373883467725819818e-01,1.533928133445099373e-01
-9.401686035528877827e-01,-1.844941779407180404e-01,2.718757881235699947e-01
-1.309448252040594785e-01,-9.371962075200555020e-01,2.691400021794445041e-01
1.000156081064638824e+00,-8.418223357803451823e-02,7.177129426346307017e-02
-2.122904323997288067e-01,-7.741534583997741192e-01,5.976376074334076582e-01
-2.538490881954660536e-02,-9.908072346960309362e-01,2.360322308817173198e-01
4.445710640989242179e-01,-6.918213135163902017e-01,5.498977972577013817e-01
1.320398948461357080e-01,-9.386101016266151786e-01,3.268374868309377179e-01
9.465108416101321032e-01,-2.157081791667231074e-01,2.446555354462236487e-01
4.750080165491804562e-01,-1.813109091558288699e-01,8.542029724693551707e-01
2.624208364828149453e-01,2.404782452076027754e-01,9.356282273939721117e-01
-7.650347037374108927e-01,2.257521355351354841e-01,6.206391185838070479e-01
5.615192750203833461e-01,1.221881475900804120e-01,-8.170461867094375163e-01
-6.012853552481878250e-01,7.959448712438141893e-01,-2.209255503098406237e-01
-4.225035875879322722e-01,6.923904490249568333e-01,-5.705505710554719112e-01
-5.076340659599216654e-01,-6.561085367423357129e-01,-5.294568580809871916e-01
8.935873649809600305e-01,3.563056332345810873e-01,-1.761524153320103425e-01
-2.122710718392118723e-01,-7.411578857593646985e-01,6.570297094212271816e-01
1.465629569395057452e-01,-2.608019905234298247e-02,9.949053421829647803e-01
4.455302571378592404e-03,7.347531400283292546e-01,6.759845190096716028e-01
3.043846473266055841e-01,1.059912378856637805e-01,-9.674060560830198829e-01
-1.483952079355085885e-01,-8.301504336291918307e-01,5.032805056577420721e-01
-6.438076496904640011e-01,6.627171000760088138e-01,3.585804167490198591e-01
-5.976153436329967317e-01,3.078335100518377887e-01,-7.286283819760571712e-01
6.164742236208763382e-01,4.895737140982837632e-01,-6.157788000779962356e-01
4.383683475272604491e-01,9.122580072890433822e-01,-1.983959796534880572e-03
-9.723032961971865840e-01,-1.307018718009209657e-01,1.994632621239433579e-01
-8.954572526333072213e-01,6.358659835422773854e-02,-4.422156012580705786e-01
3.779066580649831364e-01,-7.784721174602337035e-01,5.008188344246838897e-01
-1.723831933387740267e-01,-2.377526933585484559e-01,9.725759514011014240e-01
-5.481148729495700644e-01,7.739905365040041785e-01,-3.303956511760988701e-01
-1.908845820960750062e-01,-7.788624112890866202e-01,5.926758976380781530e-01
4.039975139950326977e-01,8.960515478473313200e-01,-6.302850650124855458e-02
9.075925500498301934e-01,-3.365772557205606863e-01,2.469918405804798489e-01
4.888063337659783736e-01,5.773797205199199256e-01,6.582063485479082710e-01
4.534231310347572319e-01,-5.188101386057784037e-01,-7.080178520310272949e-01
4.052069226344444663e-01,9.270966962901117103e-01,9.898209995094499336e-02
6.463641736511158697e-01,-1.304042017144815546e-01,-7.518082407664423705e-01
3.985968118644581670e-01,-2.214305493550623449e-01,-8.971734254120977692e-01
3.527150888078086632e-01,8.728787456044807547e-01,3.092654412225515626e-01
-7.437577936557921987e-01,-7.719712887376314892e-03,6.310749280715376441e-01
-1.238391189493055072e-02,9.918629468347245348e-01,-1.291942699634195946e-01
6.974375936658303576e-01,1.377314988392859263e-01,6.903961449018862773e-01
-4.881445982616198775e-01,2.174609675618916216e-01,-8.395805337868847973e-01
2.042133403656181401e-01,4.677662167420619799e-01,-8.596620513747457171e-01
8.335061519119484341e-01,2.898051671417172237e-01,4.965687193145572054e-01
3.934353334345980779e-01,-1.326248947353829144e-01,8.971991265051222353e-01
2.031456499365578983e-01,3.866852237930056002e-02,-9.799894641746520474e-01
5.957791228769619973e-01,7.371354616162711926e-01,-2.878033331231102387e-01
-6.227125035055047775e-01,5.927170983947770422e-01,-5.351131553173750222e-01
9.352335461878439338e-01,-3.165693643083957176e-01,-1.278317231617231986e-02
-4.585623638214477160e-01,-8.793741793661136175e-01,-1.930940731491862239e-01
1.401071790795504202e-01,-9.866029661565778319e-01,-1.411527089246716604e-01
-2.456192808124764704e-01,-9.504019519978443298e-02,-9.560206727100237778e-01
1.396538911306863251e-01,6.798034995224487564e-02,-9.799962849197454418e-01
7.868609927634707679e-01,-5.371794352807751638e-01,3.201530301568716319e-01
-7.287393774821208925e-02,8.695216824406054590e-01,-5.012171263158015089e-01
-9.312080141971529335e-01,-3.896108888153061445e-01,1.112458470713197783e-01
6.839506913779761499e-01,-4.904795716966577901e-01,-5.265446982060733028e-01
4.243335814326574806e-01,7.358777052116139972e-01,5.661805204866727781e-01
7.155359408140720134e-01,-6.733087747684733948e-01,-8.388848892213821018e-02
2.324277161551385751e-01,-8.689941778312397780e-01,4.141939831431835084e-01
-1.859585898703859375e-01,-5.507680602923917812e-01,8.286544104349921058e-01
-8.686281404882240098e-01,-2.085101594701305877e-02,-5.255771034592389146e-01
-2.124471046750182196e-02,-6.732212026908912517e-01,-7.169318299359982438e-01
8.043646962540967893e-01,-5.443464857409329172e-01,2.450150682348381515e-01
7.743326799592032961e-01,6.444896089410154794e-01,1.580737338953364102e-01
4.893679242555465381e-01,5.390472136067694757e-03,-8.764795498655386652e-01
7.432968478823052116e-01,6.014261796332104337e-01,-3.050004653558669454e-01
4.155300399494024077e-01,-3.575374927304454664e-02,-9.160486715410448566e-01
9.587137852224855150e-01,7.650003506166851153e-02,-2.763145960652719779e-01
-1.978457480197098883e-01,-5.892779131362374523e-01,-7.720572959254230483e-01
-3.586013032797005784e-01,1.204621761282140963e-01,-9.323162654333820853e-01
-1.471753588316594141e-01,9.990663615694180821e-01,-1.499079703679122473e-02
1.841025301165385986e-01,-1.614985780583931829e-01,-9.649903875838397038e-01
-8.011459493630918027e-01,-5.569528327415101954e-01,2.342627404486798404e-01
1.828708143454080004e-01,-6.025887064190588172e-01,-7.763660716800830919e-01
5.815918833724277315e-01,6.297531248185248565e-01,-5.146564910684710004e-01
4.129117514141067979e-01,-7.933271681185593005e-01,4.538322995802094306e-01
8.832417536181682571e-01,-3.125977090505442924e-01,3.334979825477944471e-01
3.466059901643116503e-01,9.332991291397713107e-01,1.011071802889641214e-01
9.639484029619577177e-01,2.226699529961999602e-01,9.007230306386876384e-02
3.055660380732204695e-01,7.303579794942276215e-02,9.503534849295025566e-01
-9.085587782105377652e-01,4.080878661823369447e-01,3.452191480499245541e-02
9.498319848975710356e-01,2.301409679608067138e-01,-1.850521651703308235e-01
-2.139726468251287872e-01,3.214856541439033433e-01,-9.318080978281156890e-01
3.213899552678954330e-01,-8.635789379662810461e-01,3.562730378544908261e-01
5.392148365360838191e-01,9.218185009957553799e-02,8.436848363420360597e-01
5.832062679198464217e-01,2.114062030349385113e-01,7.823483857667298258e-01
3.252155756580105139e-01,4.627061989572524014e-01,-8.281590899083933754e-01
1.786283386326167621e-01,9.643953137244604124e-01,-6.756606597074858722e-02
3.079102176898553811e-01,-4.371158121566775523e-01,8.355863467734193639e-01
5.968160232955476152e-01,-8.001907420831227968e-01,4.516249556102058804e-02
-7.283857289517597922e-01,-3.343967527678899376e-01,5.836005320075704494e-01
8.552381891682155901e-01,-7.860457882032310939e-02,-4.909946774326062746e-01
-5.352602068584669803e-01,-3.601236122951534391e-02,-8.416296503444840038e-01
-2.866572237424808156e-01,-5.729367041624270351e-01,-7.435277176535561861e-01
1.525773957518603563e-01,1.573677771389901114e-01,9.592987248073127082e-01
-4.163238347446641258e-02,-1.003378168197823106e+00,-6.698949660307565446e-02
2.569790543094553348e-01,7.042946841667622193e-01,-6.532402194727625622e-01
-5.447413401446280501e-01,-9.610855250422167817e-02,-8.070421208221033593e-01
-8.205995757635834442e-01,-2.308044669561458082e-02,-5.713359394342261144e-01
-1.623328078737369673e-01,9.379523172426831312e-01,2.514462940588337303e-01
-2.494030930544486047e-01,4.034791470339095243e-01,-8.815909383692548396e-01
6.075278808318610758e-03,-7.801358644140782284e-01,6.250551323595600062e-01
2.960204434533538209e-01,9.293038535584029480e-01,1.616920473366656730e-01
3.744578182091064522e-01,9.249374489325500326e-01,-1.957699772569685553e-02
7.845027833697586495e-01,-6.065867266680081693e-01,1.122888216497153618e-01
9.672489904955388074e-01,-4.686932674408324923e-02,2.027036718322638154e-01
-8.129544522378652216e-01,5.085074310582389234e-01,2.823592115903081345e-01
1.659271691783305580e-01,-3.033165244648304282e-01,-9.422321982400270191e-01
-9.537051849833736439e-01,2.213682328475681527e-01,-1.832631951223642475e-01
2.804835156838444421e-01,-7.963564925967064889e-01,5.293738579560551827e-01
-4.020504111273661696e-01,-6.548854425452820260e-01,6.438628852501782074e-01
7.484524680974669053e-01,-5.975330756561397783e-01,3.074077074884878358e-01
6.791144168004634718e-01,-2.845104331627259509e-01,-6.558707371775216455e-01
4.482780880775753818e-02,4.453195006509877985e-01,-9.019477724035427357e-01
7.751793186884823328e-01,3.442040166465486495e-01,5.079867151944549297e-01
-7.711799578199309835e-01,-3.037073905984729039e-01,-5.840971290434406882e-01
7.058133746840985490e-01,5.606585289100506353e-01,-4.411762108987639652e-01
4.570922690577279290e-01,-8.372248684090226600e-01,-2.676197816660608186e-01
4.584669352941760367e-01,-2.229465878579996174e-01,8.529621093813193333e-01
-6.879346281460825274e-01,5.310535984697086764e-01,5.036191559597585909e-01
4.539752942857973039e-01,-7.398561695318095488e-01,-4.684239061157502992e-01
-9.702787440551600140e-01,-5.854686706139435731e-02,-2.556695510787379555e-01
9.584255886443864281e-01,-4.481431522942768558e-02,2.083414034455132735e-01
4.350450499507138025e-01,7.697135858338747250e-01,-4.597809517276052471e-01
6.913145240974960526e-02,6.722090465195716957e-01,7.339450736538749576e-01
-8.549130649875946730e-01,-2.347824448992158475e-01,-4.396638668707089082e-01
2.264120433744586103e-01,-8.981647906297518524e-01,3.404098574671458044e-01
-3.731269164410801475e-01,2.873906515126664063e-01,-8.852419684919408116e-01
6.764434288985926580e-02,7.787695352610680688e-01,-6.351579242423350813e-01
-8.882501380246159428e-01,4.048086239604981595e-01,-4.973297045246791170e-02
8.824136357114391593e-01,-4.180924133318733027e-01,2.483548844874888806e-01
9.240043537372799598e-01,3.700441999251352643e-01,1.670267946629631559e-02
-4.008719349970242818e-01,8.805862262230950144e-01,2.456542720590416673e-01
-4.269303460477342216e-01,-2.852196242108152036e-01,-8.593285204760389151e-01
-4.442598597060177235e-01,-1.089175193241002509e-01,-8.795566441759086196e-01
1.484251916439937868e-01,9.788238589869774353e-01,-1.719935702482573714e-02
3.380154233637028827e-01,-8.412462937279776565e-01,-3.874340612213126311e-01
-7.220522035991034926e-01,-6.626004125773042874e-01,1.845488824934758687e-01
8.313476183392821683e-01,-5.190134395476589946e-01,1.707254056959938981e-01
-3.673555749510598600e-01,4.249236040533945769e-01,8.170233639097311817e-01
-8.189427556868508207e-01,4.899340442875363966e-01,3.048121210301540374e-01
-7.579697728872526463e-01,-6.362324828820976608e-01,-2.102910533704019924e-01
-1.246732739660877387e-01,2.538121930847496155e-01,-9.771529210456280090e-01
7.410264623738092027e-01,3.073915220559577874e-02,6.450339905260905615e-01
-9.863578306061056011e-01,5.929058058513209800e-02,1.397422674622100514e-01
3.976477997940703335e-01,2.266448027225255457e-01,-8.959293707862181488e-01
-1.331703838646784155e-01,-2.307617133267916565e-01,9.729965978947086036e-01
-8.637023086083152057e-01,-3.056822131427335276e-01,-4.166605578936660170e-01
-5.462278213404714311e-01,5.289754132025305255e-02,-8.389736805276200027e-01
-7.815520981861350247e-01,-5.410008490230651113e-01,-3.295019561971496702e-01
4.128840680507372962e-02,9.614100739985009803e-01,-2.611137663389815344e-01
-3.017946325586021161e-01,7.026549792498086866e-01,6.738809954526783219e-01
-9.222854089184086002e-01,-2.601676857526897257e-01,-2.965293070684218990e-01
8.907775694512310993e-01,4.407835967552756196e-01,-9.621741559681770695e-02
-9.943663363984094339e-01,-3.266096855448900535e-03,1.583119107474559653e-02
9.362088972549854615e-01,2.839302326452715075e-01,1.272866083036039153e-01
-7.125342680661499450e-01,3.573873987009858477e-01,6.046370481656638818e-01
-4.532680114321803455e-02,7.127529701895662928e-02,1.005344115836790397e+00
4.168139639399204843e-01,5.958514006717903211e-01,-7.030393988332971356e-01
-9.314622623617262454e-01,4.242292931444197751e-02,3.844259032457417735e-01
-6.122829312695284854e-01,1.581179391258858979e-01,7.843074252363627652e-01
7.437796453538713104e-01,-4.407110752618513816e-01,-5.094375316393531250e-01
4.158934929571049821e-01,-7.263107996543347600e-01,5.583591466101801570e-01
2.044597319849547346e-01,-9.793475210767979000e-01,1.408839963824823904e-01
-1.017182325490228467e-01,4.877981465938904249e-01,-8.770216763413811734e-01
-5.612342148019201504e-01,-8.143752365546405025e-01,-8.073863063686449737e-02
-6.292952736286308024e-01,-3.855454106026939831e-01,6.691688196055654014e-01
4.161536546022095440e-01,-8.729060663218969340e-01,-3.027525704104842008e-01
-8.910906518668120224e-01,6.088935134825209511e-02,-4.655264555645421409e-01
6.392473215593094671e-02,-7.091639367159228158e-01,-7.206672803511259273e-01
3.631188207938015888e-01,-8.511520895110669116e-01,-3.825084920080826789e-01
-1.171250208613079380e-01,7.045399665369371789e-01,-6.819532492577689009e-01
-5.504592989418675454e-03,6.062599593778731505e-02,-9.845828746271391152e-01
-7.633005341601617477e-01,-1.993306711265949160e-02,6.463591695654180569e-01
-7.388817389529442892e-01,2.929192740863511002e-01,6.147247339543947531e-01
7.827559597310015937e-02,5.975361932350470306e-01,-7.811408019160959171e-01
8.062516945253002110e-01,-1.181843121992672135e-01,6.007133867243199532e-01
-4.259937886541800278e-01,-6.370125039526061128e-01,-6.467250489591268581e-01
-4.173373997816268166e-01,-9.051820211799862514e-01,1.343874313342859339e-01
4.667149630897041712e-01,-4.045392299340753728e-01,7.849652723594671144e-01
4.526775789164997899e-01,3.315378661475664734e-01,8.224777002595975439e-01
5.088214069386045590e-01,-8.533204793237629815e-01,2.877083625591905780e-02
-9.322749509501521148e-01,2.708880766402020357e-01,-2.155906870501898831e-01
-3.310787466848116173e-02,-7.846535702333665707e-01,6.070186996968114368e-01
7.246021042948634916e-01,5.890005378572986672e-01,3.223537982305809679e-01
