5.740325081875605751e-01,-3.106516587209102176e-01,-7.549094494201717964e-01
3.609207258295833443e-01,-2.857104837750943926e-01,-8.969674484874415876e-01
1.002614482758626302e+00,-2.219651746562221768e-03,1.707318685428715344e-01
-8.264632844267014722e-01,-1.846788437916157266e-01,-5.438539993146682683e-01
6.576104366701372717e-02,-6.019654676381217540e-01,7.943305470531922818e-01
-6.774264536709450057e-01,5.492162369630222418e-01,-5.245931395685101695e-01
5.797613650329136448e-01,-4.718692535624329776e-01,6.854389617550328273e-01
1.278844096049948365e-01,5.545041318605169467e-01,-8.283829480621971442e-01
-2.796194224423708130e-01,-3.498983459282338782e-01,-8.952528960001305824e-01
7.929405495619540334e-01,5.801339922418511375e-01,-1.681887061747903700e-01
1.003789558119906111e+00,9.084700114223122347e-02,-1.530574144617884713e-01
3.001283147586833455e-01,-7.779786886851491889e-01,-5.365321459309158048e-01
-5.220709203192507308e-01,5.178902933302509393e-01,6.882953012885131283e-01
-1.227800938350301213e-01,-5.392353718270227469e-01,-8.356410644188781989e-01
4.256877552918599261e-01,7.406768705010553511e-01,-5.136230522439447777e-01
4.331572234223388662e-01,-3.522710828809229588e-01,8.353875901647959124e-01
-5.622911062428639362e-01,5.089596696069446924e-02,8.397973679034217431e-01
5.298707663083184194e-01,8.332642589543705069e-01,2.199874332061992066e-01
-1.031076643024992356e-01,-1.712551859709743329e-01,-9.719418382246952648e-01
4.414273690192120347e-01,-7.458163151135813740e-01,4.901261811286948267e-01
1.302268987993317473e-01,-1.249554052409765081e-01,-9.776942068686462761e-01
-9.316712483023886771e-01,2.983313277620828763e-01,2.731898226992084400e-01
-9.166552100035318951e-01,-7.789022780916912692e-02,-4.171128629454844972e-01
-5.098672108947165382e-01,5.394540465715997879e-01,6.518018292548162229e-01
-5.154580534425128313e-01,-2.898308413395073724e-01,8.131124916137290048e-01
6.482480624968111060e-01,-6.605992013556635234e-01,3.723499099323586692e-01
-2.841798228234817536e-01,-7.794277743952586768e-01,-5.510708288535196564e-01
4.172232133200950432e-01,-8.864180031488805289e-01,-2.081509032004058013e-01
7.820531391628207096e-01,4.733581889251442520e-01,-3.828196853870582950e-01
-2.164360845484558649e-01,-9.372078066488686021e-01,3.200985245762985598e-01
5.076250788777288830e-02,9.830141567952049853e-01,-1.129314528544097668e-01
-2.848245820118958660e-01,7.288764331440981126e-01,-5.991142048144300070e-01
-9.426008962028386007e-01,-2.468979414671660655e-01,-3.081840683595390429e-01
4.564872706980030448e-01,-8.740939620582758307e-01,1.405585694871614721e-01
-2.789728889291961389e-01,9.694101855740415719e-01,5.466458817116911367e-02
-7.739450156195757380e-01,4.040489107301488136e-01,4.625351667401578770e-01
9.847330946907821847e-01,4.197107322161203885e-02,-7.317966638518809408e-02
-5.605785597291346872e-02,5.607510006149513115e-01,-8.320345015724697202e-01
2.217848039907279467e-01,-7.327247065848708774e-01,-6.497612130632243188e-01
-1.625437038573088466e-01,-1.233743187365145683e-01,9.659474917983892350e-01
7.409170330796833737e-01,6.009852657268155429e-01,3.526441436448990441e-01
-5.375532711637036609e-01,-3.605228510229043226e-01,7.558696281537918837e-01
9.712502260828231870e-01,-3.991112450473552342e-02,-4.506175436478040974e-02
8.631189922532016556e-01,-4.952747406576309963e-01,2.263855895039917215e-02
-9.254291213787919634e-01,9.486364838024676296e-03,3.822594183387517108e-01
-2.847938833853266849e-01,-1.066717397852130489e-01,-9.720293645714089825e-01
4.411955077201602515e-01,1.066472315748363403e-01,8.834444687378539829e-01
8.465080865900336260e-01,-3.809472921337924145e-01,4.277596915716531112e-01
1.353482795456456556e-01,9.794061318482061296e-01,-8.278264845581069509e-02
-3.131115397940008038e-01,-9.264759225625420758e-01,-2.623700693552821206e-01
3.602056938871779912e-01,-8.948071042711863710e-01,-2.855125968471374787e-01
-2.116538668337887008e-01,-9.319375880106571808e-01,2.504031014217929507e-01
-4.064293927034903775e-01,-2.754273419961091873e-01,-8.890192324366441579e-01
-2.178160938416487946e-01,5.537705671619190528e-02,-9.434213842514652670e-01
9.378193659647037217e-01,3.853368261393321226e-01,5.847197066264420845e-02
-1.475686679311916105e-01,3.344875370353555533e-01,-9.142957798998531116e-01
-3.516410900504871595e-01,-3.289948528269744377e-01,8.805030098317654375e-01
-4.965753839144904092e-02,-1.868094068487609616e-01,-9.664089318526946082e-01
6.885395211893886591e-01,-8.358990174305264143e-02,7.156410408393392153e-01
-5.677891866216095984e-01,4.710858743299690676e-01,-7.082249443305684844e-01
1.663087626410049702e-01,9.800674455618633152e-01,1.819575107049652418e-01
-2.268889832764652004e-01,-8.811943250740126299e-01,4.129647068547583344e-01
-5.419910277804569354e-01,5.240273166673337091e-01,6.643135191629793157e-01
8.003223168814971311e-01,4.700460821784523402e-01,-3.600295393890559081e-01
8.989987166194089996e-01,1.821017621253149046e-02,4.786279119280423822e-01
9.974433138578356894e-01,-6.819564540410920361e-02,-2.123545284290348500e-02
-5.256481914638374553e-01,-8.175619928843329554e-01,-1.991842470899731765e-01
7.108359271628365839e-02,-1.234275987148627796e-01,9.912313237935057586e-01
6.412998532336707802e-01,-5.954371994713135718e-01,4.639643000342610346e-01
-8.570646437039195487e-01,-5.931274902776338676e-02,-4.626351266392353390e-01
3.200192559205889964e-01,7.586357840512470974e-01,5.670725831078234913e-01
-3.488682594746857490e-01,-9.271926983498089969e-01,-5.115053187876170138e-02
9.337075100178134912e-01,-1.343272706347733714e-01,3.182761900995747517e-01
5.630373373201278397e-01,-7.402985742592728124e-01,3.663255338964984120e-01
1.796448555530793245e-01,-5.361308343995048187e-01,8.352798007963532223e-01
3.390834509018784138e-01,9.327442063250352966e-01,9.366521755672280181e-02
-6.764271562064861909e-01,3.658805420022360200e-01,-6.123941679740234623e-01
5.407730491422512165e-01,4.313935596766139691e-01,7.427965918155287062e-01
-4.180750727307544490e-01,8.743505101957680381e-01,2.696506166492167456e-01
-9.415997335073498231e-01,2.819276517797981718e-01,-1.328678302025510793e-01
2.965525354405120773e-01,-5.949390313421356602e-01,-7.419431144785980647e-01
-9.243037223128994784e-01,-2.894539315410658564e-01,2.612551140354548163e-01
8.422849092363100532e-01,-3.261940140754973627e-02,-5.516998056573657605e-01
1.697212238344225355e-01,6.958508732802681784e-01,-6.841841247823189365e-01
-4.126100581985837068e-01,6.835482898862543788e-01,-6.160492788504290385e-01
-8.080929315818511371e-01,9.744400897089759706e-02,-6.199507485227323533e-01
-6.671367995214244617e-02,-9.344562414470963807e-01,-3.546668167032899222e-01
9.196624074729617404e-02,8.138302427817335483e-01,5.822023352988442424e-01
7.694388002250683867e-01,6.120926675183967491e-01,1.762797889062330259e-01
3.746988536495300948e-01,-3.735468671966230558e-01,8.378425806505205298e-01
-3.108259986911451334e-01,8.075890257631772595e-01,-4.739798027007906533e-01
9.641374123374726324e-01,2.249428609651503430e-01,-1.690162772990370932e-01
4.105581850850015257e-01,-8.765270282319590489e-01,2.695603852562727942e-01
-4.318246475235557602e-01,2.432114969000150895e-01,8.753356426834065784e-01
9.509460925473753878e-01,-2.502182552104202928e-01,1.482333066308021696e-01
4.135517237064056939e-01,-9.131153644514895529e-01,-3.878286446384783537e-02
7.968044411988226550e-01,-5.221140013539936620e-01,3.011167962960167865e-01
8.107320627600880236e-01,-5.872968187620285496e-01,-7.561206094104518105e-02
6.847790452301267816e-01,-5.416467417583318289e-01,-4.857906612881645048e-01
-8.940684809399628286e-01,9.932260409227783304e-02,4.238104543625986209e-01
-8.592951575939162812e-01,1.281722121832883921e-01,5.013555037249430857e-01
-9.053786035188099435e-01,-3.911257469479594295e-01,1.420917072882612597e-01
8.746610787122411912e-01,-4.215654078160300244e-01,-1.504729395302766282e-01
-5.626813247077291358e-01,6.395502732452370553e-01,5.030093102823317563e-01
6.752369321365621069e-01,-1.439285542305855092e-01,7.366088975938966943e-01
7.583036241872056493e-01,6.182631235467002107e-01,1.772691442532013106e-01
-8.317249284091283723e-01,-2.010611193622283410e-01,4.907753716399952948e-01
8.132108462948898220e-01,5.496928364651412213e-01,1.809412805529153068e-01
7.848280331398239940e-02,-8.846426988570031957e-01,-4.439665600110216381e-01
8.532524883289627216e-01,-1.100631132312698303e-02,-5.119962134364173245e-01
-1.584548523491607352e-01,9.712075565027782353e-01,-1.214918744562864389e-01
7.034578478270083757e-01,-5.311703667538416607e-01,4.786894435313518437e-01
4.532743789357033815e-01,-6.686898710574494809e-01,5.820905937290807852e-01
7.392071213453258460e-01,5.472295115574715707e-01,-4.046817242281179894e-01
-7.509919751183725678e-01,-4.572405708666210100e-01,4.975603339385644697e-01
-3.190089177505167073e-01,-8.792701396178808082e-01,-3.137882607518760469e-01
-5.978156389129091197e-01,-1.133831506885384227e-01,-7.721630463898815355e-01
1.892044342181150307e-01,-2.175938502170382538e-01,-9.529174526791196476e-01
-1.762725529624732945e-01,-2.814608891531613089e-01,-9.415275117514930736e-01
-3.795278424612846258e-01,-8.300814850256492683e-01,4.128512066091831190e-01
1.109409029038842254e-01,9.302260955681934673e-01,3.312261872148102304e-01
4.654036143264490000e-01,-2.189080270203999645e-01,8.564540570706744571e-01
9.488160777970010562e-01,2.325173411816847113e-01,2.657715934726544438e-01
6.693713921497297381e-01,-7.569950685839831328e-01,-1.755920393942674573e-01
2.054870839321828735e-01,-8.169367197578345507e-01,-5.126990385262431005e-01
-5.719345037098816364e-01,-4.569823070413008698e-02,-8.245565769425179381e-01
-9.083701055663132573e-01,4.099185861965499722e-01,7.310837974220298074e-02
1.102720739966709523e-02,7.676816178573280247e-01,-6.593007860143480503e-01
5.411375488869397676e-01,-6.273733195963557829e-01,-5.477892697162821678e-01
-4.714095746375640550e-02,2.332607788778161273e-02,9.991032766114953390e-01
1.437210223070709558e-01,4.096329804592334645e-01,8.978095513753703294e-01
1.425626464493615075e-01,-6.228820965980041979e-01,7.562027893869861517e-01
6.612696333479124444e-01,-6.590868149642118423e-01,-3.455637893822240403e-01
-4.746190230599291460e-01,-6.366297481283653692e-01,5.910961564106155253e-01
-5.753787653661437407e-01,-5.938356779817361986e-01,-5.522858163905020046e-01
-7.543848858470787455e-01,6.036949277769465549e-01,2.431174339888042824e-01
4.226595831030482420e-01,2.288151241944841666e-02,-9.140065317570710279e-01
4.292560563035526799e-01,-8.162622722121023466e-01,-4.383697571477503385e-01
-6.890122513276782934e-01,5.870148141831265098e-01,4.296444120660434240e-01
8.122552152123129199e-01,4.163738005763300554e-01,4.021422783219305019e-01
-6.377827914526378317e-01,7.762879796108880237e-01,1.136438095048519087e-01
-2.645248141030945854e-01,-4.665234968712537733e-01,8.496920484121518458e-01
-6.591906473307993508e-01,-1.155553662051962138e-01,-7.380653531789437283e-01
-4.980014619101342244e-01,-3.319703127293583966e-01,-7.931263208140436616e-01
-3.617065285247318962e-01,2.259511183445868376e-01,-9.049578350386477954e-01
-3.403043589817754122e-01,2.262174224562151781e-01,9.281505426856085927e-01
-9.207272334783541679e-01,-5.600463612975718763e-02,-3.774305009915421838e-01
-6.098678764621954240e-01,-2.457125417276822266e-01,7.494033944085313204e-01
-7.463330795681690777e-01,2.027489092349422928e-01,-6.084872908379876932e-01
-3.104203779406696229e-01,-7.451439252415911207e-01,5.692950246545221971e-01
2.878081545790409645e-01,7.157849615172139357e-01,6.489201048290413887e-01
-7.358349132506318835e-01,-1.963990787036835328e-01,6.679743415790506678e-01
1.239010228158637789e-01,8.824450652998201416e-01,-4.463776358782168274e-01
9.776432687465596016e-01,1.503476822837197281e-02,1.386903475334107239e-01
5.262208512448994790e-01,-3.901007792208464053e-01,-7.355165035222935854e-01
-5.888590203813399704e-01,-8.082271434769818796e-01,-1.044285083739537184e-01
6.774911022546983852e-02,-9.706920071384769200e-01,-2.098726834587374968e-01
8.590015118460777588e-01,-2.722357019922861440e-03,-5.110126156420892185e-01
3.451226200864116467e-01,-5.707083380822862706e-01,-7.521354356616238857e-01
4.549001733401605851e-01,3.469474330974612331e-01,-8.015859164462935116e-01
3.465917156841680224e-01,-7.272439651161719532e-01,-5.958293405155081768e-01
3.692139623179980235e-01,9.086674347892306214e-01,-1.178428467630765336e-01
-6.005036308047192462e-01,-7.657139172077161993e-01,1.990188797159988532e-01
4.462508337223459742e-01,-6.875595568650625378e-01,5.833491294140858985e-01
4.446107667999720237e-01,-8.061550355520324951e-01,-4.151237692586490224e-01
-2.193696169664434148e-01,-9.347433945413956558e-01,-2.587214317922570395e-01
9.416393311316757497e-01,1.931305012480817040e-01,-2.504326369280285847e-01
-5.155981666179563216e-01,-7.711069357951336745e-01,-3.284120135234123161e-01
7.317037527785105189e-01,2.725645840466873193e-01,6.327626714270219166e-01
-6.361563238449667868e-01,-6.350948080568256104e-01,-3.970826735242851679e-01
-8.938457029744939497e-01,3.504310081267016930e-01,2.612959067436065874e-01
-2.947541397134368357e-01,-8.519288192062804410e-02,9.587175779927439301e-01
4.770242310008538378e-01,7.599580588577906637e-01,-4.246834774968982207e-01
4.853277254963366261e-01,3.775525487722960483e-01,-8.039244930503738340e-01
-7.246952692154026154e-01,5.199960792938073117e-01,4.658792229510324012e-01
-3.343717577897556970e-01,7.628296782265919784e-01,5.293529205116871417e-01
8.606899730524977254e-01,-1.671743431246133782e-01,4.430599429535124201e-01
-3.613413467562007764e-01,7.471543926448797057e-01,5.686567338701932206e-01
8.977877132102329849e-01,2.465672206676149392e-01,-3.829770327312747580e-01
-9.042107122320473811e-02,9.360865518831915644e-01,3.629585827278956067e-01
-7.860583064091117844e-01,-2.350985540901401605e-01,5.461085917228082343e-01
8.986508240507732476e-03,-9.800523759438960480e-01,2.247141161016248390e-01
-5.606826188336303529e-01,3.753974360151613593e-02,8.325622171277867745e-01
-5.108768275492236999e-01,1.833412788197426035e-01,-8.488382977490223080e-01
9.307836330987766527e-01,-2.600399121920599077e-01,-2.221739604914041433e-01
2.127116199216969872e-01,-3.250848307609095766e-02,-9.633460224348359136e-01
2.122462473161232654e-01,6.843895970872774237e-01,6.986682338398274572e-01
-7.466645233893427491e-01,6.537283352050945462e-01,6.334672408818485534e-02
1.208983351393511374e-01,8.619259347947713090e-01,4.795607907193523145e-01
-2.075633921802990112e-01,-8.061443224999190749e-01,-5.457625825747099979e-01
-9.069063440692314293e-01,-3.583926965263761755e-01,-2.282404992815375566e-01
4.035174247471011166e-01,-7.359416643592964213e-01,5.671579497160279537e-01
2.806387487663967173e-01,-8.531467178325605749e-01,-4.960586189992670092e-01
-7.913253861847104886e-01,5.897977704314760761e-01,-1.337866777797204476e-01
-3.461768764599698622e-01,-3.995122250056264424e-01,8.381783988387785378e-01
8.287237634617879989e-01,-3.423754696485774573e-01,4.222830147096605646e-01
-6.803804575597531823e-01,5.122469013056029086e-01,-5.059023506986973784e-01
1.020397305751054168e-01,8.921437761252207777e-01,4.182323854373364291e-01
4.028371320607524453e-01,5.499783930875860039e-01,-7.442851666836823865e-01
-8.876834250397027670e-01,-3.665979303003927825e-01,-2.726303789770402330e-01
-6.365948357174319727e-02,9.379600819458304706e-01,-3.308613075735399867e-01
-9.332938029568891292e-01,-2.603316955001587218e-01,2.432488728672904388e-01
-2.203360894895138589e-01,9.556680045693722869e-01,-2.613653560724205072e-01
-8.303274764739092262e-02,5.278792445766123942e-01,-8.318957892487192085e-01
-2.638021280829755955e-01,9.360073243388316033e-01,2.919099614598910652e-01
-7.096166082522783469e-01,-5.731222335421874980e-01,3.866211024555447073e-01
5.133204585369000039e-01,-1.805991390071745029e-01,8.354223213162805806e-01
4.837054284449798791e-01,-7.273125237654709530e-01,5.035605562961220638e-01
-4.029454130550363944e-01,7.739258115450836639e-01,-4.875815001995398301e-01
-6.687414968309262076e-01,-4.902631738417712604e-01,5.570430010332800830e-01
-6.528585890788806134e-01,-7.418633632808814271e-01,-1.675635972182619726e-01
-2.148043974865501415e-01,-5.459742992337847101e-01,-8.026505767634994903e-01
-2.573030681191803559e-01,6.605541290978045321e-01,6.859421679574825292e-01
-4.309566780770303085e-01,4.737871678059520364e-01,-7.596311469643268754e-01
-9.719280180495256660e-01,-1.542288084960403427e-01,1.975885261376823243e-01
-9.747100509933467327e-01,-1.528340647593994517e-01,4.141660218873116639e-02
4.537410868461978775e-02,1.000873113869668707e+00,9.458609186198865815e-02
3.092726674532487730e-01,-5.341735091053908535e-01,-7.773028893588014299e-01
4.906843328751909206e-01,-6.359683666640908450e-01,-5.912751176731216862e-01
-9.277134171715766264e-01,-3.600232666197875075e-01,-1.446656315617165720e-02
-6.329287781047598926e-01,-7.767539555734024326e-01,8.006142414799860552e-02
8.952054435542869948e-01,-4.093377467918299928e-01,-1.469540410960100685e-01
6.689394302650359947e-01,-6.331863365528539456e-01,-3.990210202949927010e-01
-1.033483432482216469e-01,6.005713827080052525e-01,-8.165136099363795585e-01
-8.017663494051205930e-01,-3.632073141694182605e-01,-4.790159241938767853e-01
-3.106365769829355084e-01,-7.907387919489509143e-01,5.170972360897229114e-01
-8.349098737444620166e-01,-5.668065757844976682e-01,5.769231720791248574e-02
4.460507032943175632e-01,-8.019407570161954935e-01,3.893979217711281415e-01
3.726007951353310643e-01,1.058692435309212115e-01,-9.257081926265618987e-01
5.695721125674243490e-01,-7.600954206014903791e-01,-2.943068547967367943e-01
-8.855319462599118285e-01,-4.466383530075666575e-01,3.279037090571249036e-02
-5.539606109898312924e-01,-4.467773202775842112e-01,6.762430025374661646e-01
8.319245020727901174e-01,-4.203179419587154686e-01,-3.349916541396365521e-01
2.805725357938591569e-01,-9.339709922774873663e-01,-3.215641166450275423e-01
1.465516417784248071e-01,7.883445301748575051e-01,-5.999425986575649405e-01
-3.669796601256419266e-01,-7.283070759988835574e-01,-5.807232470335943475e-01
3.516171604629229619e-01,5.455492611457940511e-01,7.421234881614491297e-01
4.594976636932509434e-02,-2.122708108244579783e-01,9.747810326369367173e-01
9.094901647330159156e-01,3.179233800231465179e-01,1.937763153544323214e-01
4.266658059824582350e-01,-2.484964354920735780e-02,-9.266638996826134234e-01
1.006840713226383910e+00,-1.033683990585654439e-01,-5.419961949374450111e-02
-6.096711254596388629e-01,5.488522680649114971e-01,-5.626870002322190700e-01
-9.528339676329904417e-01,1.644871190076919176e-01,-2.659301200183978864e-01
-1.011232101576849812e-01,5.181494210396246913e-01,8.441295462950877404e-01
6.227408583910366557e-01,-7.624807100100160495e-01,1.306245878226005297e-01
-9.660686723563591816e-01,1.997584867346874626e-01,9.744476027490284187e-02
-7.790275262143941948e-01,3.587824780627687504e-01,5.368585760820387964e-01
4.250130211014476606e-02,7.010080585048672486e-01,7.288746656309439409e-01
3.296803271972342242e-01,9.465174731954083542e-01,-4.935395256391400531e-02
-8.991177247944729389e-01,3.691768516067159833e-01,2.336899688681019771e-01
-3.071767301603399170e-01,9.354066181612211706e-01,9.204962933218978349e-02
2.875118734222405492e-01,9.012852935652589936e-01,-3.329611054526853686e-01
9.117941245400640327e-01,1.988057181148850106e-01,3.722741037506789308e-01
-2.106887248228921650e-01,-1.691658871609262038e-01,9.627984169907286560e-01
-8.805747604884391899e-01,-3.252850504472722393e-01,-3.507754757843878912e-01
-5.607853595742458008e-01,8.302574436734326824e-01,6.928536979161002696e-02
-9.659689944056736310e-01,-2.090024762949752868e-01,-4.471512571059842178e-02
-9.423744671265278372e-01,1.092696791061359973e-01,-2.920201239181965946e-01
3.037964108488077630e-01,-9.352292354928847251e-01,1.416453785674711974e-01
9.140980983897687429e-01,1.599369374495821228e-01,3.963297501188099425e-01
-7.918718013176531123e-01,-3.822868105691058505e-01,4.799583015631296301e-01
-8.831092454814518655e-01,-5.068765786513285132e-01,3.116188756651465039e-02
-4.286342031709153289e-02,7.853862980183389242e-01,-6.357593257569599254e-01
5.516407474255574650e-01,-7.822220877552625851e-01,3.213733239948373122e-01
5.175994428387438971e-03,9.371072810689925481e-01,3.783753505358766756e-01
9.132788390853141536e-01,3.255263126575785870e-01,2.791624857850252273e-01
-9.610026263580087047e-01,-2.214590933628270697e-01,3.376930202243885737e-02
-2.019340988595640096e-01,-3.089165629174036032e-01,-9.370125847673665964e-01
-7.755694977621880870e-01,4.284608854400106526e-01,-4.822116455752292197e-01
1.762275040787178726e-01,-7.133045989309413359e-01,-6.966599160147467495e-01
3.552541445311592772e-01,6.212740678537407302e-01,6.967758474579928141e-01
-6.713423174952890538e-01,5.406648958571556030e-01,-5.155710498365991823e-01
-4.491819955780185225e-01,8.425318071259280117e-01,-2.539121275317072213e-01
7.306530304707773427e-01,-3.555072346110674797e-01,-5.986107750764965152e-01
2.119752081491859119e-01,4.171096912292637793e-01,-8.613968864918378765e-01
-5.002336245355372135e-01,-3.280746941458149157e-01,7.963402077392652822e-01
1.686479394603966897e-01,-2.419678955044997359e-01,-9.453471435725538941e-01
5.575523265430440967e-01,-1.444023335343739278e-01,8.284767605851093286e-01
5.717587865752740139e-01,8.210048464574175586e-01,6.209759373142723082e-02
9.871999356222433963e-01,8.503298159622321717e-03,5.648918007519725809e-02
-8.322809696766996224e-01,2.762540927531560997e-01,-5.071180938702632979e-01
-5.083836515558475266e-01,3.054101159486783401e-01,8.145946664755984168e-01
-3.181954739346316563e-01,-9.508552735647217702e-01,5.860846972106186631e-02
-1.762220635173408212e-01,9.512369000707548983e-01,2.854044306369867834e-01
5.900824328844130884e-01,-8.127838142792828124e-01,4.665210875671643026e-02
6.763823626246134868e-01,-7.273512494312390775e-01,-2.694729424114785873e-02
-7.697352426304189255e-01,6.166760073243844342e-01,-5.320919029006058315e-02
2.786790315386151184e-01,3.475277053304069441e-01,8.807137532228049848e-01
-3.629524810212501618e-01,-1.111259717979064254e-01,-9.350384465377499232e-01
-8.797106383033153065e-01,4.779280404696856221e-01,6.432667355854709834e-02
-8.170764338691502982e-01,-5.581523538837972476e-01,-3.924204927165907131e-02
3.782347704242287612e-01,-6.911764723493593054e-01,6.014898939618195106e-01
8.817170600346407872e-01,1.789009637656131246e-01,4.542971304284668665e-01
7.857022054352975626e-01,-5.447854335767370326e-01,2.338253366369691943e-01
7.879837110442831916e-02,-2.155787784056667766e-01,9.673097386491081862e-01
2.507265968150720337e-01,2.614971765522211555e-01,-9.422092199826943570e-01
9.761263027426236860e-01,1.624169440999157499e-01,-1.582674653835918765e-01
-3.815282817390346359e-01,-9.012663753927988575e-01,-1.747482790937696651e-01
3.988918470180030096e-01,-9.283859194166437234e-01,9.667574975397644210e-02
4.332628285681281999e-01,8.946215976540065062e-01,-9.961907276410758572e-02
6.415136069494538074e-01,-7.385861586159716552e-01,-2.583573578093950607e-01
-8.916175160641660602e-01,4.327073369682896131e-01,1.454468615517672155e-02
3.169708322237012599e-01,8.476640310155120206e-01,3.700579535369827866e-01
7.670317695656740931e-01,6.502359591010766771e-01,1.536106988144343155e-01
7.040391991898630186e-01,-1.261035254427930186e-01,6.816244019831914080e-01
6.529356900054392732e-01,-7.061786997982726355e-01,2.580502635171799120e-01
-1.468409621631392714e-01,3.390730294435654324e-01,-9.250519676764284993e-01
9.727311778237009987e-01,-7.817798202368732297e-02,1.733996202540627196e-01
8.511462643137189810e-01,-2.795431365614873750e-02,-5.297138055542908175e-01
9.406881838566767406e-01,3.837239908608865435e-01,-1.818866815993397945e-01
-8.360035857375983648e-01,-3.211205507148456317e-01,-4.759217124914927877e-01
-5.853009574309628871e-01,-3.307353627870116553e-01,7.293549840473373402e-01
2.754795736862875599e-01,2.172000010610468379e-02,9.764252867733902441e-01
8.029408686444437782e-02,1.000463766256183495e+00,-3.337572550795789988e-02
4.597102064237250652e-01,-7.112537517456467562e-01,-5.355938411554408418e-01
-5.049878848366614603e-01,8.390669899418270461e-01,2.269326261545143719e-01
4.673968755930236196e-01,-4.620711723363498669e-01,7.594022380564278141e-01
2.403714260975586825e-01,9.259474506247665493e-02,-9.661984002446458719e-01
-9.489700301433020568e-01,2.978875090988152285e-01,-3.460479171872474224e-02
9.437742994072922942e-01,-4.238707944013535983e-02,-2.732470454183605346e-01
-8.279603435913290843e-02,-7.641864383604713984e-01,-6.479109441487852505e-01
2.696680347263659128e-01,-2.795235682471544081e-01,-9.047816662319169145e-01
-1.256177023432363538e-01,-2.655902142859967174e-01,-9.611180076534973082e-01
-2.633473427038707237e-01,-6.066415224188597133e-01,-7.454488734878375045e-01
9.735147720347764322e-01,1.289185673609096194e-01,2.390812653881975447e-01
-8.545723022608968655e-01,-5.383719063242847769e-01,-7.387959478888822540e-02
1.984168488944030584e-01,-1.536798883407472505e-01,9.486848419342299721e-01
-6.012302705962156990e-01,-8.014505132818228184e-01,6.168066627044876266e-02
9.253850419931961557e-01,4.043198631523365894e-01,-1.165451918263863545e-02
-6.918790553500311358e-01,7.228143521689333051e-01,1.473504087007710683e-01
-2.626353789877785561e-01,-3.970261078027707558e-01,8.792324913001998699e-01
9.926488320725209702e-01,-2.896961193415760472e-02,1.477679131618540587e-01
3.233435911064111434e-01,-7.978996345808501145e-01,5.194778553873060645e-01
5.961844995346763376e-01,6.224970319082840930e-01,-5.070669807615427738e-01
9.115804288172204561e-01,4.171913731812564308e-01,2.594328474503131143e-02
1.228567586910924159e-01,9.461363693226625404e-01,3.174404380874047416e-01
-3.467238774143870800e-02,9.017176946609252175e-01,4.364765201343853707e-01
4.568950076679349492e-01,-2.647777074629760197e-01,8.538279350145242530e-01
7.197571029787072083e-01,2.342197270842356072e-01,6.434593648852692249e-01
9.786515476109591827e-01,2.046132949604183293e-01,-6.985324743796740565e-02
5.634013626344406278e-01,1.103688234801432216e-01,8.340115659522162606e-01
7.321866959628423599e-01,-4.189148181911763191e-01,5.277089608392714348e-01
2.745708119032049255e-01,-6.498920684844650131e-01,-6.775555276135908356e-01
-5.860278081537554362e-01,7.214788146553587911e-01,-4.125543536813412460e-01
-4.539017415691838919e-01,-7.544153135611201266e-01,4.923572446685328674e-01
3.010232100121978949e-01,-9.476796896806866100e-01,-3.803478545345759243e-02
-8.944957715513160990e-01,2.952440433968598343e-01,-2.978475078004430010e-01
9.890212419906312391e-01,1.500563708476648425e-02,-1.841769518493293900e-01
-2.485008617172098366e-01,3.891600081258879684e-01,-8.893289147158481844e-01
-3.706784478231934243e-01,-1.167002803553232604e-01,-9.329607771789198978e-01
-8.374252110124245085e-01,4.736133743556129039e-01,-2.711758794351784019e-01
1.642014941440847198e-01,4.427163423164584555e-01,8.603207133181882682e-01
9.629014062532389451e-01,-2.740060249941621007e-01,6.940155098660820421e-02
4.717942974171551174e-01,-4.476586624480019538e-01,-7.891446739146444900e-01
7.340492991371665166e-02,-4.737749036044673345e-01,8.913921516916673005e-01
5.800649715669511375e-01,-9.870892875344614015e-02,7.940677210553837018e-01
6.348410368416341765e-01,4.798080792469734679e-02,7.897946156201319790e-01
-6.568774394991916399e-01,-3.104377536934509463e-01,-6.972804230135986048e-01
9.761862916475598506e-02,-9.479445571276713389e-01,-3.122681264124772538e-01
7.073738456740196190e-01,6.503604451687348131e-01,2.226836559294340101e-01
-7.853600830685242284e-01,-1.626535301008319723e-01,5.956970263353850159e-01
-9.855724401611728469e-01,-1.884717499452770728e-01,-6.474032780767415007e-02
-2.368858109433658321e-01,9.272726647835268787e-01,2.828425380037108416e-01
-4.736297192775641984e-01,-3.850531222848825874e-01,-7.663517953809946270e-01
-4.449640575573581835e-01,4.823578979759096663e-01,-7.240777413884944558e-01
5.686509863598775416e-01,-4.577400599384970348e-01,-6.741572492654517301e-01
-6.282295128889286984e-01,-1.374235583086247658e-01,-7.611927467333514663e-01
-2.905102531533428345e-01,9.545656453235720207e-01,-1.969669978722233053e-02
1.413545700505072222e-01,9.979392546448735413e-01,1.150349477187051495e-02
-2.899765914762606478e-01,8.774249103897636681e-01,3.361521509168375332e-01
3.197354021173482996e-01,1.258453738873008543e-01,-9.490003145140746277e-01
3.104624776362472915e-01,-2.868694042516979348e-01,9.095966850286820726e-01
6.182604439835220900e-01,-7.857603431456026133e-01,-1.736223746522729114e-03
4.857547440879862732e-02,4.956381379638961637e-01,8.715908335508489868e-01
6.265733396859861637e-01,-4.088843602149590251e-02,-7.900715286722902464e-01
1.349372358428160001e-01,3.919768102682318345e-01,8.960964688155372837e-01
8.431921588115447175e-02,6.811938906790979686e-01,7.336493975799068812e-01
1.715313753104336925e-01,4.668465657253754730e-01,-8.643762564455840236e-01
-1.939542492691309905e-01,-9.158030267421390924e-01,3.427569622462020571e-01
6.352370367816947416e-01,-1.351021585516611612e-01,-7.818832185408143287e-01
2.002217770635464911e-01,9.771384256734333418e-01,1.129611189936475801e-01
-3.209955566319920295e-01,-6.614281827871304476e-02,-9.429944435511169454e-01
5.125351395839898849e-01,7.323101279302246525e-01,-4.537417200547171348e-01
2.548316356677524652e-01,6.724497231824267951e-01,7.117635631760056425e-01
6.808793066293081786e-01,-5.371679049442980025e-01,4.742475476741259688e-01
7.669791305190207797e-01,6.141089479117218808e-01,-1.569616794781902580e-01
-1.425415232828639855e-01,-9.459958252496187825e-01,-3.030518272449646555e-01
-5.071095919050957468e-01,8.243919346949890592e-01,-2.664551505282578003e-01
4.354525547629638504e-01,-8.854005663634390011e-01,1.223587252735943570e-01
-1.262278262381376637e-01,-9.871474002657052438e-01,3.816055996669048128e-02
-6.995942659911671413e-01,3.676468034320122258e-01,6.127497371670050930e-01
7.005942817383719046e-01,6.484324104917661424e-01,-3.197645557868016852e-01
8.870211081430927624e-01,3.245767758468629527e-01,2.863430164295948099e-01
2.064768568588686293e-01,-9.236242381744840246e-01,3.323087405902651614e-01
-8.970452847138556951e-01,8.426699337156234870e-02,-4.187841702498906749e-01
-4.087642281990225973e-02,-9.018082510770277782e-01,4.199794845862180326e-01
4.326662721790283106e-01,8.401882524090628079e-01,-3.487129959172910465e-01
8.711191784468587107e-01,2.236738326585917258e-01,-4.286580812413645636e-01
7.023116628738272638e-02,1.622660943861564675e-01,-9.811555482884314339e-01
1.688794816768509066e-01,8.702272386134184412e-01,4.311779308124035204e-01
-5.753959346402247599e-01,5.358867761027712451e-01,-6.072011209284112754e-01
-4.025860806460132002e-01,2.204373547976346548e-01,8.802562612220682370e-01
9.866658587775323230e-01,-6.337883307728203741e-02,1.819591636302134718e-01
-6.275903261366722052e-01,-5.259036221556632335e-02,-7.753535835658976749e-01
-2.397745099304928462e-01,7.490564898883426137e-01,-5.945445683035404105e-01
-9.064894379340894259e-01,3.310181560220848973e-01,3.121832089778441843e-01
2.254196056302048279e-01,6.794050880085993338e-01,6.651249167923186656e-01
3.492867230768996745e-01,-9.352031477762734468e-01,1.250205558087526536e-01
-5.794949244692642054e-01,6.737429843281567132e-01,-4.716335035585715318e-01
5.453781357800504548e-01,-3.287391022702994547e-01,7.643473420661841544e-01
1.685177860592176058e-01,7.818922880545102760e-01,-5.816896092850224464e-01
-7.553848240708566086e-01,3.073610038744007400e-01,-5.869396438361423884e-01
9.575790892525806175e-01,-8.168559064785414769e-02,-3.070000336303168043e-01
7.067379195225946542e-02,-9.220653712191736462e-01,3.888835294104018292e-01
-7.704840637813685778e-01,-5.418106975145079579e-02,6.249360955537294204e-01
9.073987037353224983e-01,2.739905448171476854e-01,3.133247290312534683e-01
3.513569663280965427e-01,3.463430535102783869e-01,8.649297901966304103e-01
1.608620577950205799e-01,8.429450978112823512e-01,4.926943909073117078e-01
-2.138596560188246454e-01,-8.597381613329427852e-01,-4.548205086574152456e-01
4.076875752566247457e-01,-5.751082318437110708e-01,7.081011155056001760e-01
3.587652632992353596e-01,-9.168179994139818989e-01,-2.208733757558198341e-01
7.407622653584028383e-01,-3.973096714893221137e-01,5.458192949307035802e-01
3.140811656327485712e-01,-6.244315148138432914e-01,7.115101790803399773e-01
1.952647529136657956e-01,4.684671529131646528e-01,8.563117677586611354e-01
6.990769636837540491e-01,-2.291607033834011098e-01,-6.796442979834956821e-01
3.425521473925512150e-02,9.468273718556046159e-01,3.041552687178572523e-01
5.598179946778687466e-01,6.942010196510867148e-01,-4.955679065881687384e-01
-4.025311280176530060e-02,9.953222117876275865e-01,8.674540255599209881e-02
4.904703743751994138e-01,7.119692322213972968e-01,5.055728831889194641e-01
8.569123567254458562e-01,-5.095242812597420290e-01,-2.882930089400624618e-03
3.858084670242995506e-01,-8.694812684188635288e-01,-3.211949442877506389e-01
8.918715590580754693e-01,1.871131378473291779e-02,-4.533194430185548685e-01
3.682442827728487078e-01,8.930037226159313057e-01,-2.388384674582630929e-01
-1.177247440187691591e-01,-7.627340196944734085e-01,-6.197313744604532326e-01
6.099404856458792157e-01,6.265948447866781512e-01,-4.948553580359558168e-01
6.214403667629845307e-01,-7.617386812430606557e-01,1.834185762819020571e-01
-1.308051836583934147e-01,5.772478660119420013e-01,-8.449664297125364376e-01
6.028314232045562937e-01,7.362399179468334109e-01,3.627195280808294675e-01
-8.860217552901085147e-01,-2.474924663759878740e-01,3.946316371589423944e-01
-6.885211858726136835e-01,1.049755702955708914e-01,7.415554966804035475e-01
-5.832142356277481010e-01,-5.221963684254213867e-01,5.890053961193238985e-01
9.319945969236158589e-01,1.562881069478250784e-01,-2.772757324468769213e-01
-5.751581544396069390e-01,-7.383085243372475848e-01,3.164815528693051272e-01
9.483624833468623505e-01,-1.225613959545775872e-01,-2.345803211478553474e-01
-5.102741113841975373e-01,-3.138753019469368577e-01,8.036988227196310008e-01
7.582769024485981335e-01,-4.817068159468348987e-01,4.433659258197094055e-01
-3.640305348590433792e-03,8.026972801287896031e-01,5.987403069819714485e-01
1.235675082860009967e-02,7.070961907379901268e-01,7.238402721691716835e-01
1.427096606791672384e-01,-3.501377079550716670e-02,-9.707235356042992480e-01
-1.638000686756730107e-01,5.904706963648719276e-01,7.995983471814217536e-01
-1.008750999307982843e+00,-1.119025685411312726e-01,-1.794936601607008755e-02
1.560459568822692433e-01,9.765505437500560104e-01,1.538383247866703940e-01
-5.074813319863417105e-01,-5.171878344519315052e-01,-7.025264079673421147e-01
-2.552519256950477877e-01,-4.110393763194091776e-01,8.750523035489790047e-01
-7.770976967555975889e-01,3.379469942281811568e-03,6.410242823340270846e-01
-5.549245793145345385e-01,-8.246828527601247627e-01,-1.479919076904091524e-01
5.999864681704718539e-01,-6.087752891079160067e-01,-5.061973584583914221e-01
5.526431814225973849e-01,-1.161575140251135535e-01,8.233080700790338380e-01
-7.530425412596324086e-02,-3.214570741036995583e-01,9.480266629689996227e-01
-5.412850644205564610e-01,-8.296242542341253356e-01,-2.469061243513203177e-02
-9.665651814982825218e-01,2.806190162238993424e-01,8.596363095935505294e-02
8.083562564442715592e-01,5.785741460642506162e-01,1.224666030238078518e-01
-9.487122550169940771e-01,2.951871407381014834e-01,-1.375036978852676173e-01
-7.358078008425891214e-01,-1.125169244890394937e-01,6.681454492369395259e-01
-7.289317196891238471e-01,-4.878612804553728033e-01,-4.803590534589381456e-01
5.830398915902978985e-01,-8.170054321279248688e-01,4.553201392418883969e-02
-1.394292223474548065e-01,-9.874542071370742136e-01,-1.258326544444767197e-03
1.489825360905968898e-01,-5.077619332154205134e-01,-8.539476641549398339e-01
3.291748071545849141e-01,-4.434474084198063992e-01,-8.466441114846822158e-01
-4.971997035521373842e-01,-8.494261034697645485e-01,1.691753761315850924e-01
-5.698391532635382895e-01,5.125488638706484634e-01,-6.441118588821086455e-01
9.691674775833095667e-01,-1.580091394802081994e-01,1.371710000150345166e-01
-6.691477058594713645e-01,4.020044990117482286e-01,6.396075820732854966e-01
7.045750829369088475e-01,-8.258553141258780789e-03,7.165593265895487951e-01
-4.887123977527508822e-01,-7.744503499003474456e-01,4.093517497045753295e-01
-5.067629194650906665e-01,-8.239440397618060796e-01,-2.409957081041692317e-01
9.317889432004116124e-01,9.980733940011954353e-02,3.419606093111103862e-01
-8.424020967291921957e-01,-1.181466391603203520e-01,-5.842571881993137151e-01
-3.511314066315195381e-01,5.385407564895234866e-01,-7.827830591137755478e-01
2.766955742278230934e-01,-9.638166533721957974e-01,1.943480711279999560e-03
-6.997160040457400809e-02,-1.109374033382391073e-01,9.734895375733150225e-01
3.842901224398966309e-01,-7.649746240918120499e-01,-5.379297710640760233e-01
3.787187474691623007e-02,7.287232514518258153e-01,-6.670002525193901022e-01
3.097692410543113062e-01,9.279527648674941176e-01,2.256690897111813532e-01
-9.296579515571967711e-01,-3.503635481317720068e-01,-1.365743406864763643e-01
-8.716430145436453447e-01,-3.422930441666547918e-01,-3.542366258555486036e-01
1.346215055224985746e-01,-7.146914787671165836e-01,-6.863686778080777540e-01
-3.483427118134033718e-01,-8.847307935943442558e-01,2.873541965831896139e-01
-1.894583651493563503e-01,5.990230516058635546e-01,7.855725862168675411e-01
1.301439495083667186e-01,-8.874742467800930124e-01,4.516850589106044533e-01
-1.415268202582933565e-01,-6.594469722143382617e-02,-9.854289815811826392e-01
-4.039527525267689323e-01,-7.479336156843089389e-01,-5.345141756923756926e-01
4.879946732596772141e-01,4.280641777880299093e-01,7.838517681124365089e-01
-7.170683340870585010e-01,-6.268897710868089890e-01,3.495000662065026464e-01
3.867703381627072834e-01,7.419742720092816768e-01,-5.404600925517502041e-01
5.080286078645346315e-01,7.026608969987970799e-01,4.509975458746516841e-01
3.452757709437735412e-01,8.238207763187059829e-01,-4.530270359735474317e-01
9.018992796066183093e-01,-1.319949215031172296e-01,4.240886980510675808e-01
9.191484020415703615e-02,9.500208921052932798e-01,3.016816935997985727e-01
3.517712684569663378e-02,-4.632619323723481397e-01,8.859928708025046618e-01
