6.357807494888343403e-01,-4.992115868795042877e-01,-1.242026521069755640e-02
5.954220805936530914e-01,-7.523662068545444725e-01,8.794461665420216789e-02
-7.808439130376471082e-01,4.065249905586456047e-01,-1.424095499632571094e-01
-4.540629835677092996e-01,6.048951009888934305e-01,-2.828141494066419015e-01
-3.975935142603833072e-01,-2.630255386238150028e-01,9.290935074533176463e-01
1.909464215153039435e-01,6.670391939460310615e-01,-9.598094498270745012e-01
-9.668644419779369725e-01,1.331513146482126153e-01,2.481732257473795444e-01
5.266897570835066267e-01,6.333765021903987880e-02,-5.972870872985330815e-01
8.749341553818744399e-02,-7.711670562143445595e-01,9.108004738799576616e-01
7.478750408670693517e-01,-3.033932071501336258e-01,-1.173222384700841198e-01
-2.832957542855842337e-01,-6.944685845676059621e-01,9.153416084713482670e-01
-7.590211494161913652e-01,2.204600164849531418e-01,6.653132024937561395e-01
1.008854945974155592e+00,-4.072807675704180445e-03,-4.332571102441883926e-01
7.930977573503913414e-01,3.010308196767948474e-01,-8.100591860202465133e-01
5.826756062999094432e-01,-5.296179436608536850e-01,4.600240666151672597e-01
-7.377782296025612307e-01,1.833402622731027387e-01,2.758047745210545076e-01
-4.535767075924218017e-01,-5.477041297124330965e-01,9.747515371097450476e-01
9.029256918513735020e-01,1.674826660628465913e-01,-5.344512576421674988e-01
-4.177035028015784190e-01,9.380961558590535931e-01,-5.592489930162297673e-01
6.875964709696825716e-01,-1.098372817064445506e-01,-4.020953116877459821e-01
2.501144751649373998e-01,4.759296358440027741e-01,-1.003262830216213652e+00
-5.387042088170138771e-02,-4.984994428159045254e-01,9.127187682502753141e-01
-2.750250727378114046e-01,-7.247387377474238113e-01,8.941867944959699388e-01
-5.465437869917920688e-01,-4.941466901138744788e-02,6.886398063693454086e-01
3.247465315940687991e-01,4.418295210020267705e-01,-9.984437577400916419e-01
-1.078285163664044699e+00,2.085691824987315757e-01,3.861831870553256163e-01
6.026679875872255066e-01,-6.338172868127761594e-01,6.054648359383840717e-01
-3.566366309550091929e-01,5.431867402937944345e-01,-5.831737970978811969e-01
3.664236941051049468e-01,6.900492729786557033e-01,-8.416906392980416651e-01
-9.814090887003359409e-01,6.644132911993425594e-01,7.680491657644075709e-02
-2.553745178800185256e-01,8.067917631805541223e-01,-8.231699664715201870e-01
-1.226682840611216657e-01,6.334545201326871045e-01,-9.253739010353201344e-01
1.047876894238091383e+00,-3.329065171909316168e-01,-4.672884250108325088e-01
9.340859254960776070e-01,-5.311545763338180182e-01,-3.502384009863107051e-01
-1.335776505753560328e-01,5.286769882932806919e-01,-6.353361776435321184e-01
6.784616037457362747e-01,-1.770159751302561590e-01,-6.382750062343696129e-01
-1.808607284783873836e-02,5.964148369638317959e-01,-5.285065159264830115e-01
8.948571798910944786e-01,-5.482177648575669027e-01,2.481877034600458443e-01
9.331943642673874439e-01,-2.038870372115032525e-01,-1.260996501796133040e-01
9.965322827843005049e-01,1.898880687202645842e-02,-4.837645427445718682e-01
-4.460116572806998025e-01,-2.421188110619567901e-01,6.486916544315532995e-01
9.250874870342022938e-01,-6.526517145392225494e-01,-2.050277035247890789e-01
1.456932144677863805e-01,-6.607677709413574130e-01,4.850393653340965838e-01
-4.368619773808150586e-01,-4.791371666885060332e-01,6.151720408457056477e-01
-3.188392443496029793e-01,8.899264774883256512e-01,-4.122747588746438763e-01
2.922767941644497519e-02,8.790966800023896077e-01,-7.424129443956318797e-01
7.403613722498633143e-01,-4.026382598572127436e-01,7.513063455932000867e-02
-7.627375139028178541e-01,6.556202415455146815e-01,-4.750334923324059933e-01
-4.297052963885310550e-01,5.485937608399047427e-01,-5.795952044135589398e-01
-7.492180709508269310e-01,3.101297457239952232e-02,8.383665761801369909e-01
9.558513955989423883e-01,-2.414144415233896446e-01,-1.082561374437057133e-01
-5.614181138694369633e-01,-1.867857796817618821e-01,5.384215584529462584e-01
6.667179751557668066e-01,-6.138142272956087497e-01,5.456459048583928162e-01
-7.404298465159981912e-01,-3.455157359969514008e-01,6.137733996963280481e-01
-4.787526233908112050e-01,9.649506626585971913e-01,-4.864593848799328990e-01
5.822832404158594377e-01,-7.007598825034229151e-01,7.310163566141870961e-02
-2.797654695373602007e-01,-3.658018411874692788e-01,9.698301403222718831e-01
3.067475154784987668e-01,5.493210975567804910e-01,-6.091609666839403747e-01
-4.308960564068774479e-01,-1.716925916155543907e-01,8.224574399675986802e-01
-8.597979153863772872e-01,7.499788590616421891e-01,-3.251612357268603981e-01
1.608497001133855353e-01,3.652969075420415268e-01,-7.854040582617363153e-01
-3.512543441306315573e-01,-6.781520498629484139e-01,9.175632322638594962e-01
6.467983665625104406e-01,-4.976556093111946799e-01,-4.814416452388830397e-02
9.317750087747886378e-02,4.208958616939239006e-01,-7.237492282381566833e-01
-1.016846564005404296e+00,4.581990800212988324e-01,-1.896870691313453858e-02
-3.814106458873092187e-01,-6.991630633576813025e-01,7.623815288906453658e-01
2.256297579097245043e-01,-5.214456132678365607e-01,6.654738053033333323e-01
-1.064719476897780348e+00,1.264242365498829956e-01,4.628532299364120361e-01
-5.830533436864269170e-01,7.418700802973013930e-01,-6.383115088513028335e-01
9.222108662575049243e-01,-1.147777332112521337e-01,-2.616368512774813193e-01
8.205485793228215474e-01,1.541689359592839093e-01,-8.564847777101514126e-01
-9.878753962261328514e-01,4.681170597648557918e-01,4.415559046799057974e-01
6.638255934196154451e-01,8.939998996349214633e-02,-8.823132467578645999e-01
-3.822939272495572971e-01,-3.848472727948727967e-01,1.007422322545178384e+00
1.026619465916482232e+00,-5.105416740219234084e-01,-3.258259285460591292e-01
-4.408734288535283707e-01,8.853465485194458306e-01,-6.865858539615007361e-01
6.349197394172001463e-01,-3.454927735028023167e-02,-4.997462691663043244e-01
-2.094451975940236077e-01,6.579228294918290088e-01,-4.464222600228278659e-01
3.027436944301427624e-01,3.371029974660436079e-01,-9.648777674419267703e-01
4.421355456109739568e-01,1.757505860092181127e-01,-6.510806734600561585e-01
6.400425495199204562e-01,-4.778333250375763064e-01,-5.796969365274482616e-02
1.018453746459556108e-01,4.905813871513513003e-01,-6.464027614236240726e-01
3.868182284279678140e-01,2.163843943361332678e-01,-8.567623312881671449e-01
7.400373495309955363e-01,9.834908687786252102e-02,-4.426125725561101398e-01
1.998356889142546833e-01,5.355548290707591308e-01,-1.003254022807177348e+00
6.660771324890376599e-01,-4.697986758188258949e-01,-2.392401701130559763e-02
5.830012687783261427e-01,2.541593628304694152e-01,-9.489476870821224042e-01
8.176748843275210010e-01,-4.927864652436483861e-01,-4.069631874108101122e-01
7.018960859138287933e-01,-4.077282302021806859e-01,-1.476035978302701890e-01
-3.212041950806668322e-01,-6.057920421384886955e-01,6.495085681080356999e-01
6.782056630578561229e-01,-7.351427756858918139e-01,5.595891925153811952e-01
-3.014600832771067163e-01,5.853761847286490516e-01,-7.868651276253039173e-01
-4.073723609389561795e-01,5.479127552754038399e-01,-5.820182438554518667e-01
3.076181041257784465e-01,-9.518474219736752229e-01,5.958714749360540797e-01
-7.857131238599891487e-01,6.580880957221066918e-01,-4.340508422162638880e-01
6.128477658672412121e-01,-9.212032654900326190e-01,4.542794772157167649e-01
9.393104155982875403e-01,-3.138711438695645506e-01,-6.073925279847290915e-01
-4.018247024519035482e-01,8.393598414360554649e-01,-7.019411795412189292e-01
-8.881175541030680298e-01,-9.513174648647331269e-03,7.827024783303178079e-01
1.008153331457992463e+00,-5.592513488149174483e-01,8.949160644441070400e-02
-1.826591330667266810e-02,8.637450096337182526e-01,-7.943696873469998643e-01
6.502103405050608798e-01,4.540244760809921121e-01,-6.740905592845198857e-01
7.508756973602072060e-01,3.627764813182229320e-01,-8.583390759162916606e-01
6.540413913056843942e-01,4.976955626058854887e-01,-7.046695698157487975e-01
6.861332663307201374e-01,-5.145957368269532539e-01,4.059005889755745167e-01
8.674491423767277665e-01,-2.594048715780723491e-01,-8.499594023456469305e-02
-5.772758505183734901e-01,-5.418466679631978034e-01,6.822110384637876113e-01
3.940362457827271681e-01,6.691365630034730172e-01,-8.876666782793726229e-01
1.050411501959433780e+00,-2.571934264090771638e-01,-2.609192339586620113e-01
6.123050714837739994e-01,-5.654937789262425019e-02,-6.727325505827376206e-01
7.228450218909444613e-01,3.191682840735204363e-01,-5.780258017494501743e-01
-7.025770554438213189e-01,6.550569265209461589e-01,1.387732464609659766e-01
-6.102721841892244647e-01,9.146850707117337720e-01,-3.420904201135772649e-01
7.138459518035197293e-01,-3.317932142531042072e-01,-1.273738285245311908e-01
2.320125450987783888e-01,-7.972584932032964478e-01,8.492985928738177037e-01
-7.663340211808342683e-01,1.892228780054567780e-02,3.441983656657723323e-01
-4.873356988027113812e-01,-1.536400522466073448e-01,6.171394919433209614e-01
6.423563804966609947e-01,-4.768867410314840405e-01,-9.243157426218071016e-02
2.957487865805609739e-01,4.331970208223364094e-01,-6.102280851847411425e-01
-1.078451978258626598e+00,2.904150884732513704e-01,4.022228159019596849e-01
-3.557707381506016175e-01,-5.336040915697566334e-01,6.165949892695489210e-01
1.019605089041732970e+00,8.006336499629007619e-03,-5.163433781665073274e-01
-6.877608997527481782e-02,4.823248138430876741e-01,-7.857055256299488866e-01
7.884382061489877414e-01,-3.851531876071307980e-01,5.720132609088793285e-02
-4.899653651605033744e-01,-5.215656914950853595e-01,9.811854663353817285e-01
-5.108328196245301989e-01,6.407327902692657728e-01,-6.688093770658002368e-01
5.199156886392360954e-01,5.967079216086387250e-01,-8.811585602523697158e-01
1.076017236100736296e+00,-2.348859107684118097e-01,-4.704495120802421049e-01
-6.965949122040858699e-01,6.027778516368250683e-01,-4.647148890417185374e-01
6.771217341837056924e-01,-4.878193552675431088e-01,-1.232427232965051106e-01
5.208921386131953879e-01,-6.382888344551852500e-01,1.587494957558969466e-01
4.076641248970708231e-01,-6.945779618838433533e-01,2.808355091273666004e-01
4.881860320477899307e-01,1.626562925774788226e-01,-8.735155796659205274e-01
-2.419176980572178282e-01,7.020198858379598228e-01,-4.297526946551683547e-01
4.793767730527578874e-01,5.742241568220184389e-01,-9.449600775824498200e-01
9.580068879952121641e-01,-4.851590510875261053e-01,-4.083005979202198321e-01
3.554129226144256415e-01,-5.871023203935702428e-01,7.001024297759016468e-01
3.791631012321876049e-01,3.059062695710306756e-01,-6.388364649391454764e-01
-5.752321280314473539e-02,8.748535315122086820e-01,-8.192182084711809864e-01
4.455446238245695523e-01,2.327404823631580855e-01,-6.098264832270602342e-01
-5.049301511582978685e-01,7.199220739083216358e-01,-1.698372525065753313e-01
-7.980806350388061077e-01,5.307410450087106657e-01,3.172999951233194671e-01
7.306751670826033829e-01,-6.075291788756964628e-01,4.461995304300619414e-01
6.117338697008841697e-01,-6.352603408681176678e-01,5.761547052558122495e-01
9.345280956854113974e-01,-3.721847943759801214e-01,-5.174757062078184644e-01
-7.392165586105400310e-01,2.600680655772932837e-01,5.467440456681776917e-01
-1.099827366307009890e-01,-4.654574747880549368e-01,9.269688303399676865e-01
-4.196621172100535868e-01,5.343850285996035732e-01,-5.015088414778952064e-01
-6.785926948510396794e-01,8.019438094709823162e-01,-4.985679878278458099e-02
6.475128216891484767e-01,-1.330719190709397926e-01,-6.452626519766643254e-01
1.085636897127393752e+00,-4.185026920216988744e-01,-1.576057892133323479e-01
3.051292351138388814e-01,2.878871601492424270e-01,-9.139187894146874047e-01
-4.892655343855040750e-01,-2.237062240701339355e-01,9.406294751215836802e-01
-8.957219656905472671e-02,-7.790994882015792600e-01,8.993981351258588663e-01
-5.586356856665734005e-01,6.777726913030047706e-01,-8.325705914389364137e-02
2.054575800646136347e-02,-5.323957896628417341e-01,5.779248403047476668e-01
1.332946800669519705e-01,-6.874835398382204144e-01,4.809385184489702314e-01
-2.935342601868264900e-01,-4.069415684974037051e-01,9.740295429193795984e-01
-6.267204666798676937e-01,8.237537669789112282e-01,-5.668813284210021397e-01
-2.644985187253134362e-01,9.306659385648049509e-01,-6.473870410327462466e-01
7.842408813061156891e-01,-4.222181237486337668e-01,1.564969809518541310e-01
-6.833417989500183420e-01,3.975166960573929820e-01,2.817663702456067454e-01
7.318143860548397273e-01,-2.603341892753206488e-01,-1.805319117954043984e-01
5.244861016323292269e-01,-7.042475459868393628e-01,1.437372665157184981e-01
-9.381562357388085749e-01,-1.631923514407309928e-01,6.539488394108907698e-01
-9.568365602522742597e-01,2.983025674016279161e-01,6.175670316599660703e-01
-6.535137484625210824e-01,2.047060845908442728e-01,4.575416999375903071e-01
7.806708902031739283e-01,-1.566842097685238466e-01,-2.621347666806048138e-01
7.964576026950517251e-01,2.571614134596642010e-01,-8.793799077077032456e-01
-1.128525185720414825e-01,6.935583776162725922e-01,-9.350119020858267405e-01
9.526833570345417668e-01,-7.046039747039706258e-01,1.667777399691903473e-01
5.244469478370398230e-01,1.369730246196854684e-01,-5.944292359881340193e-01
7.113371778396549994e-01,-4.426341469015722119e-01,1.311603611799705693e-01
-6.716017764001334100e-01,4.301078113977181427e-01,1.349644967770712856e-01
-6.876758573748188441e-01,4.117418274824889424e-01,-7.539380124168318029e-03
-4.167395777171177818e-01,-3.598819173933764937e-01,6.229807734424047672e-01
1.077998444995742489e+00,-4.286905061862583688e-01,-3.381280006239311686e-01
1.053976543869159066e+00,-2.583360210411482227e-01,-1.843017919306770835e-01
8.464968404236770105e-01,1.995189013291367164e-01,-8.000582313860739037e-01
4.745188170100440028e-01,-9.399712020234063381e-01,5.879092155103976536e-01
-4.643750294958269298e-01,5.446144698294589359e-01,-4.387872199847427379e-01
5.878446638994389017e-01,1.966791278411333665e-01,-5.349839694643513388e-01
6.999049734644269272e-01,-1.734450347546213633e-01,-6.355287163623937197e-01
-1.097003709226564760e+00,3.301668499038109550e-01,2.531797289301821463e-01
-5.676196335023560025e-01,-3.150159360784747231e-01,9.666476109708379560e-01
-4.430383873744307421e-01,8.794905700188209163e-01,-3.119530326056581537e-01
7.094936167637468927e-01,-8.787261374602179931e-01,3.580237939689483451e-01
6.379243478390446143e-01,-8.609056159489579807e-01,1.650956580595241696e-01
-1.099382383586039319e-01,-7.798311478485253634e-01,9.033574459720696836e-01
-7.351780970490136013e-01,1.863365047072429170e-01,2.467439449726193390e-01
2.634476314338049519e-01,-7.191752452233955983e-01,3.722322267158285625e-01
1.281954732315772894e-01,7.421157910635275412e-01,-6.028892488151513795e-01
1.553269665161473856e-01,-7.705876874081338812e-01,8.774582861364285113e-01
1.386539079794252560e-01,-8.009039321567440473e-01,4.887977918433983326e-01
-7.179831835336955015e-01,8.753581221731191464e-01,-4.039281962846199558e-01
-6.520452566680827733e-01,-1.887596052041372874e-01,5.030541871471987392e-01
-1.375407244678575336e-01,5.518910485455446047e-01,-8.423243580295767252e-01
2.432387985736245983e-01,3.458997113011728630e-01,-6.852514402353235834e-01
1.036759293291451778e+00,-8.273970295862004276e-02,-5.313181738016399258e-01
-4.352569699955859406e-01,-4.146595652579753710e-01,1.000637791421664202e+00
-7.433268523933687089e-01,2.986824310671833960e-01,1.269818782769484566e-01
-9.352432131734184084e-01,6.077034136843582901e-02,2.934784439950445800e-01
-3.849009055545721814e-01,9.215004307255070248e-01,-4.420106903086369887e-01
1.007695833909492578e+00,-5.695345531109171633e-01,-2.448131934923882813e-01
8.832739311650219527e-01,1.967283532088892062e-01,-5.302035670339932949e-01
5.812536793072059504e-01,4.249735604789120491e-01,-6.131834631231423138e-01
8.891246008017163194e-02,-5.325530225481239777e-01,6.382699508446877390e-01
4.084000981439016298e-02,-4.765662751301122935e-01,7.305555107736412257e-01
-8.067682237768147857e-01,1.879699503846446740e-01,1.824359440586354741e-01
-4.371933230294737793e-01,9.194756164147046551e-01,-6.397067402659202262e-01
-6.028973712401464180e-01,-1.175868822341851333e-01,5.166949831226108625e-01
-9.887868812501515725e-01,6.664251250060718723e-01,2.519849763138163473e-02
-1.074471227821428149e-01,-5.888418521990399501e-01,5.747202671066582447e-01
-7.826830205052485168e-01,6.095596045410526242e-01,-4.014194185810314175e-01
7.343317176568131543e-01,-3.846526826585697223e-01,7.805142246413414309e-02
1.049709971873983516e+00,-2.659331749373715081e-01,-5.721070690055360952e-01
8.041822458698910658e-02,-4.852955446579659826e-01,7.850942550451642798e-01
3.043848518893412791e-01,3.769897989702683527e-01,-6.345336562867043284e-01
1.287728048373978362e-01,-5.004204480945000366e-01,7.672766318934876040e-01
8.192040286297812557e-01,1.772958970866425343e-01,-8.438913635310327788e-01
-1.029366131909582149e+00,3.874713155352239036e-01,4.499834207009999476e-01
-8.564220492496995574e-01,-1.329474088390898978e-01,4.609238176732757264e-01
6.886845456984719283e-02,-8.712701290017806910e-01,5.977254153207602894e-01
1.997894560047840939e-01,-5.571413795052652107e-01,5.799036531095904667e-01
9.828852179339835349e-01,-3.737149608004860513e-01,1.187793035253890614e-02
-1.507985325081965255e-01,-4.373426480044069198e-01,6.512998975817394509e-01
6.427651940865984903e-01,-8.807753201117789477e-01,2.326547530311129930e-01
4.277240582331526819e-01,3.885416637237800730e-01,-5.940141664231760599e-01
8.618472302952709940e-01,-1.146106913351787188e-01,-2.375989958834086868e-01
-7.804372872763474245e-01,7.648893394587670258e-01,4.309781789188649875e-02
1.464051486037177274e-01,-7.223395843866764476e-01,9.061927760065950910e-01
-6.088743123668118873e-01,-2.761447389056956858e-01,5.662620443250286906e-01
-5.255330055864119165e-01,5.889546767661569815e-01,-1.777886830104243310e-01
-7.220211217679193272e-01,8.786710370731909414e-01,-2.646659544287669474e-01
9.839935379204520771e-01,-1.573725526094746086e-01,-2.310640549414055278e-01
8.678697401709127845e-01,2.383561303395311248e-01,-6.245980578186172139e-01
3.122605823523964541e-01,7.118470984405073088e-01,-8.781516272861690231e-01
2.799681957177039826e-01,7.282381082185995780e-01,-9.026984633055074037e-01
-8.211217382453964708e-01,3.214726583669204607e-01,3.180635754670287779e-02
6.945260155463688356e-01,-3.388571972381981823e-01,-3.999094412554956568e-01
3.877073596929354604e-01,4.749234291009648556e-01,-6.025030094441378159e-01
-8.350093072025132068e-01,1.454172923672520171e-02,3.379314662371484257e-01
-8.447140345623038726e-01,5.139590111202074763e-01,3.704401491349223474e-01
6.410020518350926233e-01,-4.909895753875704871e-01,3.109195512732225442e-02
5.295328991848459177e-01,2.080004556128416393e-01,-9.548761038699803416e-01
8.501848749954041828e-01,-2.240892030086997500e-01,-6.841705511214438706e-01
-7.245748158024821750e-01,8.628758857096584522e-01,-1.874313914572432183e-01
7.689622451813781234e-01,3.577555280471022003e-01,-8.565546454102326290e-01
3.250611241752573988e-02,8.327231791894649238e-01,-6.245070063836056784e-01
4.294004183467839408e-01,1.708144584419792333e-01,-6.794242184055844236e-01
8.873569096899187603e-01,-8.513819012033319381e-03,-3.327084571323489226e-01
3.269590930960117325e-01,-6.975101165175814355e-01,8.266718076952577210e-01
-5.187894232979340936e-01,-5.950939159239290177e-01,8.762479685786861427e-01
3.666563571293189883e-01,-5.754607099212367682e-01,4.101716055047789355e-01
3.096223943808691925e-01,-8.270356055491207004e-01,8.357973294264939845e-01
-1.828251915304228703e-01,6.793602922235409958e-01,-4.471165706977776599e-01
6.986114260311315771e-01,-1.837621727906957880e-01,-3.207108676754055754e-01
7.060739538509334112e-01,-3.129379736731644490e-01,-2.402438666144984247e-01
-1.653375025787755526e-01,9.141957957206369167e-01,-5.901500476999097522e-01
7.404901319228236467e-01,-2.866289415487958125e-01,-1.756273503602880370e-01
-2.110323003681168486e-01,-7.481237098880619829e-01,9.008518977803300354e-01
-9.492068695051791849e-01,5.715231687961480622e-01,-1.976729894814480137e-01
6.140696457952509180e-01,-6.592261525910773079e-01,5.749652588569931222e-01
-5.846140063146026966e-01,7.137557596093054846e-01,-5.155205890936936236e-02
-6.296244274983996414e-01,9.888614517672462967e-02,6.158037070025806914e-01
1.819072460515570033e-01,8.091257052826354990e-01,-7.238743497469064536e-01
7.031761454847124115e-01,-2.805792458967433234e-01,-2.300472592067807354e-01
4.249640803181745086e-01,-5.385184987745101903e-01,4.935518614693201189e-01
-1.917537850353182582e-01,7.519047113949046679e-01,-4.382465180971666374e-01
-8.453102564528975904e-01,3.987750832511071097e-01,5.523589159035240392e-01
-4.363729827998852340e-01,-1.657016712651032397e-01,8.012210818068054019e-01
-1.155591567780661459e-02,8.607143487227384426e-01,-7.769594597965733263e-01
-6.484963676135975519e-02,8.210858863975362132e-01,-5.459241536034644682e-01
-3.810490114903392622e-01,7.828000160954404762e-01,-3.238913835858128198e-01
-3.493146104063321600e-01,7.364434013495505527e-01,-7.942486018698490247e-01
9.489362831886523075e-01,-5.556153310885050267e-01,-3.363184645863167010e-01
4.547577146542413629e-01,4.768705491405769159e-01,-6.136510904476546457e-01
-9.006010850830197256e-01,1.625208712211788087e-01,7.020774127655813324e-01
9.610613023664707488e-02,4.662586031824164645e-01,-6.626058427869796486e-01
8.260181683502675343e-01,-4.600955554883048304e-01,-4.389776477645648267e-01
1.274728378442584464e-01,4.952167732650817333e-01,-6.117693849883953927e-01
-6.491312974207325004e-01,9.220665736197565243e-01,-3.436875067168057019e-01
4.042662627809345266e-01,5.075450112291119975e-01,-6.224835421214819364e-01
6.660028570740147424e-01,-5.739085206465687206e-01,4.940357340088292193e-01
3.983811729154006220e-02,-7.412671805709013517e-01,5.226107440575931129e-01
-8.590255248621192496e-01,2.239349602117367971e-02,8.028665534762238210e-01
-3.418569981292671756e-01,-5.441076433305330751e-01,1.000791358495467298e+00
-6.106307219206985604e-01,4.965218494934282162e-02,6.992784680798713737e-01
4.926969951931423758e-02,-4.692503975739917843e-01,8.043095840422512799e-01
7.817094963415545106e-01,-3.337606744939625170e-01,-5.850363365687658718e-02
7.736477897149933725e-01,-9.654867158493601886e-02,-7.764560875158444953e-01
-6.614258751597665853e-01,1.698588553719723448e-01,4.639118390993996477e-01
7.384912840391849587e-01,-8.432989781818893693e-01,4.541150666140394976e-01
2.950143667756714438e-01,7.316065980770902755e-01,-7.270076491766256366e-01
1.553924974641802959e-01,3.956436830341356625e-01,-8.753291799993424549e-01
6.199718129947636713e-01,-5.216208832116437932e-01,3.754073647651185452e-01
-5.520134627140284023e-01,-3.143763609544554805e-01,5.608013413351101706e-01
-5.603765803593158124e-01,-5.204497739760862718e-01,9.005923023914597092e-01
-3.519991819416314893e-01,6.223882270989927745e-01,-3.627844894400222842e-01
-1.040396672257758448e+00,5.146665301907059620e-01,-3.148652869605625404e-02
3.965420082165769244e-01,-7.802430381945313353e-01,2.765144088106338272e-01
6.088295643594959783e-01,-5.125520116333082132e-01,4.184727935948835409e-01
6.271845693698787638e-01,-5.177616173605932293e-01,3.347123186633266800e-01
7.100988039473070668e-01,-3.605848205225413161e-01,-3.850039395690340038e-01
-9.157614191608813847e-01,2.555832302348289842e-01,3.957870524643276183e-02
6.154206916989209963e-01,-5.968059050562930512e-01,5.321136590428011681e-01
-9.222397844164523795e-01,-1.368329192560296115e-01,5.254122036013270103e-01
1.019993729153592987e+00,-4.581300811877990209e-01,6.217092636031067154e-02
-2.827638060255687202e-01,-7.280338690620907771e-01,8.954255559187994651e-01
2.809737543628971768e-01,3.020400238957082761e-01,-7.416279513149739433e-01
-6.829629866525289694e-01,4.478104890572607300e-01,2.183291669079584496e-01
1.099203203630837677e+00,-3.921000395277162709e-01,-2.750717239325779495e-01
-1.043524212873910395e+00,5.045230247057109763e-01,3.109303485188087413e-01
5.711662479268035941e-01,-6.233282464662617262e-01,5.996985609056262323e-01
8.408938269069813343e-01,-8.232294110502862416e-01,2.712515578638077796e-01
8.959208825588881042e-02,5.348615624380654854e-01,-9.737723178606884078e-01
-4.762087776903783931e-01,7.112651483120924212e-01,-1.968458030105350587e-01
1.089384977714571656e+00,-3.722273329175753154e-01,-1.808655904952901905e-01
8.205378709506945256e-01,-5.015153733197604824e-01,2.910018039264974932e-01
-6.896845771429917747e-03,-8.721790257634685073e-01,7.633410096674699830e-01
-3.043236768400929826e-01,-4.487222111726819063e-01,6.086805939050244918e-01
-3.465099029857815482e-01,-3.381497352051060501e-01,6.298619851880670195e-01
-6.855772776087089015e-01,1.075374389770006461e-01,7.163152189909924861e-01
9.636674605933237547e-01,1.383922145420460603e-01,-5.736932389735667215e-01
6.966212632643434821e-01,4.586480871453475494e-01,-7.408647847646999685e-01
-8.084933123902114660e-02,8.543237951578643852e-01,-8.657119349817588017e-01
5.977934495491162847e-01,-9.026256927490674542e-01,5.232953799047211918e-01
8.775359430756691781e-01,-1.986252728017080249e-01,-1.383374722081918973e-01
8.711159152193902466e-01,-7.386088630796358023e-01,3.255388155061267330e-01
-1.084871443920978340e+00,2.954045556747031398e-01,3.969902469438237325e-01
1.623264266729003702e-01,-9.240870901566934359e-01,6.658250330198749456e-01
-2.846643756006393966e-01,5.238554082402822054e-01,-6.511590982102232195e-01
-9.836052245700060981e-01,7.280235056916398162e-02,3.286317564389740764e-01
-2.802931867826893297e-01,-7.362275592402195423e-01,8.552925710639442958e-01
-6.003280123174730143e-01,7.704636702030164264e-01,-1.169025602987612822e-01
1.292357372980582342e-01,4.543666852367448383e-01,-9.523472315102712304e-01
6.815235660408424101e-01,-7.940243630657357610e-01,4.666497113428483279e-02
-2.626754974748021776e-01,5.426987661551626596e-01,-7.255384180724467891e-01
-6.923593686842427486e-01,2.979825321731612298e-01,3.907766586124493124e-01
6.935758897939924283e-01,-1.732167647975246805e-01,-6.797014288912777147e-01
-4.850086990061536762e-01,-5.199021013424330873e-01,9.607022367666120388e-01
8.189733839047982356e-01,-4.289455620773707789e-01,1.604051296434212681e-01
1.553037275025980490e-01,-8.576089169976495175e-01,5.280001493897378273e-01
6.374517451734960094e-01,-6.100874225530888983e-01,-3.985855843508297885e-02
-2.823293512329087540e-01,8.113942345018726465e-01,-3.972857963826877392e-01
1.805949177383213977e-01,3.650054377973921405e-01,-8.189842944348353360e-01
6.965047488626989747e-01,-3.911710202613756793e-01,-8.334757574416143400e-02
1.085839851988116722e+00,-3.574477256912410583e-01,-3.048386681068647741e-01
-4.467559870415051537e-01,-6.281680495969544920e-01,9.134329617348659891e-01
-5.928820250273935111e-01,5.784861100755585017e-01,-5.069014595819809621e-01
8.264507982161936051e-01,-6.515448626339342963e-01,-2.307191315285298250e-01
1.022877823266053809e+00,-4.858381759573262015e-01,5.976104575727495677e-02
-6.211488196712489085e-01,7.353060423553920977e-01,-2.585067947497346127e-02
-9.620432997518014728e-01,-1.074517262319722444e-01,6.942511965806379415e-01
8.949237585633492698e-01,-1.956991189661859420e-01,-7.040290061280093381e-01
-2.608919009363272479e-01,5.735982024654437961e-01,-4.885829174796803009e-01
-9.734264927701935521e-01,6.408982316078493113e-01,2.139225051022431434e-01
-8.131651670143252852e-01,4.862245785455351355e-01,-2.666575800598543489e-01
6.214814306928190257e-01,-5.764264322380486805e-01,5.290503009967912895e-01
-7.579274335056384038e-01,3.660602146289450576e-01,6.341346894729774086e-03
-2.624023926642027327e-01,6.511601045831670875e-01,-4.326497208381578363e-01
3.271371626086265749e-01,2.503740605204995973e-01,-8.691530428681524256e-01
-4.417062286384511038e-01,-3.375079944356110251e-01,6.198947581076935665e-01
-7.358235086410270798e-01,3.335085385409875536e-01,7.801618687302001864e-02
9.900460060439377763e-01,-6.925521546667008366e-01,-5.532189992571044657e-02
-1.074243854386431662e+00,1.922510081744067678e-01,3.914901694286913592e-01
-6.638850665880255963e-01,4.617346165614804043e-01,1.445421546153401737e-01
-7.423979786084776711e-01,1.119229640336379950e-01,3.034750107874353287e-01
4.692937794431351617e-01,1.366394838700462355e-01,-8.228052459117534134e-01
7.518699851851935456e-01,2.698399643223688971e-01,-5.324237713842180364e-01
9.834960012804344620e-01,-4.872103541644713376e-01,-3.750578593985420262e-01
-2.487150968194292155e-01,-4.063029137794118562e-01,6.390780454846937131e-01
-7.751326076436008128e-01,-2.754451394224037841e-01,5.639620857244834751e-01
-5.234368250284704427e-01,-6.018575574100255843e-02,8.152514032926830856e-01
4.053906009493123408e-01,-7.107569815166780991e-01,2.877852466476155113e-01
-1.639795238322732662e-01,5.878793794666167249e-01,-8.595389805765606406e-01
7.130222056905873851e-01,1.409689569397462039e-01,-9.182170587080082935e-01
1.079845797611737046e+00,-5.144811845206164191e-01,-1.457768558390835634e-01
-9.744193085831869272e-01,6.911989186133791208e-01,7.351442340297950628e-02
-5.896843996226480700e-01,5.178460979837784528e-01,-2.182324585487903368e-01
-8.184233956859102710e-01,5.378340310053795342e-02,8.104783060009370654e-01
-9.609603643619670788e-01,3.154326854376792721e-01,4.950564025284560216e-02
-8.264018984799909040e-01,6.398181744024514783e-01,-3.737541510594508121e-01
4.302169460814335156e-01,-5.660994832556647260e-01,4.063596263491811578e-01
1.019970722787271855e+00,-2.867554511049543939e-02,-4.152449745882555998e-01
-2.289726356377481398e-01,-7.699004047188590105e-01,8.042652349935197620e-01
6.074410679074186969e-01,-4.231089209940251672e-02,-6.788668324421129885e-01
-7.287897186400476013e-01,-8.647426190474104268e-02,8.924586475776354888e-01
-6.843118995582142539e-01,2.125741930330648233e-01,4.356718465033184162e-01
3.520724670273271406e-01,3.329443130312058630e-01,-6.329377139724473578e-01
7.369467597077165033e-01,4.012940798770159301e-01,-7.022875294676855784e-01
8.179839097464868258e-01,7.985902618159844424e-02,-8.266845609831796615e-01
-6.748816781383402130e-01,-4.564686211871525345e-01,8.397891664403013268e-01
6.704892057186164767e-01,-2.093811712859202090e-01,-3.870561907279168046e-01
-1.023082433107368017e+00,5.699229038418870408e-01,-6.158544822287988219e-02
2.566223247344169289e-01,-7.363306024799345373e-01,8.413113932108277071e-01
8.616914328362096365e-01,-1.444656639051639657e-01,-2.248586926947907239e-01
-8.747090561501071893e-01,2.845610278941954063e-01,7.359589921584214212e-02
9.022064636994410192e-01,-7.808753484942004830e-01,2.293857990329573326e-01
8.164707256201139129e-01,-5.195082306556850216e-02,-3.124645192128030491e-01
1.323587673153157618e-01,7.976411622384713684e-01,-8.499253304300391498e-01
9.965770325567765431e-01,-1.771870266790408488e-01,-6.499035180188093008e-01
-8.485006711518364719e-01,3.438744387203076514e-01,-5.868272231010281809e-02
-7.411179322878113096e-01,5.648239538394920212e-01,-4.305228808119355710e-01
-6.752878082395926684e-01,4.498075504104112610e-01,9.291210779117686780e-02
-7.339370676559457962e-01,-2.343280116374719391e-01,9.194591809127122817e-01
-7.463454479524207485e-01,9.329399535334820248e-02,3.422326309007284184e-01
-9.416900012753373073e-01,2.332184946973532569e-01,6.498054928167912303e-01
1.058779427883523722e-01,-6.030861156034872383e-01,9.004386627358035300e-01
-9.228054437647884578e-01,-2.003162387774711506e-01,6.441983126988605202e-01
1.356293400005928462e-01,-8.941885338180007858e-01,6.253885809826595921e-01
1.058017165498113199e+00,-5.397101912732181761e-01,-1.647892162265060523e-01
7.135769465853182281e-01,-4.302471795170238478e-01,-4.004308396719334362e-01
-4.340204667403387839e-01,5.481062566043933826e-01,-5.259058563241355566e-01
7.814785149552927468e-01,-2.563063423188025602e-01,-6.308718719489464499e-01
8.942015099255675725e-01,-7.626972473951690867e-01,1.265010438933533363e-02
9.445865750802192595e-01,-4.686215879453521915e-01,-4.636346715439075838e-01
-4.693310740656446156e-01,9.291879243416594214e-01,-5.415884091966387537e-01
-1.080366545752881935e+00,3.997505011883956683e-01,3.801224427023555674e-01
-1.004826375615039291e+00,6.285587842763703526e-01,1.620876343535532782e-01
-7.902213920772704903e-01,1.782974706834757062e-01,2.102954754404587345e-01
1.098227265137665221e+00,-2.326385765069851896e-01,-3.865878025579431165e-01
5.232862515185098262e-01,1.624566723355569675e-01,-6.103501570757400296e-01
7.864677003645801356e-01,-8.477927055650947841e-01,1.324459341031898885e-01
7.194672886281949786e-01,-1.330402051196330204e-01,-3.507717685308390787e-01
-5.095695983695875952e-01,-5.741972205736501911e-01,8.668167256684403688e-01
-6.686427854349118460e-01,-1.385362233367282425e-01,4.832524720701232845e-01
-9.269400282774299393e-01,6.886933240150842073e-01,1.531842787949759532e-01
-1.792878082920597582e-01,6.521192930610910654e-01,-9.098642978112988500e-01
7.151474643127160302e-01,-8.968503779918707286e-01,3.463558343648501237e-01
7.207927923018255800e-01,-8.503551228592485245e-01,1.590860381136967039e-01
-6.364783584624938984e-01,-3.521971300278053940e-01,5.789603890646156659e-01
-5.772605440411622268e-01,3.352686875434146563e-02,6.167309361583811489e-01
2.919801536752160143e-01,-6.679861465678107457e-01,8.283019992063876957e-01
6.167591919193241567e-01,-8.076685953447947375e-01,8.244945701790350190e-02
3.752323284721472696e-01,-9.428443556380183832e-01,5.655519287912098569e-01
-3.527094193770737296e-01,-4.064820264498144597e-01,9.964247800397796340e-01
1.778843284455708385e-01,-5.444183593134545029e-01,5.576781249052580325e-01
7.085905767149788259e-01,-1.347089177362339740e-01,-3.539853146692469310e-01
-5.517540656246869846e-01,-1.425427535355020814e-01,5.795551677754176012e-01
3.501452815514890515e-01,7.006044144785675831e-01,-7.123112415500484351e-01
2.122511418749641332e-01,-6.394325432227618844e-01,4.542850044888271377e-01
-6.942187457262480876e-01,3.893232330201895075e-01,5.346019922978795247e-02
-9.272307074140931915e-01,-5.271672114251663849e-02,7.627125237550240744e-01
-4.818867919901768937e-02,-4.246624136548424189e-01,8.015872941093385995e-01
1.319551137464666790e-01,-9.090191559483058459e-01,7.198151283728490002e-01
-9.420785752136252578e-01,9.973397631899565824e-03,3.581209119581604261e-01
-6.252359934515611117e-01,7.409261201627330706e-01,-1.711422554978173083e-02
2.552469409956011903e-01,-5.788520458400250313e-01,4.973014446417508561e-01
-1.034526209222585980e+00,4.210530616860149421e-03,4.750480155073221744e-01
-6.814398582105598567e-01,4.302422532099908214e-01,2.011837848853165467e-01
4.363663393596921569e-01,2.645823581981199824e-01,-6.111830361762889963e-01
5.681674634630047294e-01,-5.707972858503536084e-01,5.918661814483348882e-02
1.086789137016767048e+00,-3.920341423822872873e-01,-2.848079087037626578e-01
6.763584646231490805e-01,-4.836823085124861699e-01,2.747351382450246016e-01
3.813669688568158134e-01,-6.801520349505771890e-01,7.935068476007000049e-01
3.752193678867675741e-01,-8.650709644384076968e-01,7.464983466832235681e-01
-6.283762403534551844e-01,6.108418266588931944e-01,-5.591926406135635519e-01
3.049945169940314060e-01,3.412350719919303721e-01,-9.391186635505908153e-01
-7.637970249056229288e-02,-8.458331848386236862e-01,7.158390758790026398e-01
-4.431211965388497931e-01,8.386720349033494060e-01,-7.115183554216666373e-01
7.809889965513834298e-01,3.253420845569722220e-01,-5.960385907792756788e-01
1.021651717039544272e+00,-1.482089295889945377e-03,-5.835255288619798364e-01
1.301943984359202680e-02,5.170757435953799996e-01,-9.497495384643538374e-01
-1.595498450379975452e-01,-5.116277664892352472e-01,6.080071005739100531e-01
-7.351343349239618519e-01,4.838984046437705966e-01,-3.018878451257583917e-01
-4.452891778546771429e-01,-2.160623127333192728e-01,9.107439189005014368e-01
1.492775446491676206e-01,-5.607135625896146891e-01,8.690274042096373108e-01
-5.216697928388850380e-01,8.008457699659188300e-01,-6.886244467382579559e-01
8.759806352672711016e-01,-5.133721780804767487e-01,2.396384794922087891e-01
-2.678238452621700336e-02,6.853660838442624526e-01,-5.343533310513721712e-01
-8.213297391682722326e-01,-4.375571995899060068e-02,8.272888639763267271e-01
-3.004978878061042441e-02,5.011766212477496429e-01,-8.684371573303798497e-01
2.582597404355022053e-01,7.458271961030807917e-01,-8.363585279415741702e-01
-5.382500816791808695e-01,9.275538391960780338e-01,-3.789090321235647485e-01
1.043711275635140628e-01,-7.464078162200107336e-01,4.998474448770180434e-01
6.980041765636052498e-01,-8.688482882196622015e-01,1.801475389572345098e-01
8.545599208447338113e-02,-8.810605884646663943e-01,6.125305673346930213e-01
-7.253303237796370206e-01,4.768869902959301799e-01,-2.501573962299637466e-01
4.021002349400701892e-01,-5.527787970066627699e-01,6.661804643740084630e-01
7.189118474453493057e-02,7.988954211257379701e-01,-6.122042369098219528e-01
1.949322427003448432e-01,6.867631167767288547e-01,-9.731826341044899076e-01
-3.380658964358389529e-01,-3.281888958808765744e-01,9.826355588593641555e-01
4.014286051975864411e-01,5.865434943022003189e-01,-6.394085307017338682e-01
-6.084870916813117647e-01,-4.454500698433456751e-01,9.420642544310861011e-01
-3.743380011671547103e-01,-4.453506377048664366e-01,9.870636554449337963e-01
-3.292669027449322550e-01,-3.319276742526294233e-01,6.465580910937364090e-01
-7.814500698872104412e-01,9.843830669273278752e-03,8.468466480393253004e-01
-2.136984460828136589e-01,-4.143744103837667669e-01,9.554579084991097204e-01
-2.088812569371343852e-01,7.962445875944812457e-01,-8.451285617165651409e-01
7.106529938970695959e-01,3.044627486083802959e-01,-9.120270583985653490e-01
-1.013637741257311875e+00,6.735622747839238311e-01,4.721008797179921529e-02
2.278939889959679665e-01,7.872811999088530355e-01,-7.669157533222727974e-01
1.467707711889514044e-01,4.016691607687327137e-01,-7.114403672813913726e-01
-6.699355190887480438e-01,5.887198078793357547e-01,-4.904822297621102001e-01
7.622267827418690578e-01,-1.893318243995012196e-01,-6.817254970662686153e-01
8.287991594333457002e-01,-8.332965820247026922e-01,7.993964899855041106e-02
2.940041857194950967e-02,8.115771557716059403e-01,-8.636827124071859707e-01
-6.120035488001449586e-01,5.294280839749523349e-01,-3.872596136813806211e-01
9.285198168043062861e-01,-2.351134448249217745e-01,-1.099939810228431764e-01
