6.344083671931582957e-01,-1.610302580068010136e-01,-5.675336290838356446e-01
-8.001896569744673116e-01,3.540816289754301904e-02,-9.867477162119468737e-02
1.044786048793123479e-01,-1.720988828604358423e-01,-9.458240794381010952e-01
9.339409963447966589e-01,-2.269511378862719975e-01,-6.381674512664047283e-01
9.663675939396546566e-01,-4.633398433011953060e-02,-3.271207546613550399e-01
-1.501489272747701942e-01,3.429617456321106261e-01,1.117083779358089446e+00
2.684325189708108295e-01,1.178856643071135579e-01,8.593479661240280842e-01
8.126130503591842968e-01,-3.858007019285051437e-02,-2.366541234862102119e-02
-5.365446720640768552e-01,3.034457755168172843e-01,5.319753263856284997e-01
6.140182144175283518e-01,-2.698429003182257202e-01,-4.560715258120605076e-01
1.122817746009058926e+00,5.808174970390130726e-02,1.694275984198938823e-01
-6.428442835882017814e-01,3.608385549976054346e-02,-7.588386858142054381e-01
-2.944263488687346442e-01,3.216590810708338521e-01,6.688513055980948030e-01
1.603442104461932360e-01,5.019127645168951490e-01,7.965118209321039311e-01
7.761690207493673332e-01,-2.513666038752109255e-01,-5.633683460024193485e-02
8.863083215792812997e-01,-7.025901677103361942e-02,6.390880171941282217e-01
7.541783893633701163e-01,-5.332165828722814638e-01,-7.150091997339883543e-01
-4.009815978854542329e-01,2.820049575371639805e-01,1.032785275384210832e+00
-1.199598159359539506e-01,-4.624328368000319989e-01,-1.119798191201486270e+00
-9.350731506156595430e-01,1.608683591935992918e-01,5.507057062839127992e-01
5.137710924714533611e-01,-2.640280841792922994e-01,-9.403698391629442543e-01
6.035941587746732062e-02,-5.526803131897359833e-01,-8.637718608078649440e-01
-6.015117324028538270e-01,1.789675956932708645e-01,6.294029490504896573e-01
1.067568997227516192e+00,8.893824915736964210e-02,5.228049184425401785e-01
-5.931490182340635187e-01,1.991077097508165694e-01,5.588979101907797231e-01
-1.026648020914612269e+00,2.128814695956201403e-02,-5.995640152856803740e-01
-1.158440703440579700e+00,1.369391255884654102e-01,1.480454362121415013e-01
-9.961420599012144050e-02,-5.173808663072052560e-01,-1.072036836513524438e+00
9.762273701922941083e-01,2.215365332041295543e-01,5.072249434089181053e-01
-4.393848998506388326e-01,-4.749535403247006071e-01,-8.253307457794956115e-01
3.698380260519933405e-01,1.184416159644306882e-01,7.560137774107769104e-01
-1.134491442889276502e+00,2.961149936577365249e-01,2.460771126383626273e-01
-9.570150881341085158e-01,-1.402440178623228784e-01,-6.904333801274381566e-01
-8.117150394362224741e-01,1.567339676831245587e-01,-4.322000422494608474e-01
-5.918765728198868148e-01,1.609403821203175544e-01,6.837636066089213260e-01
8.240101945721672871e-01,-2.440331198271939450e-01,9.973786529728127792e-02
-2.669191671865582260e-01,-1.850816604679199062e-01,-7.256301693592204227e-01
4.746779929158103650e-01,4.160715690383939291e-01,9.792719462960555177e-01
-6.713933095942662410e-01,1.701710316906305254e-01,5.344533565552240795e-01
-3.134514487663833116e-01,2.388383869843526686e-01,7.298877556116043497e-01
2.274824774881134548e-01,2.999000134395100603e-01,7.144869757279607159e-01
-1.106632662390973465e+00,2.435678659790779521e-01,-1.614859698939128396e-01
-9.330434535333415047e-01,3.716351364667045409e-01,6.703470475438146892e-01
9.895502181569399980e-01,-4.330967486080065099e-01,-4.635479210488258062e-01
2.552443043451079197e-01,2.509605878732777962e-01,7.034176739816663249e-01
-7.527757819612866941e-01,-2.175269922272567991e-01,-4.499791941897794967e-01
-5.932652989953405287e-01,-1.211404429885327462e-02,-7.265534467628160797e-01
-7.763764576000610207e-01,2.052146838819124963e-01,6.872229770872946564e-02
6.568232697819820221e-01,2.695962220344881588e-02,4.983802860397468226e-01
5.456609344394061090e-01,4.420584705061604835e-01,8.069935179797781410e-01
7.878529658311047568e-01,-1.081809954739219037e-01,-1.493814612988857982e-01
-7.807224878370947474e-01,1.095379156184971003e-01,-2.259944807146749557e-01
7.614349168049989736e-01,-3.063528991855801187e-01,-8.435314562268172445e-01
1.089710060687088866e+00,8.192875496018496573e-02,1.055152122793481528e-01
-2.402784674795564457e-01,3.143572210618115759e-01,7.119676637735530278e-01
-7.765850466375601169e-01,1.174289966479606512e-01,2.852337173646746216e-01
-1.217243715825258588e-01,5.265053829802862628e-01,7.638908992876610737e-01
-5.832523382899944542e-01,2.329891185997988445e-01,8.819620617557389908e-01
-8.160257907339854011e-01,5.038327771853736703e-01,6.426357672668767673e-01
-1.084345389768194279e+00,1.031829893445167928e-01,3.107861529305742665e-01
7.544867151458053978e-02,-4.193726383985621475e-01,-7.253144880321283905e-01
1.100969838487553476e+00,-1.423641237881472787e-01,3.976721472067032970e-01
9.157169979255216363e-01,5.575543943582884215e-02,3.090246691302981838e-02
-2.431980269205240644e-02,3.689203151854768548e-01,7.292633685831387824e-01
2.782519914842503939e-01,1.136522955104542626e-01,8.520935059621469465e-01
-1.114042656453223090e+00,3.063095337716166267e-01,2.334570433592796923e-01
-8.745004617782149436e-01,-8.716496875244451881e-02,-1.249189640266773205e-01
9.252129545042947489e-01,1.568652216562454460e-01,7.262468258189834769e-01
1.258906255049077605e-01,-5.199355113005661444e-01,-1.038617761258934236e+00
7.584105854950734527e-01,-1.023191424438087312e-02,2.665774039894319158e-01
7.572591796325308655e-01,1.854027732023872527e-02,8.221190096291868254e-01
-9.408973926529463627e-01,-4.326639698358806380e-02,2.445646198542113930e-02
7.558076757390665978e-01,-4.972430088767396117e-01,-4.550594874357145048e-01
-1.762510995048674756e-01,5.518799919705408286e-01,1.006877622147024143e+00
-8.278443635152027413e-01,3.182068590819517317e-01,7.734853126328765649e-01
-7.667169711323589265e-01,1.126160192880516359e-01,-5.758786817482922649e-01
-1.015178941727649997e+00,1.864671973013294973e-02,2.360873077842526313e-01
-7.296410308496201758e-01,6.812037491885410134e-02,-4.751091579263377329e-01
7.345152004896977616e-01,2.279879406765769612e-01,4.192972526218385343e-01
9.040578709453355177e-01,-6.852441371721935959e-02,-3.426481024578518775e-01
-9.737752256841274434e-01,-1.718418920303106667e-01,-2.007209663994549698e-01
-1.004785477909305724e+00,-1.820964320653114255e-01,-2.778073962496293570e-01
5.356620409626304813e-01,-3.827922481187711057e-01,-9.848224989366481941e-01
-9.359545067207573066e-01,-1.532804294557148783e-01,-7.217924949692895442e-01
-7.891498377597088165e-01,4.448243753612743934e-01,3.121081244767650031e-01
-1.049843362134156521e+00,3.013726146209005363e-01,-1.167351857974114060e-01
9.541816747486754346e-01,-4.267854651323379489e-01,-2.096576475075048185e-01
2.263025609224766366e-01,-5.559054319606834271e-01,-7.757697586627272379e-01
-2.342512385316583567e-01,-2.730263593494335339e-01,-7.065364858027232131e-01
-5.587279046760187384e-01,-2.907026417833312726e-01,-5.777714593029287249e-01
1.364902438802981510e-01,1.556210708257205477e-01,1.034541443433497410e+00
-7.913159762032100364e-01,3.732298208188101207e-01,2.111013479338026411e-01
-1.942713319625468948e-01,-2.210442725677522480e-01,-7.634249906436102462e-01
-3.696536941451211700e-01,1.826005118060832766e-01,8.895494870834865786e-01
4.308062073255317648e-01,1.366009054275594270e-01,6.851402270792601445e-01
2.526467942680689083e-01,-2.671155955211142463e-01,-7.180090845959741230e-01
-9.962840791007399055e-01,-1.505038354383190224e-01,-6.766093288355036206e-01
-1.087336566238730651e+00,-2.787564346508929203e-02,3.212765121184595063e-02
-2.708918515667722571e-01,5.542697319929369426e-01,9.943082807230795295e-01
5.391953782534170125e-01,2.872438814993707457e-01,5.966132242704250688e-01
7.804362133739757290e-01,-5.310156000407385557e-01,-6.883423902721397258e-01
1.117108800706063804e-01,5.066670671995257003e-01,8.089454571414563810e-01
9.095732062474558566e-01,-1.804055676169304123e-01,4.433108150722365193e-01
3.562562562692587198e-01,1.013209764513545025e-01,9.260927449609376305e-01
5.262607719591864963e-02,1.647413416236203632e-01,8.804352617651445279e-01
7.779826812927177482e-01,-1.100312238802313158e-01,4.375660586903232230e-01
-1.128977162486581420e+00,1.904158808259719463e-02,7.494838306103368541e-02
-7.533915437048005481e-01,-1.750918781058676543e-01,-3.713046931424635044e-01
7.351658774948365005e-02,2.534976789003903774e-01,7.495060909088706591e-01
-1.061390840856817785e+00,3.475594981444946052e-01,4.757027095123675386e-01
5.835583226128852052e-01,8.067528791814644606e-02,9.008496831885476341e-01
1.123260655558213195e+00,-2.688595974799214972e-01,-3.221373316524459018e-01
-9.252953423449039594e-01,1.964862045043517247e-01,-3.949179306505106735e-01
-6.349113089386275444e-02,-2.130382825259405366e-01,-7.944177905130761497e-01
5.083331098592577257e-01,-1.811791002544979046e-01,-7.685706642924903242e-01
-1.093255969650630544e+00,1.236544732071507835e-01,-4.117041906826939268e-01
5.381090535616088744e-01,1.548258576657040586e-01,5.504936914727314168e-01
9.992074240816876118e-01,4.149519561192773626e-02,-4.148694713597082112e-02
-7.771705721424044810e-01,-1.313422231387191830e-01,-3.168808358454507923e-01
9.330885203729993860e-01,-2.718679333848018631e-01,2.639551635906682847e-01
6.245092495923169201e-02,-5.833226423116915083e-01,-9.574835516142056191e-01
-3.505941770104371025e-01,5.240524436821105692e-01,9.956656382298982866e-01
3.580314787170069124e-01,4.276067806117568870e-01,1.062005935436285631e+00
-8.820815331229021616e-01,3.471504184584661146e-01,4.307725971703979528e-02
-2.087264687907395000e-01,3.944112769425409115e-01,6.891140966853048777e-01
5.320041715853442987e-01,-3.710767856043409862e-01,-4.704200506977312957e-01
1.106249534192489392e+00,6.761428530566634953e-02,2.072672256659931489e-01
2.208822272084869365e-01,-5.431384742772538132e-01,-1.021369247904008404e+00
1.298216538271751153e-01,4.861498925401646631e-01,7.832779369970225281e-01
-3.691959297773421689e-01,5.765139450665915932e-01,8.414031651254928468e-01
-1.012417143788131080e+00,2.545051730034786353e-01,-2.843425355795610177e-01
-1.687511232734672240e-01,-2.439936751040493734e-01,-7.375007186936282100e-01
8.787064307335032964e-01,4.817334604527569175e-02,7.926320357943751338e-01
8.886976447446202076e-01,2.062042050163433865e-02,-6.450288934715553424e-02
6.196107994625625892e-01,3.312448991082335703e-01,9.882274858493595993e-01
-1.209485622763897539e-01,3.770303048287449443e-01,7.268736784289335784e-01
-9.401043749166486385e-02,5.664213539641624884e-01,8.499972806112030543e-01
6.984310697828199910e-01,3.311489201825035811e-01,9.234626273193882184e-01
8.799939272781245325e-01,-1.943285031720666522e-01,4.379290698286744110e-01
-4.516922322039923499e-01,2.195801911960585662e-01,9.306463542078547979e-01
7.825651179059319729e-01,2.860630152838972151e-01,8.408521309022115586e-01
9.399712085867821809e-01,-2.699868473891825493e-01,-6.424996986148423517e-01
8.842664301744843636e-01,-7.886136410850533296e-02,-3.610221223497444565e-01
-8.233400091770132212e-01,1.681837717555797196e-01,6.326309191997385728e-01
-1.406648232481416683e-01,-5.266434157320014631e-01,-8.533008823151482236e-01
5.677045043053444706e-01,-5.372229524014195956e-01,-8.795070963609401549e-01
8.822758530504219987e-01,-2.413558544377962523e-01,2.330959027077779411e-01
-7.973755985533522717e-01,1.507168372079018548e-01,-4.443145390778335813e-01
-5.047790979869222205e-01,5.375946998182155045e-01,8.955993167391717025e-01
-2.828819871524932972e-01,2.922675389885274200e-01,6.911714194914649889e-01
-9.618077824663767705e-01,-1.299868137098793008e-01,-9.719636200771886170e-02
5.122744547658238945e-01,2.884861999822704304e-01,6.036363151417062367e-01
-7.934288150707184961e-01,3.071842538346487017e-01,8.037860049033414001e-01
8.563567535849214707e-01,-1.821847975071002879e-01,-6.420488120299235879e-01
6.814715952672893984e-01,-2.077155076530389499e-01,-3.699098181523965967e-01
-4.203827572177767924e-02,-5.455188420844383490e-01,-9.970372532403488641e-01
-9.278643886494298831e-01,-2.242548823164515481e-01,-6.971148563563102085e-01
6.528040271274936357e-01,-5.038951365273097727e-01,-5.053540773295077670e-01
-7.314048498340456339e-01,1.673628195015163522e-01,2.925978668697230001e-01
-9.969553013642712402e-01,-1.549745170034706465e-01,-6.457233427519698532e-01
1.156977925108476413e+00,-5.223536518395584943e-02,-5.040238221355139783e-03
1.071067585991841931e+00,-2.688661051936958035e-01,2.181671570746450961e-01
8.486748549933956776e-01,-1.767635281055035257e-01,3.475167595022272682e-01
4.249123895045507360e-01,-2.474640392094645258e-01,-6.322549968688444544e-01
-1.090311556795771963e+00,-1.027771018569572925e-01,-2.728541757745567287e-01
-1.121222023792816325e+00,3.267967332076587850e-02,5.641182712139101302e-02
1.154550621282618872e+00,6.091659987274056220e-02,1.898562948187960675e-01
9.044676867417184019e-01,-9.268524918330002527e-02,-4.273434576810526964e-01
-1.179028738126673082e+00,2.044866074540572509e-01,7.646766080560685186e-02
1.415193861056952829e-01,-1.912074209090268984e-01,-9.343864807732508160e-01
-4.453819126751590862e-01,4.760606369603865295e-01,6.030243938205057663e-01
5.359561219785438091e-01,5.208013345750504147e-02,8.171266374384560383e-01
4.944581149158099875e-01,2.727918297617257237e-01,1.061889135335890133e+00
-1.326448412439981683e-01,-3.332444711385302294e-01,-7.379198313982953117e-01
-1.372281007542063280e-01,-2.603194051882595228e-01,-1.130382375461649103e+00
-1.004081564518606084e+00,4.013771669815852788e-02,-5.837879736308819734e-01
9.712448001106301909e-01,-1.354578127506530540e-02,-2.057069513502306768e-01
-9.809823788440693582e-01,1.663202295848136836e-01,5.323188973082253472e-01
2.718322743292446719e-01,-3.022678969778845315e-01,-6.721831076151346673e-01
-9.014495081226128192e-01,-1.090730115310583823e-02,3.501918127552729881e-02
-6.885255944948931450e-01,5.529990907684696755e-02,-5.511208076451628024e-01
5.753898988460994790e-01,-4.603655629194149390e-01,-9.149627615719795326e-01
6.356088971704247637e-02,-3.923910591651614821e-01,-1.120276959815304618e+00
-6.280822574049755858e-01,-8.999631078593822719e-02,-4.998141511808733006e-01
-3.213773487379221749e-01,1.864992258162039562e-01,7.937677603744369703e-01
-4.997818937351578561e-01,4.587615057057973234e-01,5.766274927221483049e-01
7.906389570106124864e-01,-6.610758918906392556e-02,6.817529474049972560e-01
1.107418942163727715e+00,-3.391005905743431081e-01,-2.637847956335839794e-01
-3.419082942157812832e-01,-4.129463786955190341e-01,-1.074574265530210404e+00
6.746189869634577896e-01,-1.495147846601396213e-01,-5.727841248245427730e-01
-4.831107651237199208e-01,-4.489734715585562697e-01,-8.712928926414890141e-01
-8.340758852324763328e-01,2.123975239193394426e-01,-1.384933678451021055e-01
6.897361312825330826e-01,-2.022635943862420849e-01,-3.470976735390949308e-01
-7.601205119196998705e-01,-2.687554209482689860e-01,-8.641785493976854582e-01
-9.637170412783853113e-01,-1.677164986398042290e-01,-2.458308628606453994e-01
2.825595564639825641e-01,-5.492628285521035103e-01,-7.720902566124943078e-01
-6.536820656179842537e-01,-2.961123959706662423e-01,-5.463761193037676156e-01
1.097053788774501770e+00,7.137464335249997516e-02,4.545453840477338137e-01
1.048125601363287140e+00,-3.555840991620375369e-01,1.596171471889834201e-02
-1.731426048036422694e-01,5.661774171480598028e-01,9.285574526385383942e-01
-3.569624596883023138e-01,1.974705945291510556e-01,8.813355223276256867e-01
-1.043558235776908205e+00,1.038466140341309241e-01,-5.105282247257006967e-01
-2.081210594937334124e-01,-1.371960580908584415e-01,-8.261487863649816799e-01
-5.098542597820729938e-01,-1.714613331010915176e-01,-5.721277279691997508e-01
-8.526526016325171042e-01,4.130518377687671105e-02,1.717422429701029873e-01
1.343533246211382759e-01,5.139844390091279358e-01,1.018824941394391059e+00
8.505361181749765409e-01,-4.066623592405658183e-01,-1.382420717291398538e-01
7.950207536645494955e-01,-1.347409982055728650e-01,5.350269857887912650e-01
-2.743739280149581350e-01,-1.007672521013887323e-01,-9.220332497021577201e-01
1.027977270958521760e+00,-2.085949003420136949e-01,-5.096616095507282562e-01
3.100210155272002943e-01,1.875072470735270891e-01,7.363442864933930077e-01
-5.375219520442781063e-01,-7.393618684593884771e-02,-9.201199992502602232e-01
-1.227058941316835905e-01,2.586111861264442924e-01,7.441319122207163961e-01
-1.049174374143546418e+00,1.470555949316751099e-01,-4.356667727908296039e-01
-3.745068877643305955e-02,2.614250174222113032e-01,1.087773499599380189e+00
9.937865729223641642e-01,-4.361178850000131946e-01,-3.851739930461532402e-01
-4.894332711297307292e-01,-1.964888688532711591e-01,-5.908584169760424665e-01
6.339007554755271556e-01,-2.556461541962600781e-01,-8.943581233943654896e-01
-7.336269191678799206e-01,4.779312116103482388e-01,8.043178236808866677e-01
-1.196127996428464124e+00,1.322224361175784735e-01,-9.216804762802260909e-02
-1.213990277422650338e-01,-5.024200029953540536e-01,-1.074579755918249280e+00
-8.637575533919182869e-01,5.199543726866661109e-01,5.271599857200232053e-01
-6.520561529698555292e-01,1.580726804497505911e-01,5.264204520964306244e-01
8.094781065423861666e-01,-1.479477784571407717e-01,3.722724349855959236e-01
6.762652771713408839e-01,6.628130733395014296e-02,4.510714818334043419e-01
8.130070434525425993e-01,-1.389074288893418774e-01,2.891700781705865142e-02
-1.512820103362897961e-01,1.777139545447897206e-01,9.258311460540936677e-01
4.358492860636072330e-01,-5.413311818079443727e-01,-6.863821933281946119e-01
-8.291634800748670653e-01,-3.097914454242574611e-01,-5.686470391996532037e-01
4.549952937337375936e-01,-5.478118298280012510e-01,-6.868824553464557559e-01
-6.791629695192209493e-01,2.599293159972138612e-01,3.273407529861489529e-01
7.170700289893314761e-01,-2.036070770606362157e-01,-2.571479605028048621e-01
7.924012257176278329e-01,-1.421551302944240591e-01,4.396563061301854147e-01
8.440228043388855461e-01,-1.794543789262929290e-01,3.176314635354495763e-01
6.319498407878929025e-02,-4.498230701504369877e-01,-7.431468053406802277e-01
2.718839374998202052e-01,1.116718544480597153e-01,8.231563899319546129e-01
6.897841858132504056e-01,3.790167441872984155e-01,8.566229786844827832e-01
-9.941289656448158985e-01,-2.024593961168733858e-01,-3.231490738550656938e-01
6.010600671349282109e-01,-5.601415445162586382e-01,-8.129407458573262302e-01
-2.684666632310233614e-01,-1.168737386979921133e-01,-9.087049327984040303e-01
8.262059788274029870e-01,3.166125090458827840e-01,6.465470550803441574e-01
-2.236375877579271088e-01,-1.132423288845396253e-01,-9.814273413340451890e-01
-7.354929108120789039e-01,3.204661624785712370e-01,2.440213466744034776e-01
7.856076752647909167e-01,8.850963940267625452e-02,2.701438539074776379e-01
8.402108155680245716e-01,-1.213701489464536799e-02,7.356977705054492667e-01
-6.573014663455157836e-01,-3.996749112443871432e-01,-7.807380509306370842e-01
-1.522896032402313027e-01,-4.021677707221398834e-01,-7.435753420485219367e-01
5.316273383225116334e-01,3.869029662337584718e-01,9.791998214383149657e-01
-7.603761947215319505e-01,1.488666954177287338e-01,2.286836954882623119e-01
-2.688213853004241538e-01,5.504893953398141138e-01,1.005347682477856219e+00
1.818956482916790351e-01,2.149394332831810750e-01,7.765022313746715588e-01
-8.257664488487296284e-01,3.494347575386002602e-01,1.170099355064058294e-01
2.396400153261101507e-01,-2.851756789705158779e-01,-1.084290442230066986e+00
4.028673238840703719e-01,-5.793545381128928362e-01,-9.539237158214731727e-01
4.866163645143674055e-01,-5.749651333513352558e-01,-8.009360511107753711e-01
-1.007713927848569613e+00,3.535287483040209788e-01,-6.476136837483196032e-03
2.108916928437043481e-01,-1.981735558788597085e-01,-9.437473644754220681e-01
8.337175540581339694e-01,-4.500021907675257754e-02,-1.820589349349054364e-01
-3.287405550910392216e-01,2.474750644970501734e-01,9.908231246334189279e-01
-7.696933264370832140e-01,-1.763998168994317939e-01,-8.940639223348511022e-01
2.649754702558823061e-01,2.724404060457003562e-01,7.135116129734451196e-01
8.196770969725235556e-01,-3.484088199564724930e-02,1.047740964878178353e-02
-8.310568771587042436e-01,4.676522798397415581e-01,3.113772324077380138e-01
4.661953297661069473e-01,5.777073448151830160e-02,8.952149996091661732e-01
-1.661387806401300182e-01,-4.418276055407386327e-01,-7.502910780782010569e-01
-1.149940108767058211e+00,1.916988380997624586e-01,-2.147537612612557822e-01
-4.417502115894909598e-01,1.649124152191369652e-01,7.630280679542404965e-01
-1.067818650539986924e+00,-5.659037053069893020e-02,1.626072792034258599e-02
-5.628892555864282166e-01,5.473558480535452020e-01,8.827383347744074404e-01
-8.357122211953742497e-01,2.896985617550862924e-01,7.493199464904521934e-01
1.333640520825193909e-01,2.129137834124824047e-01,1.095755062356803755e+00
8.003106389587582026e-01,-5.311291292764820371e-01,-5.703867754542147894e-01
-4.909627501004161232e-01,-4.616597965727761710e-02,-7.579242993108467052e-01
-8.289533630491515703e-01,-2.765501146805492416e-01,-4.805953728507679212e-01
8.065453662646948629e-01,-1.132157393832646519e-01,4.588527545248706485e-02
4.988542669519118178e-01,-2.109552297809745292e-01,-8.862240516040765792e-01
3.353753168539218565e-01,-1.955442860160847562e-01,-7.980854763765605764e-01
1.117843890350050051e+00,5.061338612545148580e-02,1.157594870595128091e-02
7.538777926958735165e-01,1.509943400015187343e-01,9.222414680919339691e-01
4.399697524426766648e-01,-3.465265014037338664e-01,-5.767636147731937113e-01
-8.217945965069489711e-01,5.316917780678059868e-02,9.172664122724187574e-02
1.905294388116960669e-01,4.010063946938120516e-01,7.227336060355181724e-01
3.603639392911819339e-01,-3.946935227575849581e-01,-1.045407757527403225e+00
5.876737149951790640e-01,-3.457347411487574074e-01,-4.320708727929948867e-01
-1.077891970794912613e+00,-1.042088022634580780e-01,-4.718485800385895379e-01
-6.879511509938184277e-01,5.184060680299077406e-01,5.040916765101856045e-01
1.054681545236548779e+00,-1.429155181187921064e-01,4.396086224382798613e-01
3.884649753164332031e-01,3.243292062593758351e-01,6.677708513474321927e-01
2.869693608297904097e-01,-2.077238449405323095e-01,-9.652733986699368884e-01
-6.725505962835952589e-01,1.813033793281949857e-01,7.533440738916058477e-01
4.444771940660030562e-01,9.287375000498233890e-02,7.481344499341400223e-01
-6.195288958706728355e-01,4.025150864026759770e-03,-7.686921631507426245e-01
1.069552327389377416e-01,-4.747562074256181930e-01,-1.103281959310745020e+00
-7.595396571334310787e-01,1.027477155693285044e-01,-3.085194237547432827e-01
-6.519185405846881221e-01,5.398824184844769336e-01,7.139928590748705339e-01
1.131845988887467680e+00,-3.095463309568143029e-02,3.980690345186428947e-01
2.029757683699843773e-01,-5.733839710502453002e-01,-8.033392759411802642e-01
9.356368048932252046e-01,6.988769161746781478e-02,-5.340778354356339429e-03
-2.144811547229748538e-01,4.874040355399392732e-01,7.105111232388531262e-01
-9.230307488524203130e-01,4.156254566364719349e-01,6.252928236173668219e-01
-4.978581671683094401e-01,-2.574809053519012680e-01,-6.064145916819042581e-01
2.836569243380807070e-01,-4.900837116918786429e-01,-1.073719528122470068e+00
-5.920196821888940031e-01,3.261023120572851819e-01,9.416484598730746614e-01
3.583611649388875331e-01,-2.047106189394814757e-01,-8.849774833866227430e-01
5.313373029198290576e-01,-2.922658262753867753e-01,-9.521227045054020399e-01
-2.409103132511574430e-01,5.740394294849651136e-01,9.401646656769798716e-01
-5.427627055294887981e-01,-2.803166150673542245e-01,-5.831982597802291002e-01
7.967906106735664906e-01,-6.804186871526889113e-02,6.278052921412766163e-02
8.031214951230899457e-01,-1.236991738246995404e-01,2.409340911513375427e-01
3.134234705571024016e-01,-5.697318567663327560e-01,-7.712884915020219445e-01
-9.112569007263440213e-01,4.211077127097294648e-01,1.336211859193890128e-01
-1.057938850242992057e+00,-6.479549914416646295e-02,9.216227713061934815e-04
6.610362932220087417e-01,-4.122135028219180986e-01,-8.939468585684797741e-01
-1.112009955951872575e+00,-4.111441727914313948e-02,-2.229925517838175220e-01
-4.049342884931094178e-01,-1.463823935930752551e-01,-6.796238232784409528e-01
-1.077454534837341882e+00,3.610143089386132487e-01,3.982788585976315687e-01
7.508026653801364025e-01,-4.957324522708009273e-01,-7.983056697411092806e-01
8.266764069055314579e-01,1.733566481935207293e-01,8.335073576951135266e-01
1.132535551732394064e+00,-3.973040588943094198e-02,4.329555353596210576e-01
6.856179888483426854e-01,-5.494373794610195594e-01,-5.856199864746893802e-01
-8.133718250851241782e-01,-2.513430524407273547e-01,-8.697154876977997162e-01
7.551006434991838767e-02,1.762001821703443327e-01,1.020062037300784485e+00
-3.950315784541847397e-01,-1.812911005436096401e-01,-1.051472283834362198e+00
-6.200969717105332402e-01,1.838738369914114101e-01,7.981705075865319632e-01
-7.131855345817432745e-01,-1.687619031333031927e-01,-4.291985239881732639e-01
-3.364982408084279397e-01,2.213277969746905438e-01,9.718763630214429794e-01
-1.042256106193725218e+00,2.079185253082140028e-01,-3.228837509681974360e-01
-5.493722221128908290e-01,2.084517855623871929e-01,8.961256416904760380e-01
-6.924352048461189790e-01,3.570149193978442437e-01,3.555337197274553440e-01
1.043465890246852990e+00,7.213103988983695508e-03,6.015227047777620406e-01
9.348762474844457548e-01,-3.612140914031368166e-01,-8.129280502055578894e-02
-5.374841255165266896e-01,5.441867963361612937e-01,8.505141187802851555e-01
-1.042583692865346245e+00,-1.694176262963831836e-01,-4.080476072834149370e-01
-1.731536375627695246e-01,5.727639022486437081e-01,8.795368830450053244e-01
-3.344231749383254626e-01,-1.371614703362060705e-01,-7.522676269567014629e-01
-2.331589455394301180e-01,-3.217689716302787883e-01,-1.112545706300144266e+00
-7.040045733607921408e-01,1.692871414025948484e-01,4.313190850722857239e-01
1.135738348363097394e+00,-1.855317070763858600e-01,2.466009707330494849e-01
-6.140608215494300914e-01,-2.413462263680175024e-01,-5.254657841431662479e-01
2.221170551933080162e-01,-3.450483469716214557e-01,-6.885130243285582097e-01
7.751754696801058664e-01,1.389709964477697790e-01,3.182027942957074695e-01
-1.384839513780674325e-01,4.055448008050706599e-01,1.123144188649731534e+00
-5.296599639424667272e-01,5.533302961412019938e-01,6.439278828263164112e-01
5.392721514327587506e-01,-4.386583621746834583e-01,-5.202031411308860598e-01
6.449909836685494002e-02,-2.176274333641575465e-01,-1.047394288192217582e+00
7.360522651311949272e-01,-1.564528335425470484e-01,-7.020973299263313372e-01
8.013895931567849296e-01,-3.586668277032801777e-01,-1.730557689189873294e-01
3.248023808019916414e-01,-4.159684310532207330e-01,-1.053910307816348757e+00
5.621558765694331106e-01,-5.171649530498738656e-01,-5.762046143394736752e-01
-1.307480098423615400e-01,-5.381954979014710316e-01,-9.463083515885852837e-01
-8.072380911318312036e-01,1.463590526689586002e-01,5.982321672681194524e-01
8.709083450348941158e-01,-4.647011724109664232e-01,-6.390895883668865629e-01
-4.260178719409727921e-01,4.550374252615116966e-01,6.061362802924523674e-01
8.205663720200621070e-01,-2.554641902771979667e-01,-3.497275167084951553e-03
-4.336152538105190329e-02,1.716138639884809969e-01,9.508104859167946232e-01
9.016947181380449150e-01,2.804252919522701171e-01,4.997027523128707016e-01
7.777633755875438260e-01,3.536404240637144869e-01,7.256193408481184104e-01
7.436527859251670369e-01,-3.624122030351441537e-01,-2.777353012738659754e-01
-2.398576337476858167e-01,-3.894231774789317924e-01,-7.208132401128581890e-01
-7.404311032680398474e-01,2.394338420107766478e-03,-3.106485845852647310e-01
-5.741456747104808356e-01,3.710953881418920797e-01,9.794609812721840614e-01
8.517964361006659380e-02,-4.731888617501539551e-01,-7.469454335073764106e-01
-7.588136958719254865e-01,1.173515887009043829e-01,6.156016169702762664e-01
8.916699547095166198e-03,-5.636925205087430779e-01,-9.240270358815846352e-01
8.265446671101126519e-01,3.357274409305839868e-01,7.001084810353114252e-01
6.139807313150099644e-01,4.145997587725189781e-01,8.931684624644946613e-01
3.965836598444875127e-01,-4.906505870403876646e-01,-1.002398235871430510e+00
-7.432189460454141638e-01,4.699118585087488364e-01,3.913538827860040259e-01
-9.601293743159509120e-01,-1.220954957876985020e-01,-2.007501242345545722e-01
9.351485602253666318e-01,1.746060819219393545e-01,6.969926793485021754e-01
8.662827931545367122e-01,-2.139982593530878885e-01,3.299736343285152862e-01
1.324909966450275312e-01,-5.786914349557698012e-01,-9.576274010968922612e-01
-2.982190606123148457e-01,5.983869482299386533e-01,9.078674820761007958e-01
3.587201948582259825e-01,-1.937438776092480497e-01,-8.921715712122388897e-01
1.169495349753068236e+00,-1.556854266468973499e-02,1.091656678781441764e-01
4.543190037545047355e-01,-1.931271687570167428e-01,-8.392392280839883201e-01
-5.816370996161026596e-01,3.404370969615888032e-01,4.535114554881277682e-01
-8.187233638689712656e-01,7.358605352934055599e-02,1.479504033491677029e-01
-6.778181020248206234e-01,3.738387534038229432e-01,3.715479042538628596e-01
-5.617476247867896344e-01,-2.084046724249999927e-01,-5.482890864409636356e-01
-6.343716905731070499e-01,-1.401509960028792801e-01,-5.190850030044675822e-01
-1.272843417776450547e-01,2.001142264992224196e-01,1.041059114680291442e+00
-8.357675146880971795e-01,6.050009113596362120e-02,2.224644409755683616e-01
-1.521113981961824957e-01,4.373157627069258480e-01,1.098288921201111767e+00
-7.271545870718951754e-01,5.286651980065115719e-01,5.820028240656973662e-01
7.656813156083355221e-01,-5.201642755575526245e-01,-6.935337729010966346e-01
-1.055706864762951280e+00,1.825195980594730427e-01,4.437776102620099028e-01
8.038155724240276800e-01,-1.229132701329694044e-01,-1.766338461545575445e-01
6.814557868993122991e-01,-2.524308041722927998e-01,-3.202066788522562324e-01
1.116439448669343859e+00,1.000633263712821241e-01,1.659193110592154519e-01
-6.235046659684687631e-01,-2.182468109669537526e-01,-5.072031157697747261e-01
-1.483555737696526378e-01,5.623932814788545897e-01,9.502572318611388624e-01
-8.677473059835483227e-01,4.116493167904055617e-01,7.493672395873443026e-01
-1.656168447415058698e-01,-4.312917637189032094e-01,-7.333850963269150647e-01
-3.199358459233085372e-01,3.428156655647426887e-01,6.915939256725904816e-01
-2.493933536149574304e-01,5.864162060003632604e-01,9.100605240077223046e-01
1.161620314929563857e+00,-2.393417556862797724e-01,1.019988933469711256e-01
-1.167057034037392693e+00,8.127278538905508692e-03,-1.485187836013143747e-01
-8.286338112556601576e-01,3.673112277266740167e-01,1.204384768976698161e-01
1.099198060179773728e+00,2.234101956255693175e-02,5.107005031791408411e-01
-2.073543884646748131e-02,5.607975657952882775e-01,1.003895929406100951e+00
-7.967059344505944551e-01,3.692457368571483989e-01,1.965789113164882751e-01
7.079033076083515175e-01,-8.269547127562974775e-02,5.456107476078070340e-01
4.418176077542954050e-01,-5.428021708668626655e-01,-9.357460693513496297e-01
-8.002957804465635760e-01,7.404572113690553736e-02,-6.638160400673467354e-01
-7.124647738431238997e-01,1.812149513800556389e-01,7.284097376422777881e-01
-7.372732031414226395e-01,9.843194792625714618e-02,-5.882785512324222310e-01
1.009471651755759758e-01,5.372249812772819100e-01,9.729050266011842751e-01
1.101408693222223123e+00,8.208690531379157773e-02,4.043019094035122385e-01
1.872621063914791939e-01,3.328948453231352356e-01,7.316074608748586172e-01
8.195554339937125565e-01,-1.831042180013684462e-01,3.733758699049982144e-01
7.889592417659498924e-01,-1.972149190204806543e-02,1.107912419795615139e-01
1.104866899085026555e+00,8.812461707254300169e-02,2.293075048703279439e-01
-7.723871575758255448e-01,-2.010531273743716707e-02,-8.046403192601208065e-01
4.868525523659037457e-01,1.911131011061267537e-01,6.290520077255263853e-01
-4.136722629057585920e-01,3.838005254149168821e-01,5.755338688878091080e-01
5.240854593549179041e-01,3.731309374295403714e-02,6.592075528581884392e-01
8.432587951944010562e-01,-2.883204360034252733e-02,-8.134055792970745768e-02
-7.714703092165823284e-01,3.145483426354558909e-01,2.047811580733254200e-01
-7.431081623873633246e-01,4.380993874863175347e-02,-2.997183752747056840e-01
1.098755038858030275e+00,-3.750136167988913360e-01,-1.254411324330874933e-01
-9.496438316633737386e-01,2.738879383914320509e-01,-2.195751276613284730e-01
8.557103919456777730e-01,2.917510097791486401e-01,7.412953978715502990e-01
-9.175080241644726353e-01,2.948720157432905276e-01,6.722140067269554153e-01
7.609130285390263149e-01,-1.575210254381766983e-01,-1.257804850920332396e-01
1.088043832794457932e+00,1.609061676099219837e-02,-8.684482342885288531e-02
-7.013077881304805583e-01,-3.644538635375164648e-01,-8.490488078886432310e-01
-7.028465314616529902e-01,1.553824870471176844e-01,6.374375840885834199e-01
-1.014171950523138577e+00,2.370843572992318571e-01,-2.942662800402581214e-01
-5.700770561529895364e-01,-4.151996331376899829e-01,-7.911300301623857001e-01
9.907827502426711508e-01,2.052015308260586590e-01,5.751426479131892533e-01
-2.143283460689906217e-01,2.259575100051225971e-01,1.003928773143281328e+00
3.399081280887116807e-01,3.084221316564028648e-01,6.763855737787518585e-01
-1.473356410033938024e-01,2.097107715966000652e-01,8.229421836917368838e-01
1.029261041901420093e+00,2.081279450315298013e-02,5.859308692176585787e-01
-1.146616648613602019e+00,6.276539222395374762e-02,7.348286639254635044e-02
-5.293943463635896185e-01,3.718622451983699118e-01,5.179792524022530653e-01
8.816709973549856638e-01,1.716611521156006237e-01,3.215023357392741143e-01
3.212685803768722814e-01,-1.997238425994794786e-01,-7.815206976904461866e-01
-5.382244531484207117e-01,4.589823968625035278e-01,1.007468532196209132e+00
1.119675181884403486e-01,-3.328671940161807563e-01,-7.010899599563304996e-01
-1.073266996043169330e+00,1.958500475983950551e-01,-3.575462127788718303e-01
-8.602875735152565317e-01,1.056404901388763584e-01,4.073307028847262812e-01
9.199176126604888815e-01,-3.048365376745389432e-01,1.473337432160149452e-01
3.417302655374759301e-01,-1.859588717475134378e-01,-7.972385467106380963e-01
6.339193784397921805e-01,-2.332388892600990304e-01,-8.417356965167436256e-01
1.028308934421774623e+00,9.846888333216557987e-02,1.256615105622825301e-01
-7.709250787330221844e-01,1.709362830993924609e-01,5.701063067080913704e-02
2.207142479288590753e-01,-3.559296470285074898e-01,-6.794711095356150699e-01
1.000751645931004630e+00,-1.319721648829917104e-01,-4.427450931701732428e-01
5.766915225755567809e-01,-2.306502260341737609e-01,-8.885740364198012609e-01
-7.842970212094007021e-01,1.381797713442917963e-01,6.658462512125010169e-02
8.004546461250722222e-01,-8.564683139313095106e-02,-4.050981329374554463e-01
-8.061530907166597482e-01,1.607270218209366219e-01,1.997079421812452543e-02
4.939985798646610582e-01,-3.781057532271777100e-01,-5.249809944084350422e-01
1.132298342431937721e+00,-1.197678202318374838e-02,4.008222044701377218e-01
-9.305175763765126673e-01,2.348386380257746764e-01,6.508551477638379046e-01
-6.876943722877000287e-01,1.971118935909128289e-01,8.047758442653026867e-01
-1.642731786528533466e-01,-1.850358656270872648e-01,-8.231547465876171144e-01
-5.146418640567952396e-01,3.345940879370160603e-01,1.007174214285413427e+00
-6.321926332774168156e-01,-2.744466837370012069e-01,-9.626432643010394141e-01
2.320574298441101246e-01,-4.208457871676472006e-01,-6.871550718689201087e-01
-1.336373037917826800e-01,5.454763691557577010e-01,8.535894810179665004e-01
9.720158459018897190e-01,-1.530721767700860547e-01,5.063248927045688186e-01
1.622052853937634154e-01,-5.484925151460555703e-01,-8.250096982241357235e-01
-2.200014249870089200e-01,-5.199637093835701718e-01,-8.336652985889414502e-01
-6.026489110593409304e-01,2.360148356978820916e-01,8.805607420292849152e-01
7.516134356460743016e-01,-1.561901981882771739e-01,-6.637300290053970153e-01
-4.123778227793081230e-01,-2.391619173009504329e-01,-6.608626805108559488e-01
6.503371678370079012e-01,3.818435464697367276e-01,9.109587292466541086e-01
-1.381706541621914863e-01,5.424784282394042867e-01,9.953877730414413261e-01
-8.760326269698016644e-01,3.444541513817987038e-02,-7.067659152694998337e-01
7.916610530266582346e-01,1.494113968888021449e-01,8.923831256311889337e-01
-7.622266297465977170e-01,1.151875151472763065e-01,4.712305907986801823e-01
-6.916687854698931881e-01,5.384617357131914472e-01,5.345357439939752986e-01
-7.723772640706788595e-01,2.094137583761825627e-01,7.603918704455451261e-01
7.789823656239897032e-01,2.258401056537059914e-01,3.921399704387794061e-01
5.855483560750259775e-01,-2.282797979433422164e-01,-5.089373975048362420e-01
-9.476446898981953915e-01,-1.780048494471981879e-01,-7.228440444936242715e-01
7.373085252022111291e-01,-2.644298851263794659e-02,3.186105674717296110e-01
-2.329668879431075756e-01,5.585012443363213119e-01,9.768781626274999352e-01
7.872273970190333259e-01,-1.686025777965948214e-01,7.510092260156815691e-02
-2.998257448320802987e-01,1.838128734914339923e-01,8.832696750752903059e-01
9.405227837449846584e-01,-3.589539426846997117e-01,-3.081104036431317125e-02
5.535401373078988607e-01,-1.766918324674010832e-01,-7.693795573927199039e-01
-7.441978537658224813e-01,1.839747935862029449e-01,1.573663942766889146e-01
6.012823515157620369e-01,1.112154047810501867e-01,5.028194344730433363e-01
4.950490034475245604e-01,1.000379716318385154e-01,6.537849350564202133e-01
-7.167579711576197443e-01,5.429388296572031924e-01,6.294674560118302953e-01
-3.053727459130876065e-01,2.028177518532733870e-01,9.537240597640013196e-01
-1.961424116508030113e-01,3.124339220152789753e-01,1.095487755235858840e+00
8.232131695069309085e-01,-6.730219172827274499e-02,-1.234386533140126446e-01
-1.029229709565451234e+00,2.558437711013957783e-01,5.165180494188954530e-01
6.990146069166662812e-01,3.071707648524575340e-01,9.135682283647866830e-01
9.094552316134192349e-01,-2.558318796104473436e-01,2.243600101692553306e-01
6.513925778502105413e-01,-5.104931670538851440e-01,-5.118149261131316186e-01
-1.388371144120384149e-01,-1.909042610945972385e-01,-8.153559119126402299e-01
-6.406607449030294887e-01,5.632528452388355644e-01,6.059849320620126489e-01
-4.306849810283550767e-02,1.912615301982280858e-01,8.254479936909936422e-01
3.316626862663751285e-01,4.906412446006161443e-01,1.004642741272647966e+00
