4.283159106225742363e-01,-3.814082924568195643e-01,5.697866513318550208e-01
3.955609839725919841e-01,-2.927314548808447325e-01,8.283455934304250201e-01
-6.468847893191991272e-01,3.207433259703389994e-01,-5.233775430703238030e-01
-4.051325974976042188e-01,4.290687992017801905e-02,-6.971955948309882523e-01
8.686638312175330723e-02,9.779070212295585263e-01,3.558509118373222035e-01
-1.960738430689549228e-01,-8.665627108179730920e-01,-7.831092633924074953e-01
-6.582912224853966210e-01,7.305368067332577153e-01,-2.170592364732977786e-01
1.505922617714108847e-01,-7.793860034824473537e-01,-8.969420870796035450e-02
3.840923419930910021e-01,6.706155584259986258e-01,9.135967793244678115e-01
5.076056753540285627e-01,-5.158420622004215028e-01,3.759953028291612709e-01
9.064348009091119374e-02,8.758919936073286117e-01,7.905633020815439060e-01
-2.548650319649578555e-01,9.794951826901824310e-01,-2.073412262680683626e-01
6.249046483291172960e-01,-9.003425184085728228e-01,6.628833531168944193e-02
3.127091403402451064e-01,-1.083773717950655024e+00,-3.216628884288115220e-01
6.178478758070707899e-01,4.418117103053936789e-02,6.692833456591720243e-01
-4.422846246837486839e-01,6.362238985507803202e-01,-2.315212801788876507e-01
6.999196571221237041e-03,1.026387918056986148e+00,6.342957160396474059e-01
5.184984409876438605e-01,-9.180080305772156946e-01,-1.318484649937922137e-01
-4.494104821242162484e-01,-1.870282940438587338e-01,-1.063160705567992581e+00
3.505343128984608203e-01,-7.114043881367708710e-01,1.325264767676190003e-01
-2.062249546526739863e-01,-9.478693678312147819e-01,-5.954976952607284879e-01
3.203047253792082327e-01,7.659223969104648200e-01,6.286708450856596242e-01
8.086072173143159236e-02,8.515241323002438190e-01,8.178161455171539806e-01
-1.180763938145196618e-01,8.681223890249969433e-01,8.830734072847112870e-02
-1.479264071656149204e-01,-9.856325493592746900e-01,-5.515521992413974228e-01
-6.667156067459557578e-01,9.114342773115104990e-01,-2.830464800936582925e-01
6.879647875920705813e-01,1.493977016997163898e-01,7.974368323844086559e-01
-4.882291911342314661e-01,-2.669591203576731631e-01,-6.728285695285015633e-01
1.560411183563239872e-02,-8.578691918242697945e-01,-7.633442319390016939e-01
-6.528127630573665741e-01,6.301343089484613413e-01,-7.663380880471305501e-01
-4.732983615304968694e-01,-5.052288399460714841e-01,-9.562794400584259114e-01
-4.481407205449134401e-01,-6.738911964678648836e-01,-7.859195528939044717e-01
5.754955881929240125e-01,-9.725782329994983044e-01,3.874630504724587143e-01
5.004767347108070030e-01,-8.271403508326178322e-01,5.853806588309619086e-01
-3.305760351356207827e-01,-4.300650379625329811e-01,-6.377757861686795815e-01
2.096258905137810824e-01,-9.110026288123936888e-01,1.586536577430489592e-01
-1.661088499661278195e-01,-3.960903441594521568e-01,-6.714738940457614103e-01
7.682858636874163594e-01,-3.014046074107109563e-01,6.941190968029311570e-01
6.781410974468367048e-01,-6.143809989499547930e-01,3.016345591963471295e-01
5.934568620822718854e-01,-9.349461567639897330e-01,3.391069203488887573e-02
-9.208024631806682736e-02,7.677920242757666491e-01,2.834879456449637125e-01
5.427596312055276151e-01,-7.079848114338772591e-01,7.265995925428717639e-01
2.383236724518029981e-01,2.873670768380017781e-01,7.441274998809930263e-01
-1.481721595254775758e-01,7.181582626991368512e-01,5.110295221219117723e-01
-3.013392566545236573e-01,-1.183441071703396907e-01,-9.791768995305726309e-01
-1.793919872520365333e-01,-5.824350986127192487e-01,-9.764374433906365391e-01
5.795247882910240511e-01,-3.559690029015708523e-01,5.033231872259968931e-01
-7.515992122927805941e-01,4.710107878217145716e-02,-8.186228359475439254e-01
-5.466073259043513488e-01,-2.249102553652471137e-01,-6.871449377353038290e-01
-1.960688133940627631e-01,1.107542974217764931e+00,7.322510650222865958e-03
6.988045941232008396e-01,-6.138751878148335228e-01,3.442115735363033280e-01
-2.339589018173320045e-01,7.393998448057871320e-01,1.962857672897976857e-01
7.152153892982968664e-01,6.631149457139348669e-02,7.765822236657483613e-01
-3.770558988524700395e-01,8.868053056453047978e-01,3.402065058576944634e-01
-4.583159398863893008e-01,-9.130763422747928404e-02,-1.085627009651311425e+00
3.871782230316183071e-01,-2.947569150592204146e-01,7.737398908978578849e-01
1.860908565559061534e-01,9.429132240799259490e-01,4.784715780489036674e-01
5.597316263774029799e-02,-6.393860735522165495e-01,-5.957996675194934255e-01
2.277000197960948186e-02,9.116602811972764897e-01,2.448327116581275054e-01
-7.382218092765365780e-01,2.317507200502089970e-01,-8.993168171597077931e-01
-1.921842895096283477e-01,-7.240579270600574491e-01,-4.636586120709088044e-01
3.801124507270765840e-02,9.148471125278742067e-01,7.660300308433694028e-01
4.197086115108043525e-01,-4.173442914742878651e-01,5.639109121501627575e-01
-2.066329405220597715e-01,-6.322584118267440267e-01,-5.169143517079985983e-01
-7.718457298562165780e-01,5.535633943565750892e-01,-5.848973253786248216e-01
-7.026386038119931954e-02,7.980811554768121319e-01,7.574022212474933458e-01
4.244935929705406785e-01,4.073707753930257414e-01,6.477066787352248056e-01
-6.325814318949015691e-01,9.634110827987280024e-01,-1.884770068142279098e-01
-6.669047576596872640e-01,-1.800592853900781776e-01,-9.058590938506725365e-01
6.176342806852257450e-01,-7.170324441278730365e-01,1.910314665739080708e-01
2.831794385785647572e-01,-1.147749251170467888e+00,-1.819760102230100485e-01
-5.116049576390715448e-01,9.284569525594428274e-01,-5.159758246591390485e-01
1.258853871649631417e-01,-1.091196416888481346e+00,-1.434457777588721006e-01
1.154742601855225925e-01,1.027617368631500216e+00,4.897183323843811165e-01
5.945273220113986845e-01,-8.540035032381657620e-01,5.813588773413089772e-01
-5.439376594475898719e-01,-2.861389767909899851e-01,-1.035308811273278451e+00
2.715960338236419469e-01,-7.609170140351935174e-01,3.611030013312391956e-02
-2.727142086062824822e-01,-2.211814946208831845e-01,-7.434569802397071880e-01
-1.699674421627032084e-01,-9.528686497136330535e-01,-4.465799889371505627e-01
7.453105855481724495e-02,-7.723666717502322143e-01,-2.194834804915053450e-01
4.129602260689415050e-01,-4.207067597466790931e-01,5.420417982804989210e-01
-1.463258638913412790e-01,-5.665862803302472717e-01,-5.713561378249057965e-01
-6.834475756991802153e-02,-9.142630223023403557e-01,-2.999072530533415937e-01
4.149620053585326152e-01,-7.589698233782320447e-01,-7.074639415085660910e-02
-2.366194146153373923e-01,-9.171326082620555598e-01,-6.604172493758490026e-01
4.536711952137141846e-01,-4.051222892663612907e-01,5.431392806535364493e-01
5.674778269471997261e-02,-1.093379795956048284e+00,-3.260206816819763431e-01
3.816175999841689981e-01,-8.108874715668779043e-01,5.233347576199374185e-01
4.330984794706318475e-01,-5.243742021626680572e-01,4.670595790730422414e-01
-5.872723407411912372e-02,6.772424101933773866e-01,6.556762487043121812e-01
7.080098652887336641e-01,6.361255589238692942e-02,8.990068741748235004e-01
-5.371463001004399551e-01,-4.655055528698159306e-01,-7.399179826612338751e-01
-5.292482903455082432e-01,-2.388191432257692759e-01,-6.839353244469200677e-01
3.730090798154476750e-01,2.752764472110504346e-01,1.068078803896244766e+00
-7.495524199624222783e-01,9.408898328264754529e-02,-8.174005268648495415e-01
5.630191679850390374e-01,-3.800988965441798925e-03,1.055254781018153842e+00
4.170362781164111965e-01,-1.032340875585227247e+00,3.318100272563113684e-01
-5.280673712029388955e-01,-3.229705598488109564e-01,-9.876964733123237972e-01
-3.487990371584243632e-01,1.131114427281362467e+00,1.964291362411784217e-02
7.804662352319468033e-01,-4.963246931558617514e-01,6.940304122527807262e-01
-2.486380773174392544e-01,-6.023270814675449891e-01,-9.761114069974416996e-01
2.921603420710977006e-01,-8.825782520107501306e-01,-4.679826465750531739e-01
2.649519522053056519e-01,-1.097995518501073686e+00,-3.954407185695436033e-01
2.884454256986708764e-01,-9.074398773327172485e-01,-5.151527177671415547e-01
6.800506533277380639e-01,-5.527631576390187179e-02,6.594077323484627273e-01
6.329575909797978683e-01,-5.486918925778889733e-01,3.539563629958633606e-01
-2.441997229526531032e-01,8.447786165598663022e-01,5.647766855044717982e-01
1.127119339556472040e-02,-9.128127643755132858e-01,-7.467303744048148229e-01
6.974059932241266635e-01,-7.941118210894164697e-01,3.472793182834376102e-01
1.604023934447046940e-01,-8.968002127920199351e-01,2.654934710582372917e-02
3.752811255337790697e-01,-8.490956048229532094e-01,-3.109467436836946264e-01
-3.893916175100504140e-01,5.344228413373495190e-01,-7.104495088479652054e-01
-5.051410002476954819e-01,9.688020596793625594e-02,-1.030317217400479768e+00
4.683681182400277754e-01,-5.083158314540612288e-01,3.976596452157769024e-01
4.688668565706380353e-01,5.403471512490474193e-01,9.481286056606762491e-01
-4.638927740108482745e-01,6.977713316995487469e-01,-6.338030293822019545e-02
-1.253142305738354223e-01,7.690986895707344617e-01,1.864029259807756800e-01
3.975765527710702352e-01,-4.510140374038792976e-01,5.358222671822349126e-01
2.331375679153975186e-02,-6.425269998343006161e-01,-4.838603546372186037e-01
-6.425684958553943282e-01,9.307671716689573937e-01,-3.605010220963028589e-01
-9.019929044189706202e-02,6.726933057839591390e-01,5.751898206798788937e-01
5.940828034712025696e-01,-9.754678823760507544e-01,4.239287997914081840e-02
-3.617874063890385572e-01,-5.947427936682018190e-01,-6.083514046704632250e-01
6.141710134249426245e-01,-3.953497094163512804e-01,4.896349130514580650e-01
-1.508722204545899850e-02,1.052889613808554614e+00,6.049938725428675168e-01
-6.417902175774944373e-01,-2.510698054748879415e-01,-8.024113224422774193e-01
1.058379437348775515e-01,-9.789115260026476362e-01,-6.582884088565448266e-01
6.168091860093511958e-01,-9.833359382520271419e-01,2.947949922851436089e-01
-7.013194034709504532e-01,1.717959962026388912e-02,-7.565722000586715401e-01
4.089138063998940531e-01,-4.962214543868899708e-01,5.460806737697632141e-01
3.915417253053520841e-01,-1.855086286442577947e-01,7.184874979464667133e-01
3.475430100232664299e-01,-2.626100395630286133e-02,7.784737522259886910e-01
-2.461291914701844216e-03,-9.857753354324008122e-01,-2.367552943778739039e-01
-2.827756322772714825e-01,-1.868476088868858964e-01,-7.881429972740138234e-01
3.499822454119855264e-02,-1.012995428486656468e+00,-6.519972447711426256e-01
5.000996143176166253e-01,-8.857128089360672973e-01,5.341152276488481121e-01
5.379566944229400294e-01,3.634624302965992482e-01,7.346077518236494575e-01
5.361695153521338353e-02,-7.196741454928172743e-01,-3.530576140689675735e-01
-2.919877978079944980e-01,-6.018106236172040546e-01,-9.961742788960271655e-01
1.095872110581757042e-01,-7.353219942896531691e-01,-2.680647150989375893e-01
-3.676973511736652545e-01,1.733507144698989144e-01,-7.980195048498680555e-01
-4.032643783191804387e-01,7.273163630276486824e-01,-5.724393356830218549e-01
7.195485482438994662e-01,-5.119562258398669546e-02,7.626931354620353209e-01
6.803886756620614040e-01,1.197109537644319432e-01,7.952790767945195904e-01
4.472165066007717793e-01,-9.578017740696622706e-01,4.028132906424281567e-01
-2.906967337762203507e-01,8.714777930570687392e-01,-2.627307289049939931e-01
2.870140768009667998e-01,8.099462453521812932e-01,5.912935607400875426e-01
-5.013122237149721938e-01,-1.651595579559063387e-01,-6.592443737058993891e-01
-4.361656086176774472e-01,3.723767042083842571e-01,-8.815797022736894251e-01
1.887914588542768113e-01,-8.974954120868573471e-01,1.104746589935402534e-01
7.476294179980038646e-01,-7.365468429272156170e-01,5.264414135925086224e-01
-1.517784402866562965e-01,-9.144415691993501571e-01,-3.898593878945835756e-01
2.362025566646259664e-02,1.038878597215541433e+00,3.072171724732779552e-01
2.282787156595819933e-01,7.540728188339521632e-01,8.962138183796705126e-01
-3.770438460102800704e-01,2.720649655411980228e-01,-7.497999606457800281e-01
2.059031540156462947e-01,4.410303138764580799e-01,6.172201223813839066e-01
2.205773678868004350e-01,2.886028516063463001e-01,7.679563572439176422e-01
1.685692011168334059e-01,9.508937926567070376e-01,5.175739290923241365e-01
-6.510776401455417028e-01,-9.086457685327065104e-02,-9.800738684688645730e-01
-3.672081890101366874e-01,-3.431260520791549751e-01,-1.050062471864506408e+00
6.537966563110370055e-01,-3.117130050995107204e-01,5.414592723640389016e-01
-3.513866112034131906e-01,6.273320642906605737e-01,-4.328391800863421457e-01
4.705125742894631924e-01,-5.578254125623023363e-01,3.215068948781092950e-01
3.739224432458193581e-01,-2.046830544253156192e-01,7.810233877980699013e-01
-4.864732688946155070e-01,1.038014967263464206e+00,1.424311664602708194e-01
-4.296304708051408294e-01,1.049136616558330903e+00,-3.172375792673349237e-01
-2.750811148836589393e-01,7.468574109674999129e-01,-2.118102820854429469e-01
4.904483036421966591e-01,-6.454985643550376073e-01,2.133159187078517982e-01
2.716543516186386564e-01,-1.147228081652017950e+00,-2.895813693230573360e-01
-4.329576964255958393e-01,-6.830655658172003486e-01,-8.449705539559315692e-01
7.445699628660747971e-01,-4.116978075259017378e-01,8.414318987086512047e-01
1.646822438199083416e-01,-7.706743005635318111e-01,-1.615339227154452273e-01
5.757734459969252594e-01,-2.960003220390366452e-01,5.477201449304563985e-01
-4.097085370230088563e-01,4.992130707516088117e-01,-4.870136708149502835e-01
-4.992135895142471025e-01,3.859057261287279772e-01,-4.943165202103087519e-01
-1.038204403205004039e-01,7.223930929127183598e-01,3.983232979190717837e-01
6.474921145758174568e-01,-8.859058711428259292e-01,5.060745906980641529e-01
7.390994880566076342e-01,-7.312708146011250854e-01,3.613117044460021909e-01
3.425471538065525956e-01,-1.110599947404133037e+00,-2.137453407408758943e-01
5.112385263380990752e-01,1.810898135652646290e-01,1.077122491930484482e+00
-5.049144963636065242e-01,-8.774848546357787160e-02,-6.649397475332224916e-01
2.598128323278888208e-01,-7.497832008335354459e-01,-2.019265205286459863e-01
2.297039933600770190e-01,-9.197736425212410527e-01,1.584279749291328254e-01
-7.260146955992865525e-01,8.172708809210503800e-01,-4.260260918603612224e-01
-4.685680491159959632e-02,1.095993822078793700e+00,3.904313946328711316e-01
-3.565543380129290729e-01,3.147813342412419946e-02,-9.690095464707909612e-01
6.035162974425966054e-01,-1.333880235245736567e-01,1.010790565762048843e+00
4.489966131292589258e-01,-2.574837143880339130e-01,9.526104700620439125e-01
2.130708308400434126e-01,7.681428304710239408e-01,8.948939175357153442e-01
-4.542798302893381601e-01,6.104757884922196176e-01,-2.388301681213341465e-01
2.682179293464593828e-01,1.256171517426611928e-01,7.984071592998120970e-01
-5.253007591284626632e-02,-5.262685591943987440e-01,-8.068006989138353235e-01
4.241384861230610426e-01,6.065757419253586802e-01,9.165354921215767003e-01
2.067014858324647542e-01,2.845478415472535438e-01,8.808531760052487058e-01
-6.346224954920919314e-01,9.881697201796904584e-02,-1.016070458138590649e+00
-3.283023932905010933e-01,7.572816395914837573e-01,1.805513151540576733e-01
-4.344936435952038711e-01,-6.014367802350287784e-01,-6.946226151930758874e-01
-7.604363540865669013e-02,-6.842673049666709861e-01,-4.175845790038762995e-01
5.829645787930947121e-01,-1.003502343008769948e+00,1.309581609991474493e-01
6.174358241737221836e-02,1.047823414854021307e+00,5.108042638083830633e-01
-4.998130476547211765e-01,5.212801599855554358e-01,-3.692212259980596212e-01
-6.230303827229577429e-01,7.471116381195610501e-01,-1.347584567183815474e-01
-3.656106486123686938e-01,-1.063647498706214028e-01,-1.023572466842160189e+00
6.081929996985537823e-01,-7.795634215330571326e-01,6.497200531760498610e-01
5.099464365547933253e-01,-9.019923219007823789e-01,-1.623428101415852198e-01
2.595648506819364654e-01,-7.966040990931700927e-01,-4.387485884426302052e-01
2.938541220288410361e-01,4.559015852264828306e-01,6.361683559314859071e-01
3.114784757614216804e-01,5.632700694060052138e-01,5.900869964365090814e-01
-5.466559041673048069e-01,5.940598716671492419e-01,-2.602897119403770887e-01
-5.103035698537186082e-01,-2.460657655167734215e-01,-1.060584758545775053e+00
-2.661318992805379313e-01,7.477619817243873479e-01,1.196304793054865784e-01
-6.848233323759855828e-01,5.905254578069746296e-01,-7.776590481502493324e-01
8.583341973696295701e-02,5.021009567988065081e-01,6.550650729175586662e-01
-7.399998154471358891e-01,1.167207068481880411e-01,-7.642445429445082761e-01
5.794995766948621840e-01,-3.490616559753160209e-01,4.854162989848612164e-01
5.369783317901435371e-01,-1.057561223756248392e+00,3.051827422793030875e-01
3.706521358116225406e-01,5.878620146353995546e-01,6.126884132922773007e-01
7.122545923612192027e-03,-6.715524307774975998e-01,-4.317070877392599759e-01
3.991584332021401726e-01,5.461666772475133325e-01,6.309445267649353983e-01
2.930107471683175424e-01,-1.134781781415577395e+00,-2.027232589034594079e-01
-5.580102275959668567e-01,9.519356926420922127e-01,-4.411992245722808903e-01
-5.100592447512195537e-01,8.336152432888734864e-01,9.224802792925959616e-02
1.896646922702609483e-01,4.087117944652293722e-01,9.581816881035836175e-01
3.523118312191946266e-01,3.461833566416867569e-01,6.653149987373184748e-01
7.564261715795785879e-01,-5.357377139905665775e-01,4.966607066663585313e-01
1.182674450381395043e-01,6.003135922194000607e-01,5.136504143879441209e-01
4.834648451115908241e-01,-2.042785033318198773e-01,9.836526470115831700e-01
1.333988868166247344e-01,-7.017137237745508793e-01,-4.201998467570395301e-01
5.792706734295623994e-01,-6.647617210412858357e-01,1.868338377367710634e-01
-4.816296195633614219e-01,5.022974262676491719e-01,-8.436383632932553667e-01
4.407712145931974024e-01,6.389463196783036203e-01,8.728474247838048372e-01
-2.772198585107809587e-01,7.818495476603222194e-01,2.819520930924710456e-01
-4.148336260111926688e-01,1.684368167369174329e-01,-6.739461911383853865e-01
-5.665948710458240667e-01,2.189756525822412203e-01,-9.972187697715676480e-01
6.765703527583251109e-01,-7.268052742257449239e-01,2.457776466567088702e-01
4.572763566968421900e-01,-9.707994408186571000e-01,-2.204110793898443887e-01
-4.403580169850956211e-02,-8.585495992726142056e-01,-7.977071374333920550e-01
-8.035116352253225680e-02,-8.610953356185024887e-01,-8.219707793017885233e-01
-6.089039259292046147e-01,4.835047969274181567e-01,-4.172006038025384278e-01
3.123001570322914144e-01,-7.291080154805807956e-01,3.577544706578797973e-01
1.125661603229071855e-01,-6.817361911660705376e-01,-5.113157164246623365e-01
-5.255197129183226679e-01,7.284898296782048588e-01,-6.914680228953590246e-02
-4.186709481167058544e-01,7.957650244232251646e-01,-5.535288903906029345e-01
4.564234745108254887e-01,-3.467952858856697129e-01,5.695013124415496675e-01
-1.945563963594288380e-04,-1.073316328656099161e+00,-2.888765746545953195e-01
3.210018008185595573e-01,-1.043914740946503272e+00,2.198169536311563033e-01
-5.326068787090051382e-01,2.845584470376710251e-01,-9.695619564057711415e-01
2.800328687868005040e-01,-1.106400676727278709e+00,-3.878620216945074528e-01
-1.258778226657935873e-01,-4.876568917312666396e-01,-9.115037417553710775e-01
4.847887599270636616e-02,-7.899473571746473688e-01,-2.209355981288053661e-01
5.732515256652473967e-01,-7.513411079836904705e-01,7.098531899136836798e-02
5.566423959566968449e-01,4.779099175712410164e-01,8.593952772451793898e-01
-1.070705301795562697e-01,9.742742369900172505e-01,6.560604771195573948e-01
4.023632745636347430e-01,1.130890421757738962e-01,6.776041046739310625e-01
5.212057343914212604e-01,4.858128558982627299e-01,9.852621718639542614e-01
-2.465214266723960435e-01,-2.343612553230305651e-01,-7.610326361566573938e-01
3.865460143120216241e-01,-6.535206208201300715e-01,2.194878091318108460e-01
4.082195740124906491e-01,-5.983667658610175577e-01,3.598634630319225147e-01
-2.582341195048530325e-01,-3.483028591980509847e-01,-1.011616419039596648e+00
4.750941582435727617e-01,-5.600897564578202203e-01,3.491586420481232467e-01
1.332896690630014369e-01,8.216929558996612926e-01,8.501837502420934722e-01
-7.835921178372493578e-01,3.744947264260231612e-01,-7.158520217891242154e-01
6.770174630721124132e-01,1.158069183220699072e-01,8.188295374519500847e-01
-3.756205985176442885e-01,3.151186524742747297e-01,-7.832546433724512092e-01
-1.955018968250747946e-01,8.607450584489659828e-01,-7.947671144558027256e-02
-5.575805406810645237e-02,-6.523624446909255248e-01,-8.849197746124266573e-01
4.173509441263918429e-01,-5.859646484278114853e-01,3.294947139256634294e-01
5.008995537956754118e-01,1.553382364036241248e-01,6.626912949188030755e-01
-2.351972301936798571e-01,-2.171037023857094461e-01,-8.317081609778483875e-01
-3.494471099000538428e-01,9.419635296927196810e-01,-4.114155986054000014e-01
8.568901380809604632e-03,8.970101930275194979e-01,2.348040319995443881e-01
-2.347635596349457177e-01,-5.913601046537235728e-01,-9.694369650179478493e-01
-1.698692783328817901e-01,-3.705033180726707287e-01,-9.001624349487009624e-01
-3.297108998652896750e-01,-1.811421259506692735e-02,-8.682410037138307279e-01
-5.512350999777428928e-01,-4.359602284207592660e-01,-8.951418690881792761e-01
5.151776239763045107e-01,-8.249177549690744904e-01,6.135155161893558473e-01
1.635022787659822507e-01,-7.264942884673033507e-01,-5.062122224378793334e-01
-3.663124946626587497e-01,1.081455673053607347e+00,-1.633304167171691634e-01
-1.641662621811162126e-01,-5.789431939798124205e-01,-5.509575235098067569e-01
3.787915812047400466e-01,-8.401115347273805378e-01,4.872626161405682055e-01
-1.063278356765491317e-01,-5.505251924484620973e-01,-5.668925481607181016e-01
-5.370775232725786275e-01,1.165944324287400968e-01,-1.042905931555299981e+00
1.227291508043785312e-01,-7.051316597562029553e-01,-5.442846753407889482e-01
6.962604031951568073e-01,2.580424965823480132e-02,7.290800325212719590e-01
1.527908000809859168e-01,3.695499833399343848e-01,8.150299869387416241e-01
-3.078712264094493056e-01,1.134996239928105277e+00,-4.457243283048368220e-03
1.146077500685900308e-01,9.895729992012658460e-01,6.497022555108530328e-01
-1.468703319190848844e-01,9.178896801800126015e-01,-1.527201901453882280e-02
3.574634278669542309e-01,6.217029389258929006e-01,5.960223983751001819e-01
5.598719573984679565e-01,-4.860931808385989261e-01,4.196968078521811085e-01
2.350870005572361643e-01,-1.072644253112199353e+00,7.003579649362703941e-02
-2.853487796838881652e-01,7.540129295191076997e-01,-1.777385427718358168e-01
6.836381509637058373e-01,-6.499005344643619952e-02,9.955692886134497321e-01
2.219755593906054189e-02,-7.202139755035367186e-01,-7.947458152862652003e-01
-2.364678834225869275e-01,-7.951283437771988760e-01,-5.086607735839894229e-01
6.077004182007819111e-01,-4.656239168761874825e-02,6.526225782405352671e-01
-2.398589158485525674e-01,7.445041425877149122e-01,3.259306459132758071e-01
-1.148514907790255807e-01,1.022039663093754269e+00,5.815500290626341995e-01
-3.567442232571726435e-01,-7.750419886718777629e-02,-7.138695773233754149e-01
-7.868176761012167786e-01,5.593485029561149346e-01,-6.452483795007313283e-01
3.191322341262705087e-01,-2.997602769697296429e-02,8.600819938334067771e-01
6.220283442134509899e-01,-3.613677615318680592e-03,6.492843463196962261e-01
5.938312928594263740e-01,-8.453095312997242761e-02,6.431864631009878153e-01
3.286463985593370274e-01,-7.262442933302546422e-01,3.834716792170735911e-01
-6.972940062771717518e-01,5.355641312430017287e-01,-3.639510522661872916e-01
6.686841567132826292e-01,8.317704017391906735e-02,7.510046210042320425e-01
-5.332415755844471805e-01,9.227041247568247284e-01,9.786711230434747000e-02
7.964492859038618811e-01,-5.186811474658890031e-01,5.922617707846660196e-01
7.435212029603698036e-02,8.564364411173536196e-01,8.202219182793151209e-01
-8.169856779194155372e-02,-7.549536989859879643e-01,-3.788887716143968243e-01
-3.733856357407631665e-01,5.769631206923450106e-01,-4.922773859859754797e-01
7.045243015444474510e-01,-8.412476604365534127e-01,4.833243833291531732e-01
-6.174558611205136494e-01,8.499278676301982305e-01,-5.801162179562386889e-01
6.606911713369661987e-01,1.619096479310913050e-01,7.820996046476331731e-01
6.805379133846582995e-01,-2.724324072856616485e-01,9.597058043476690559e-01
-3.142071465843989664e-01,-8.339348631896544850e-01,-6.694495300436467122e-01
-3.590467067886242702e-01,1.347142746023059223e-01,-7.901637221982972248e-01
7.480773406068034204e-01,-7.549930651895547795e-01,4.779026499745026579e-01
7.369369448588867222e-01,-2.226427091163289129e-01,6.456285933942397248e-01
2.101122793059208571e-01,5.888056777374119921e-01,9.760092317455393296e-01
-3.435046225686323035e-02,6.446764317459140470e-01,4.976634732184418985e-01
-3.715699689372401610e-02,6.925757727293304633e-01,3.874256487143852845e-01
-1.896378986309786019e-01,9.759556716759449913e-01,-7.896829515442116421e-02
5.437510977147721469e-01,-9.853454171035703757e-01,-1.017863685529145634e-01
2.980556176855735928e-01,-9.632848891297931537e-01,-4.772472658054882633e-01
-3.392164440814470217e-01,-6.302234527358038241e-01,-9.867185613897687668e-01
5.891274892757548676e-01,6.382636293227840485e-02,1.046318881096329534e+00
6.262950772687474466e-01,-5.949287989553028178e-01,2.871807566059111916e-01
7.501447058207328933e-01,-2.366288199586817076e-01,8.897478477993232548e-01
-6.496256789999629300e-01,9.300827273266586426e-01,-3.670745905528134401e-01
2.922102354557695736e-01,4.132179778804435655e-01,1.033186272962361762e+00
-4.662411142161148603e-01,-3.638716008192722784e-01,-6.555022106693321193e-01
-6.433443585934457420e-01,8.032595141426470686e-01,-1.471748640063197666e-01
5.441623980775199543e-02,8.206153345698803392e-01,8.220401554502837493e-01
-4.108197443516897751e-01,2.720880049993059102e-01,-8.513926551635654372e-01
-2.859535267251491208e-01,-8.423647523878144971e-01,-5.820381553655592510e-01
4.385625725965745514e-01,-3.760772597872938383e-01,8.737021485210461069e-01
-4.818824195070512406e-01,-4.371073622731224129e-01,-6.831199393047335811e-01
-3.231830595016951801e-01,7.174016788304842240e-01,-3.189812268203406354e-01
2.019981388119604926e-01,-9.537731926602399657e-01,1.501966838065683374e-01
-2.101107862492620354e-02,1.033057908763850063e+00,6.006915286032994405e-01
6.835765529062408641e-01,-3.272444642386280189e-01,5.532410517380872417e-01
2.293997962470856189e-01,3.049666636415097054e-01,9.448637613935830792e-01
3.939145296314688349e-01,-4.131920198190333071e-01,6.739761074146590758e-01
-2.785963209986944134e-01,-1.304242772244556536e-01,-8.951424848561104763e-01
-1.927492044615227718e-01,-7.629250258597780610e-01,-4.662316136447730019e-01
4.644916060292539339e-01,-4.660239503368218128e-01,4.605970867296854121e-01
6.850276172598158686e-01,-8.569537341759009275e-01,4.428443692923069164e-01
-3.430313186745224951e-02,9.653329604639176997e-01,7.039185724653476139e-01
-6.405887604349039810e-01,-7.504346114743504215e-02,-7.260295337111042357e-01
4.472245486941205939e-01,-6.774686939194735080e-01,7.083708910976772577e-01
7.921798395419443750e-01,-5.241670899040411502e-01,6.193457199512021338e-01
-3.889442800881129370e-01,3.576764865007979743e-01,-8.049589851190164236e-01
-4.750327978456084788e-01,1.088605132870080539e+00,9.132696031895626287e-02
3.540192847077595628e-01,-1.082405215648663432e+00,1.947121348721276290e-01
-3.538962850790201009e-01,-2.354814814399733280e-01,-6.746099913318946983e-01
-5.810860831891209166e-01,7.402600717040875855e-01,-7.200184084165849319e-01
-7.214008643266203169e-01,2.382737020462920297e-01,-6.257512528893218740e-01
6.762272334258805362e-01,7.879409318585640920e-02,7.313747610600686011e-01
-5.600681251418510032e-01,4.316344425144411634e-01,-4.566286139856021165e-01
-3.114502518705067335e-01,-1.819916344995537727e-01,-7.415713478823018345e-01
-1.179770071935577341e-01,-8.908196275930798658e-01,-3.430083412057085002e-01
-1.219097444766773369e-01,7.345400866087291591e-01,3.726585906990740327e-01
-5.115353231592676408e-01,4.783104951542418992e-01,-4.102455239833706635e-01
6.654218055475497051e-01,-6.184833746606103189e-01,7.984812017816669272e-01
-6.638481409902050601e-01,9.126536111423557696e-01,-2.656951135475865700e-01
-3.921365028167133060e-01,5.054267412212213317e-01,-5.153711717275071269e-01
-4.461795174498312533e-01,6.571175371214039718e-01,-1.577940788122242921e-01
2.335598402302371465e-03,-9.346951490992636558e-01,-2.055602002008259099e-01
4.130611819777145755e-01,-8.292973320866773301e-01,-2.514826996832317807e-01
5.379566747569579643e-01,-8.712186631441769524e-01,5.448737181310907562e-01
3.608181608676108709e-02,6.439183740387295352e-01,4.684327438120382547e-01
-4.176454670942343350e-01,8.678886366425692112e-01,2.590277911747047024e-01
-3.649457356483606224e-02,9.622464084183245392e-01,1.224470544645561432e-01
3.459780985470337078e-01,-2.030252505397078452e-02,7.951253593635312367e-01
-4.583117735289293226e-01,-5.995171991735014361e-01,-7.360897732673874483e-01
1.590576637816053795e-01,-1.144008443251133267e+00,-1.932377315469004930e-01
7.298607737569265952e-01,-7.301366634691524027e-01,6.214599191684588853e-01
-6.433430954682688441e-01,6.255122650499715942e-01,-7.921473172748060287e-01
-5.031895191801970535e-01,1.632255047184218988e-01,-6.194153862443325664e-01
-2.637728673724212825e-01,1.122137160239164322e+00,-2.857729171552501890e-02
-7.183457325862666609e-01,5.720187797002983521e-01,-4.268106529589389964e-01
-7.566319563898694645e-01,1.653435101724239631e-01,-7.950906651160541960e-01
4.555628070869289226e-01,7.689619450970197612e-02,6.761899848663949220e-01
6.385256515630017837e-01,-8.926931755322642381e-01,9.473562057399871617e-02
6.487822946936233626e-02,7.479745649377818051e-01,8.534298652047499489e-01
1.560147638509756240e-01,-8.984284451102814151e-01,1.098914182212533570e-02
-1.746210733590702335e-01,1.134341014700289030e+00,1.336885661197570185e-01
-3.104639014649955286e-01,7.451944023678199747e-01,-2.271078814639466703e-01
3.923166115483869149e-02,-6.984805492655337122e-01,-3.821032405619557704e-01
3.401585982286716159e-01,-9.559621660988973924e-01,-4.095896779369300744e-01
2.815195069832143737e-01,-1.126341616002172419e+00,-1.048037942267208145e-01
-2.291348750934813217e-01,1.035611657108276074e+00,4.940449679565242502e-01
3.242060683801299414e-01,-6.965409978424257353e-01,2.300647913202422956e-01
-7.766998157892478494e-01,5.285652271251838341e-01,-7.018965347658620013e-01
4.974547873229986927e-01,5.248015286893467080e-01,8.904856675442106573e-01
5.797271149091304254e-01,-6.559741761492093870e-01,2.180785125036204530e-01
-6.398769888846121967e-01,5.446342840642092176e-01,-3.813636107528206587e-01
7.190223986665127409e-01,-3.373348243759291543e-01,9.195502511032733750e-01
5.155406614846933522e-01,-6.997387899643903175e-01,1.074284029193806611e-01
-1.636122513529742195e-01,-7.335709494148783261e-01,-9.006819792083916587e-01
4.703992204886202066e-01,-1.089105271170354161e+00,1.987709451828982010e-01
-6.734202467742698150e-01,4.230008674631153265e-01,-4.574080430075332937e-01
-7.287585913598756404e-01,6.701629642453590940e-02,-7.197579946237163684e-01
-4.302819537739708267e-01,4.669597880790113398e-01,-5.135943075143122316e-01
-1.943691890563823133e-01,1.149644754494259624e+00,2.819857771084436360e-01
-4.334691827000470288e-01,6.906957108908424736e-01,-1.337997515239514879e-01
-4.133829878941799874e-01,1.063878942012695505e+00,-2.463619396890363300e-01
4.273811467578410017e-01,6.637873524814572601e-01,7.499629944429585526e-01
-4.858766267209896350e-01,1.019073068302633223e+00,1.791701250499879994e-01
2.551757173651747479e-01,3.952098338177519876e-01,9.938681349278686294e-01
6.969245627474187632e-01,-7.364227705205343977e-01,6.401722859789862330e-01
3.099890837643711761e-01,-7.459651309910561023e-01,4.495468194005738383e-01
-5.230415232289957750e-01,-1.772492970399908441e-01,-6.785141527422444696e-01
2.841260195305820302e-01,-9.647281002170785547e-01,2.509442705924855299e-01
6.057702994530530516e-01,-5.151629277165687970e-01,8.655131188407516607e-01
4.639927544121931757e-01,-9.242710275006283949e-01,5.071892060599750840e-01
-4.854792181969781462e-01,-1.454018721911539969e-01,-1.058370485729962729e+00
-6.338459270086151953e-01,9.206712324408672377e-01,-4.712634405497596601e-01
-6.361829939424535896e-01,7.121679841654703358e-01,-7.205015976256273769e-01
-5.205341332789794606e-01,6.082016882001064495e-01,-2.441289538367675538e-01
6.784843118307454235e-01,-9.239938497770746606e-01,3.091413373058214398e-01
1.606440603519072863e-01,-7.817590649758057175e-01,-1.891936464546916108e-01
5.595348014046661600e-01,-3.627567049556435497e-01,9.540200311384271492e-01
3.987585477406983547e-01,-6.864595023673663032e-01,1.677458833945257299e-01
-1.000123807853312147e-01,9.628701008974902553e-01,6.353058728541011169e-01
-3.423772301125362350e-01,7.527953031757755875e-01,1.260375946668521874e-01
-5.635486422601398981e-01,6.676138108223843570e-01,-7.705105198774453434e-01
-4.840513240354463731e-01,-6.295310773193744103e-01,-8.090992951455061588e-01
5.987545961804248140e-01,-1.475049018297513725e-01,1.027362690438314408e+00
5.175021604442916479e-01,-3.056650563067340176e-01,9.522157524523705563e-01
-3.089065157699454889e-01,8.019145273952982267e-01,3.547569683093376169e-01
-1.640141964302457844e-01,8.292994204135817338e-01,-8.523433639117217880e-03
5.339646204770202020e-01,4.998376768450613072e-01,8.261877419333804040e-01
3.997547117732161981e-01,-3.125013067426576918e-01,8.843401367036340943e-01
4.160680147230517711e-01,2.144936595316441763e-01,1.063242042337349647e+00
1.304250882497606234e-01,1.001166820460573481e+00,5.129797350629854424e-01
3.251616659832632372e-01,3.398526729213552366e-01,6.463815645152088951e-01
3.876774201156802380e-01,-6.835405795813562779e-01,1.674251920305096508e-01
-1.962329372663468852e-01,7.721499375819954603e-01,1.609729363526332946e-01
6.977541451708117737e-02,-7.390932540847393595e-01,-7.547901177901046310e-01
2.827075211921280529e-01,2.276306921652264392e-01,7.270213994847410932e-01
-4.781252314149280758e-01,4.394068265837047793e-01,-4.633445191482963854e-01
-4.002676740372884678e-01,1.131896502830043616e+00,5.350072293260357825e-02
2.831599744763064752e-01,6.740403207178100597e-01,5.391591410268800066e-01
2.971497452246004700e-01,4.759938167140125298e-01,1.023227106913326523e+00
-6.059314854815487372e-01,8.018800791271823991e-01,-7.548159855030371623e-02
-3.868239397210460617e-01,3.676177275145148804e-01,-8.095732862679464459e-01
3.525574753201923817e-01,2.454771529272233299e-01,6.804216433140285458e-01
-6.251666972731503291e-01,9.492781932062410721e-01,-6.301059988326739025e-02
-3.842841153452458136e-01,5.604365923738959809e-01,-4.776820456409013316e-01
1.074807484965263210e-01,-7.294060043207425403e-01,-3.006308029277744986e-01
3.938969905340854449e-01,-2.900450827517727093e-01,6.425308355707493035e-01
6.891820335225631311e-01,-8.429123694235116648e-01,4.800456271374852202e-01
6.113043595827538645e-01,-1.589063879044254612e-01,6.065842763047450958e-01
5.888303583031746502e-01,4.222849630683598310e-01,8.441888958512517860e-01
5.233312410532082737e-01,3.729469152260986298e-01,1.016578644136091780e+00
-6.905379904900423860e-01,-9.825541276862530260e-02,-7.708333175886518118e-01
-1.541772512007231755e-01,-9.319844874056343320e-01,-4.461403192161116360e-01
1.329146678841094387e-01,5.872047235320161374e-01,9.333903373214476051e-01
-5.676931664295237212e-01,-3.092768066790273496e-01,-9.940110022995440886e-01
4.160952782662589167e-01,-8.946562273555389577e-01,-3.122630952815847460e-01
5.597923270241034199e-01,-1.034033735828350231e+00,4.102748013207045685e-02
-3.697081121923669333e-01,-7.743491692620138034e-01,-6.582251074550363734e-01
7.428639613062834601e-02,5.631703643695351591e-01,5.781110887091803763e-01
-6.743372903910782590e-01,1.670418582311468947e-01,-6.189367203699096542e-01
4.681317300053156744e-02,9.908709512595599289e-01,3.006711584040033247e-01
4.561625527619052045e-01,6.172034331236757598e-01,7.091316954373509951e-01
-6.293756734823735544e-01,-2.509910824934079576e-01,-9.636320287411778152e-01
7.549857378345763426e-01,-2.962345503503338029e-01,6.561716957388501470e-01
-1.588327754054587038e-01,-3.902655556419901139e-01,-7.605540039649227868e-01
-2.768993731732629637e-01,1.131126937809147748e+00,6.915602381099311691e-02
-3.676378479126877208e-01,-6.838952805673250701e-01,-6.351328598986256679e-01
-6.137639997181423834e-02,-7.922805366270336824e-01,-8.312498878471336061e-01
-4.609264263788837579e-01,2.853705896549623214e-02,-1.039410311374212137e+00
1.943171010733881487e-01,3.158070719073401977e-01,8.248467652219014790e-01
5.054509051205723358e-01,-2.770801913198376876e-01,9.707246078707274517e-01
2.091643259744800365e-01,4.117820206607668565e-01,9.723425503640082956e-01
-6.412152433141422581e-01,2.051255360305819786e-01,-6.023873581061360838e-01
5.666319042230117953e-01,3.124575826862817096e-01,7.016722544115674420e-01
-9.327497968940745565e-02,-5.004286522470644538e-01,-8.712446305166577920e-01
-1.956381598351041584e-01,-8.786141177219906062e-01,-8.040457323358968234e-01
1.511328483500739284e-01,9.871895515632120865e-01,4.361018168746242374e-01
1.273260414557882414e-01,-7.124663455529357536e-01,-6.246609084414588287e-01
-1.193290426083747358e-01,1.087767204963606238e+00,5.086162132087935772e-01
9.987119982270313556e-02,1.001992079533173152e+00,5.466245562733412777e-01
-1.298989506562209413e-02,6.980095644413782940e-01,3.863210451312714677e-01
-2.229579314689958125e-01,1.130295081191343032e+00,2.516243736471511505e-02
2.246036040342939688e-01,8.924435018365957095e-01,5.323258493038230954e-01
-4.475541225844865689e-01,-5.491247282564089005e-01,-9.434174308211650262e-01
1.924516828750600927e-01,-1.126177838086428684e+00,-3.524264817486235657e-01
-6.930674763374513603e-01,6.227826958665890755e-01,-7.843312998293539007e-01
-4.337822445532918403e-02,-7.146067576119345954e-01,-8.645013836095046811e-01
-1.592356931305383139e-01,-6.515270074112143872e-01,-4.890641295705124292e-01
-6.948318181728541099e-01,-1.969105615819988567e-02,-7.435041603115505326e-01
2.553509202413799528e-01,-9.929134023279714283e-01,1.746560746698685440e-01
5.712058925998940717e-01,-4.285524467469221666e-01,9.368821785154568538e-01
-2.541775026897701295e-01,-6.897848250995983754e-01,-9.300862241116557572e-01
-6.055025239248902347e-01,3.286440958798327733e-02,-6.611346854741730894e-01
6.762484737173376503e-01,-6.004520219690220317e-01,3.341727533855532450e-01
