-2.205150927914255043e-01,8.241108262116351169e-01,1.507102533720256210e-01
5.889227232222594699e-01,-4.545738272628682131e-01,3.127724369621714962e-01
3.060698691747464895e-01,7.509760742528113209e-01,5.267572160753551946e-01
-4.174296955794707942e-01,1.068260743127887658e+00,1.248268137762399282e-01
-4.902745252648660901e-01,8.788658859995097661e-01,-1.739160635290551427e-01
-2.639791582343998799e-01,-8.898240870186693297e-01,-7.256526218604815170e-01
-5.359722609450061626e-01,-4.451263088339987295e-01,-5.822613490976074058e-01
-5.376739519009634538e-01,5.530219618169903706e-01,-2.597342379569190784e-01
2.564781080845027206e-01,-7.176237997663615920e-01,-2.866920538918540928e-01
-3.254055539815016718e-01,7.164819430539091094e-01,1.964679257814608837e-01
-7.800171134494604530e-01,6.264263289207485652e-01,-5.403353113287241438e-01
8.170683491708189417e-01,1.385316418756168955e-01,5.509947963824204376e-01
4.140454279763188666e-02,-6.561946725398022373e-01,-4.529985915098230231e-01
-2.141047105195753586e-01,-4.294544414137984600e-01,-8.257032309349845445e-01
-6.197767601771301260e-01,5.303103718512458542e-01,-5.869441454599843427e-02
-9.348400698991657931e-01,1.081187915190776339e-01,-5.597290725795961430e-01
-4.380818387547710802e-01,9.730976815593871398e-01,4.748771711021101405e-01
-9.404482505846764595e-02,-1.000507024914116361e+00,-5.450685525197501713e-01
3.720865120193573850e-01,6.997261224870559015e-01,9.241847521415463840e-01
4.239545335493409839e-01,-1.011333668260073315e+00,-3.136822998169759569e-02
-1.501722056884815040e-02,1.008931610401622159e+00,4.469882411437859360e-01
7.535602569814837948e-02,6.203763395110386547e-01,8.152639339268724639e-01
1.785420842463167346e-01,-8.461386470657696890e-01,-2.053434948924746373e-01
-9.030349650069013911e-01,3.315151320106001220e-01,-7.039631581093097612e-01
2.198996281305521661e-01,-7.862613736168425627e-01,-1.930640252249768707e-01
9.780721247747645730e-01,-2.357834174210133305e-01,6.338118421757321652e-01
7.563872496213008834e-01,-8.642299631738773469e-01,2.522687813640141496e-01
3.034926739904619808e-01,6.720325969263071242e-01,9.397517306184458574e-01
-7.598976440676259436e-01,2.965273052990748393e-01,-7.707156316212797620e-01
4.250621978589458894e-01,2.683569022400478787e-01,9.203898611915001249e-01
-5.498287902174165964e-01,-3.012565627173610650e-01,-5.738450996645219071e-01
7.831822248305635448e-01,-9.039010901884568794e-01,6.998064509501940311e-02
8.856139882086494497e-01,-1.395199067837624429e-01,7.800426753434218652e-01
8.326652182612894748e-01,-2.024691039826009287e-01,3.686714182350466773e-01
1.347836229397754992e-01,-8.818915246391306750e-01,-2.187534400410343083e-01
-7.246046046681753339e-01,4.473602968348385223e-01,-1.526746141800780776e-01
4.296224405515537970e-01,3.400100000149675616e-01,5.760711449133409934e-01
-5.586695463704202114e-01,-3.651211052607166163e-01,-9.549781195266094924e-01
2.662911625074907973e-01,-8.232156393000724659e-01,-1.295089746308089040e-01
-2.426305186732896288e-02,-7.228286990490304653e-01,-4.061547707068657864e-01
-3.325877219648661343e-01,-3.457091393662215517e-01,-6.496541635877685072e-01
9.386067472201057305e-01,-5.893916583185870861e-01,2.857861446222896840e-01
4.837754132349298963e-01,-1.076051675314800837e+00,-2.571421136071329050e-01
-6.590419544413942399e-01,9.539826055632809609e-01,1.929766659125490003e-01
-3.731507181917252947e-01,-3.243002156619114729e-01,-6.152358956292575121e-01
5.885790444062953819e-01,-1.900790138092099679e-01,6.587224927491374116e-01
7.411085810439033139e-01,1.424234485652546844e-01,5.571929723768114240e-01
5.872444491815029810e-01,-5.445348796770695943e-01,9.067494868668203589e-02
-6.598252135580650046e-01,7.022268071376792931e-02,-4.901285557238356794e-01
-5.037423360791121185e-01,-1.877206732527496869e-01,-9.248809071745419663e-01
-4.987186818608249084e-01,6.221932597255763753e-01,-1.374244099330605984e-01
6.824377395008108804e-01,-3.395207416640920739e-01,3.026616278469592136e-01
-2.484154344677516058e-01,1.097217660660701366e+00,3.458087998675525299e-01
-7.129138558652685642e-01,6.542812810969014237e-01,-5.186363240227715998e-01
-1.946965483646702008e-02,-6.529236859114546654e-01,-4.865837559388402900e-01
4.288290963328743599e-01,-7.142605689929252266e-01,6.457261924927869268e-02
-6.401772714376598042e-04,-5.900013956799088355e-01,-7.262589002743519151e-01
7.148640734572851707e-02,-1.015156759474998394e+00,-3.696900663259859998e-01
4.975248166137870021e-01,-9.637419022582287553e-01,-3.954704673741746834e-01
6.076164343716917715e-01,-9.390601311464559231e-01,1.789078679869252897e-01
7.285995074339990385e-02,5.421468242129452442e-01,6.390737570840177018e-01
-9.948870225155672653e-01,4.216353020596541046e-01,-4.721956693495187873e-01
-5.777303628779719702e-01,5.911653244014449804e-01,-3.991897278387110948e-01
-1.369598279180674061e-01,-5.164961800763804289e-01,-6.188638089433888823e-01
-5.411486912153267159e-01,-4.336884165951557235e-01,-5.792035991339625767e-01
7.820662744403427125e-01,-8.798955538695493184e-01,5.979062329828819383e-02
5.799399128962737793e-01,-4.975683865061427680e-01,4.517177605330127133e-01
-8.733346288005066071e-01,9.367036642873546870e-02,-7.978550304102656199e-01
1.389813108888552917e-01,7.967771073511673574e-01,8.430531868919304284e-01
-6.312628099798770487e-01,3.052600872588106529e-01,-3.932917040071942094e-01
-8.916018206794643630e-01,-1.035589983485510762e-01,-6.663231950312318297e-01
5.735751925387526651e-01,-6.475226614929879831e-01,3.734754402890083647e-01
-5.483923622749518056e-01,7.856424840207553162e-01,3.280345926702453729e-01
-7.211162043828420187e-02,-8.033243144304677008e-01,-8.360074650606345026e-01
3.333149830534344882e-01,-1.088216575907051009e+00,-2.992444322334052997e-01
8.499448182663328355e-01,-7.096415261427391208e-02,4.524725766947261807e-01
5.515548202169860970e-01,-8.468633767283668679e-01,2.555051902259877217e-01
7.500029868207229722e-01,-1.256613660403903543e-01,4.294762766075826965e-01
-5.553955972870038282e-01,2.017741729378617066e-01,-6.466252241832539660e-01
-4.548094320564201598e-01,8.466133525441835728e-01,-1.257702795491953962e-01
6.336628591469336547e-01,-5.164250077645196058e-01,5.914670951610163652e-01
6.864231022153959305e-01,-4.810640741568611434e-01,6.460112985853585510e-01
-7.514881497908440511e-02,1.043701719794197125e+00,5.553183388523852404e-01
8.801365357498769360e-01,-1.037175243880919806e-01,7.969269025902110393e-01
6.113871110337620873e-01,-7.075832888579771662e-01,-2.087327537950023904e-01
9.125544360189580262e-01,-5.786340422019533580e-01,1.976124691685547108e-01
-7.593318212751989371e-01,7.432801216628870389e-01,8.668723534919892115e-02
-7.816007007730464695e-02,6.651033762018724316e-01,7.166525791689251079e-01
3.484256504268651300e-01,3.381960700991619162e-01,6.267645696095004437e-01
4.845201185819554279e-01,2.554881066858461988e-02,7.036279340327858955e-01
-5.162364262523068126e-01,-6.583700229864301035e-01,-6.427848532627428169e-01
6.221889659980214260e-01,-6.419066932452456298e-01,-1.043165384760057351e-01
3.807288211636897790e-01,4.123874423972632153e-01,5.953165538476620222e-01
-9.983374504557378237e-02,-8.843026096162931449e-01,-4.114938741384387977e-01
-5.435631416687121131e-01,-2.063846970535003211e-01,-5.793232208684826468e-01
4.156504820479011569e-02,6.706450857397235898e-01,4.463470682414890089e-01
8.983047117643900847e-01,-1.769211068638627815e-01,7.967315240320583802e-01
6.736072611002141830e-01,-7.488026968596915856e-01,4.118954050721334581e-01
-3.040506832815299473e-03,-8.566146644742392846e-01,-7.971501490241148513e-01
-4.832432242353434937e-01,-5.283197864417081557e-02,-7.020490089916757714e-01
-4.671846382438061829e-01,9.710346120022549377e-01,4.513355658047928931e-01
-1.860281461079335286e-01,-4.704442377706203882e-01,-8.171042395830432348e-01
-9.153053052860444794e-01,2.567061842602063049e-01,-3.907840812881975268e-01
-6.358221337851958088e-01,-4.379662115539373901e-01,-6.314649985511945340e-01
-3.795744084419553910e-01,-5.990436774587747371e-01,-5.496775461605165614e-01
-7.866609024830657493e-01,1.810775627896251960e-01,-3.964889898805129542e-01
7.061514823422252451e-01,-8.031408424382887601e-01,3.699785761497781378e-01
5.740122989700959799e-01,-2.441853805383659148e-01,5.890726097999803290e-01
-2.767880011207255464e-01,-4.788146818514971703e-01,-5.705699300442952371e-01
6.505169617180825981e-01,-1.019804538800164639e+00,-1.023111665570391876e-01
-7.825666713052013002e-01,-2.705449629894581265e-01,-6.877309049589647172e-01
-7.222510242710024064e-01,9.556368687936585005e-01,-5.370360200237983550e-02
9.105533246211222620e-01,-3.012445837774845869e-01,3.617773000633562330e-01
3.159354977868268355e-01,5.230226286870865993e-01,5.542094825306596029e-01
-4.980092083255108215e-02,8.870163353178169841e-01,3.043865504959009094e-01
9.861584078856685531e-01,-4.081235383872813816e-01,4.908422929182238437e-01
-5.354637093652645508e-01,-3.354243172335113349e-02,-5.733491303778545101e-01
-6.039232748553630126e-01,6.986582754392611783e-01,-3.860204484605804787e-01
5.873496704625530418e-01,-2.955869190383403899e-01,5.378727357007762055e-01
-8.934191518351343175e-01,3.952995269679779322e-01,-2.444978354792834430e-01
1.032445658218012208e-01,6.878482204444288373e-01,8.815585969935352262e-01
3.066983219536187702e-02,-9.137681137468507409e-01,-7.436292755985327574e-01
-5.176915644907742475e-01,-5.025775754579255850e-01,-9.582807157515305096e-01
7.500896538163448479e-01,-5.806167106553842272e-01,2.620383488088947124e-02
1.740179035411969916e-02,-6.065228851672477273e-01,-5.530211567965278574e-01
-3.230904985307028743e-01,6.618440663383473588e-01,3.155889812858138632e-01
-7.827035143095077974e-01,5.884377028833088774e-01,-5.589594840654680263e-01
5.540350658444501836e-02,8.446184245544141600e-01,8.188612028067827620e-01
-1.967270718104092431e-01,-4.416103505591127965e-01,-7.956120058806980255e-01
1.499219273761207283e-01,-8.063667306528797818e-01,-7.098798215836354952e-01
9.451272523560337868e-01,-4.347422338685065224e-01,2.972300466077014702e-01
3.380465344399797845e-01,4.077023536689147187e-01,5.928073013521361068e-01
-9.386829006392167773e-01,2.070224035133549564e-03,-7.222058799740814772e-01
-5.326808615512522715e-01,6.400802372559065700e-01,-3.176754914403512875e-01
-7.058686641316117560e-01,-2.845495434215856156e-01,-9.439360551009942091e-01
-6.840331597065021918e-02,-5.780300879653300639e-01,-5.884963497251304299e-01
-3.875101156307231981e-02,-6.310636858234081048e-01,-8.077273507615196912e-01
-7.247143225370122899e-01,-1.842900237743134717e-01,-9.439677581774825743e-01
-9.014077873383997686e-01,2.395619652153954948e-01,-3.660721447205578793e-01
-4.591225921107378038e-02,-9.652512201701194394e-01,-4.295650311812237998e-01
-7.639028687012484609e-01,-7.209251533393422340e-02,-9.014031256558078242e-01
-4.438687418017470132e-01,1.070882423932858263e+00,1.594867004437338920e-01
-4.387146411075721342e-01,8.459659774401632193e-01,-1.017557654389066452e-01
3.147031299030423335e-01,-9.969841878034150229e-01,-1.156758445840659344e-01
2.155212799414548686e-01,4.819118591379578653e-01,8.640450297916798528e-01
-2.371671865738066709e-01,9.705758291917628844e-01,6.214208901751806513e-01
-8.275179509564571934e-01,3.876474206367884756e-01,-2.365175412625329654e-01
8.259605352666472555e-01,-1.846232708881997697e-01,3.736873851908755761e-01
1.885025185836458617e-01,-9.406589311649650176e-01,-6.523309826215578644e-01
5.897183167812514171e-03,-6.681802242118389801e-01,-4.434646269168514565e-01
5.981800456602813787e-01,-5.806272842415944879e-01,5.064291704739822819e-01
-4.685687972675788848e-01,-7.577393256322045856e-02,-6.962239574410011844e-01
2.895156470233078427e-01,-1.088961646162398544e+00,-3.167121964542939927e-01
-3.394568440225190220e-01,1.024385946961083205e+00,1.190266759897179727e-01
-3.765908384321250968e-01,7.041363461485493636e-01,8.218203747049865338e-02
2.125082912878436814e-01,6.517634925847294314e-01,9.074612299770952184e-01
8.218360453636653906e-01,-1.241754092702974654e-01,8.404508797025501687e-01
-4.602308455858063474e-01,7.537527282711860011e-01,3.943228922069135778e-01
4.244764841879932749e-01,-6.843837622753280447e-01,3.931884311591216444e-03
8.807422829847351142e-01,-2.007003619057320665e-01,7.867070642286787541e-01
-7.782988472314359418e-01,7.664608854663917947e-01,-3.848902077396064159e-01
-9.583624508809799325e-01,5.211306276083321753e-01,-2.775535019062080333e-01
-8.258279060876542177e-01,2.875458008834103074e-01,-3.280059975404322481e-01
-1.018061213481934041e-01,7.236734827039029705e-01,3.278224742283448734e-01
7.849591827321098503e-01,-5.330663682010637894e-01,6.111228627073399533e-01
7.182053590259928066e-01,-7.828190218207266016e-01,3.643686639484389200e-01
-8.091923562840831474e-01,6.326830450259095517e-01,-5.636162497609651378e-01
-4.266162585247684769e-01,9.069871539539974270e-01,-6.817369818074349441e-02
8.442675422078081970e-01,-8.177289051408584974e-01,2.372816806608678553e-01
2.653533059323073262e-01,7.650715558363548885e-01,5.233729524795582844e-01
2.608461142772862673e-01,-6.912601194018433981e-01,-4.927026991349758855e-01
-7.262448194622037612e-01,-2.432462960198202573e-01,-6.091444395836330683e-01
-6.949906143097770439e-01,-4.284033512223023865e-01,-8.831598724002750478e-01
2.636191757617625253e-01,4.224726526537364579e-01,6.520690124168890822e-01
5.045378783557435964e-01,7.176424032343745596e-01,7.712282214058121532e-01
9.663584164102683172e-01,-2.304629920011367072e-01,6.030235841282222120e-01
-5.352966653999803315e-01,7.957498053136207172e-01,-2.570117256490297986e-01
4.660638099420046920e-01,-1.027631796033714240e+00,-1.047242312100016455e-02
-1.395167213520839139e-02,6.457241772806736613e-01,4.471402853617768569e-01
5.612615152831267329e-01,-6.256934470554624816e-01,3.277952863359923641e-01
7.539463436048249312e-01,-4.347375767010838721e-02,4.588405629375697514e-01
-1.803438862778200813e-01,1.010113009036444520e+00,5.721141791086898909e-01
2.934096913321075917e-01,8.294171817890361176e-01,7.993804402741732096e-01
6.057242662541494349e-01,-5.679726508628381992e-02,5.312937301458174888e-01
-8.106682784966631750e-02,-7.809464027443622225e-01,-3.894656652193383417e-01
2.994155148933624888e-01,-7.096946888881150439e-01,-4.465726411135440554e-01
-8.916901950371283192e-01,1.345771907095653051e-02,-5.467858272291589161e-01
-7.814262628855077608e-01,8.944443305017641954e-01,-1.704927284049781444e-02
5.219191081939164034e-01,5.241485523752620335e-01,9.460468196744090674e-01
-2.373805569831191620e-01,8.559264449520804785e-01,1.287924456350787450e-01
4.913107717463782720e-01,2.761043329491156828e-01,9.362182529741892578e-01
7.323524617289977057e-01,-4.287371268105235611e-01,1.995496212079043152e-01
-3.902252388418431805e-01,6.933239255074159502e-01,6.441649382498089438e-02
7.709223198664529875e-01,1.061049488250500328e-01,8.895154584018175603e-01
6.520427039729392860e-01,-4.759228347808789339e-01,6.046899538035670485e-01
-1.126970173145833004e-01,7.004465972490386827e-01,6.887139237918504797e-01
5.273516241438529484e-01,-6.131686904199533383e-02,7.291434452748345452e-01
-8.981384209155429676e-01,3.997367034488063520e-01,-6.699185070801552122e-01
-8.921871761635028486e-01,6.462892335154746259e-01,-1.075842622234924051e-01
-2.679120573824711124e-02,-7.417756353436703032e-01,-8.135141733508980399e-01
-9.543444798032850451e-02,-8.682106889841678665e-01,-4.245840339900392446e-01
9.919221901168269184e-01,-3.040997784861906306e-01,5.329640442133314338e-01
4.691639764295701398e-01,4.585489348889741912e-01,5.606041281562040846e-01
5.183931193800547232e-01,6.654149671183352821e-02,5.861068973085823419e-01
4.912309235871951674e-01,-6.889025894381212156e-01,2.057264622625540051e-01
-3.013971105609487555e-01,-6.099470829670986527e-01,-9.259370487851773524e-01
-7.162085124984594042e-01,6.237488089274153547e-01,7.667870059932023474e-02
-8.605939329155229967e-01,1.176322352165494051e-01,-4.266236640693678028e-01
5.809718316282459494e-01,4.893956955848710599e-01,5.987854281996723982e-01
-5.321374088182141415e-01,1.037564248373548326e+00,1.715421053661026971e-02
-4.615564705862298944e-01,-3.190580972093123302e-01,-5.988676490596474000e-01
7.661855884236217218e-01,3.160951411969293301e-01,6.738402833600477537e-01
-1.438255588476564095e-01,-6.045954794447566671e-01,-4.994469938709877321e-01
9.829498483179941459e-01,-3.586223665295281693e-01,4.662588832296713504e-01
-3.692506842535004941e-01,-8.019891631965828660e-01,-6.880872724795030759e-01
-7.026864478508987322e-01,8.984739052900051481e-01,1.585747917431804821e-01
5.001410512697265220e-01,9.129505076906391237e-02,6.072813301290499455e-01
-1.111605950788470548e-01,1.055547971996974477e+00,3.748644791708919954e-01
3.484005004977017150e-01,-1.031437067170437816e+00,-4.778164174341908987e-01
8.981693020398475724e-01,-7.119921311469483705e-01,3.782314311562176012e-01
3.274844191538274218e-01,6.610432976394914339e-01,9.368356040593942557e-01
5.954517510995185336e-01,-9.082630076760662696e-01,-3.388551788915953322e-01
2.508146958461178744e-01,-8.057199907443636233e-01,-1.232476213902275602e-01
-7.962280557658401037e-01,2.462692519699741234e-01,-3.479977797593745148e-01
-6.262437549191792741e-01,1.223364045343596357e-01,-5.079822655204053738e-01
-6.217636028239615920e-01,5.036729721158486051e-01,-2.020779038107296255e-01
-2.624841140976268417e-01,-7.666619915848625899e-01,-5.049388951157255390e-01
-2.504542542432751651e-01,7.396583190838912358e-01,5.867732112317349813e-01
6.445150029175811257e-01,-1.628239381253590856e-01,8.154330430672691588e-01
-2.663476114768128511e-01,7.520515835294607765e-01,5.851524512924440868e-01
4.263195017843100509e-01,-6.655331284068828346e-01,-1.062774408696877532e-01
-4.536811415472652986e-01,6.447656888092486716e-01,1.486506755430913769e-02
-8.154926665322655976e-01,1.856801793262000955e-01,-3.766962077660834796e-01
-8.094195303513824769e-01,3.062859320332189106e-01,-3.106397700099906012e-01
7.225280163707480108e-02,5.439594374630283280e-01,6.763795072227140048e-01
-5.236928859943961179e-01,-4.167137526603109099e-01,-5.622039935243297037e-01
-6.582416416381829949e-01,-1.354641252402058460e-01,-9.495400228368683360e-01
6.904810687878485398e-01,-4.426041660106330711e-01,6.790029287264155444e-01
-3.052247980264026772e-01,9.410204391124777912e-01,5.976811577376948126e-01
5.612376964468490659e-01,4.817376065613589997e-01,6.036717663328027283e-01
-6.776074226309466431e-01,1.039382553801533465e-01,-8.549432230455525916e-01
5.705661530667339720e-01,5.657113325795765091e-01,6.168161599642629778e-01
5.392403175196798237e-01,-6.348250331685949543e-01,-9.701473086662248946e-02
-5.940453682490165477e-01,3.312097251749225868e-01,-4.851817143272901256e-01
-9.198523865597876270e-01,1.220976228149395909e-02,-6.333050133229796153e-01
5.873910161763128412e-01,9.867402919291863583e-02,9.200936835927837620e-01
2.396515793963476526e-01,4.062636120121930206e-01,7.178804401938398971e-01
-6.123267058806347585e-01,-3.303602100244728557e-01,-9.524032545802979532e-01
4.646032672702840038e-01,-6.582956328548807967e-01,5.848202195486443267e-02
-1.206920568785125464e-02,-8.638124261102839707e-01,-7.998186675813206969e-01
-3.827342149688118256e-01,-4.309342218603837149e-01,-5.916510114072164317e-01
6.779104504140734955e-01,-5.976897014972777367e-01,-2.984367221034390713e-02
2.226684106598314783e-01,9.311445747732152167e-01,6.307351486146148822e-01
-1.171791632324109822e-01,9.116931898231098730e-01,7.503391156180501120e-01
-2.454568308337736204e-01,8.545586340360725730e-01,6.468071072145564759e-01
8.600420863135120886e-01,-6.266923846514999008e-01,8.997856075230327433e-02
2.210133160955693732e-01,8.173234412532066617e-01,5.074866094794184823e-01
-4.759074182525906971e-01,6.835693799506467050e-01,-1.910509552378832632e-01
-1.397701372308468859e-01,-9.251629643138084003e-01,-5.249595437919691854e-01
8.450539831570887950e-01,1.317119675727216055e-01,8.315231401068616801e-01
-3.721863965183758727e-01,-3.230177374871831542e-01,-6.408365033664724653e-01
-5.571736049193450890e-01,5.328445824355614313e-01,-2.807640137602050445e-01
6.520456828297008789e-01,-7.324370433397839886e-01,-2.113820565251758599e-01
-7.167262944039232142e-01,-3.467531689572145859e-01,-6.230177345081382434e-01
2.292415284130144004e-01,3.978080554735973773e-01,7.582529274228893001e-01
9.635708898040703518e-01,-5.842607161627548784e-01,3.679679770401569350e-01
2.737471437274729638e-05,-8.404341486384672155e-01,-3.134032987569050355e-01
6.523948904932280746e-01,-7.271612872330289745e-01,4.351102400062233366e-01
2.382410444570063346e-01,-9.686890273433250709e-01,-6.328921544576376901e-01
3.341402805212433935e-01,-1.078597730844429892e+00,-2.622932776438562930e-01
-5.119250414042826325e-01,-6.996375111240801248e-01,-7.157076995860638391e-01
-5.390878942030949972e-01,8.969285427366991970e-01,3.909472802789663026e-01
6.708560684876297975e-01,2.299430878425824942e-01,5.609842019847409711e-01
6.194520630150522900e-01,-2.243016441477337641e-01,7.487212234903665165e-01
-6.113090858438617881e-01,4.895642893398399753e-01,-2.281812835410044205e-01
-1.943364399230342737e-03,9.646149756441684264e-01,3.850518541280252283e-01
6.895067621031157612e-02,7.924726987171624160e-01,3.935573968174002624e-01
-7.021985352305389894e-01,7.391434255097233397e-01,-4.613619991745087079e-01
-8.634454420331580948e-01,-1.657757860528716043e-01,-8.177045309227403136e-01
-1.961397822066755225e-01,6.820439501405941574e-01,3.776976336679324087e-01
5.179936901107302649e-01,-6.079314055169697806e-01,2.206559317560476408e-01
-2.547203435787868675e-01,-3.655702774641969022e-01,-7.217529908037706443e-01
6.206046952093333124e-02,9.708600388889484512e-01,6.573445125336606631e-01
-3.638417743359421141e-01,6.731341402866697354e-01,2.570753548633804564e-01
8.755114366809130244e-01,-3.777081078417734439e-01,6.972574611786306331e-01
4.919963984174876570e-01,-7.746109813258104104e-01,-3.924887608639058834e-01
-9.861182930482483844e-01,3.598037697523970291e-01,-4.734402892565993670e-01
-3.997026458150843009e-01,-2.016308467462321619e-01,-7.082338438386907020e-01
1.769178340331467036e-01,8.827552201944537380e-01,4.966856603649929536e-01
1.640535933362974597e-01,-9.847847734460439817e-01,-2.366598446866659267e-01
-6.089992785666664687e-01,-2.485870283319203122e-01,-5.772478087558396975e-01
7.884682164930296722e-01,1.578880522540080378e-01,5.728081100013490135e-01
2.095014892939445206e-01,8.368742515148415162e-01,8.425049395552799414e-01
7.060310807180958381e-01,-2.651064639096310516e-01,3.374618415471797306e-01
3.760499688651122718e-01,-9.037283082519667055e-01,-5.178012919423936600e-01
-9.512056128078293371e-01,4.537243918047685343e-01,-5.743122378616161150e-01
-5.927336829464700807e-02,6.681518622344289060e-01,7.519189383677641336e-01
-5.644398432911548191e-01,6.327215215172830032e-01,-4.017464169574667676e-01
6.379631380322985101e-02,-6.162634374404367676e-01,-6.360348432729707735e-01
5.250281545857167220e-01,-1.031370231852722252e+00,-2.763010686535503635e-01
4.783895221321136093e-01,9.070921508345732021e-02,6.669431247527070061e-01
7.126119247248551003e-02,9.307027765001368858e-01,7.760355046803611989e-01
1.007727089783093805e-01,-1.055220672854742414e+00,-4.689200749750827013e-01
9.219281375422695712e-02,8.710627222921510926e-01,4.315837428232525697e-01
-3.674504478020228226e-02,1.026283270948783910e+00,4.686883149514179392e-01
1.589897417959430445e-02,-7.945288206168295009e-01,-7.999623866476280876e-01
4.828294239282583944e-01,4.127410357521452133e-02,6.917088731325962137e-01
-5.875036965694101498e-01,4.754001677317903352e-01,-2.688502464981034068e-01
-7.125637137201298321e-01,3.418291221979424255e-01,-3.062036298271830215e-01
-1.448709694701206807e-01,7.181661452486923780e-01,6.935159606363489049e-01
7.662112608512707812e-01,-6.591110411242695477e-01,-6.378405258599806338e-02
6.489403816068386455e-01,-7.101238786572975359e-01,4.450105336191769179e-01
-2.188017677773564929e-01,1.056568911769336205e+00,4.917497940110674981e-01
8.095029542423737290e-01,-5.778000080976092301e-01,5.466574186001867952e-01
5.184046801975631391e-01,2.184398328763642594e-01,5.751771477390879017e-01
7.073483400385910391e-01,-9.717404635161154269e-01,-7.241859233611901148e-02
-3.727641566102414816e-01,1.036495443505410563e+00,4.831887085356173506e-01
-8.535215216061901033e-01,-4.938216208569094767e-02,-8.229479562899578715e-01
-9.741200412583658208e-01,4.274292025207713785e-01,-5.831468071932918162e-01
-4.675473247054905412e-01,8.300869721706907178e-01,4.552574512660801931e-01
8.182375356376584419e-01,7.669715645195428200e-02,8.976396642638657664e-01
-4.576201815407537898e-01,-6.859547985041271057e-01,-6.303369081792594697e-01
6.777557971416358074e-01,4.964759113320849071e-01,7.672477590009949555e-01
1.090883532904051156e-01,-9.828517400524592329e-01,-2.784029268662613354e-01
5.804796685736985928e-01,-1.739676234934418309e-01,5.950665341187159063e-01
-1.402694101110963931e-01,-9.190811796131680422e-01,-4.923159581494148673e-01
9.570227031918295824e-01,-4.310024301993286011e-01,3.634917763050737327e-01
2.834432099679476055e-02,-1.005756330591283110e+00,-3.687193430935766236e-01
4.765450588673346144e-01,-6.848586231749905773e-01,-1.928830334118621093e-01
-9.736135481021467308e-01,2.485409526338464847e-01,-6.640833616021236674e-01
-7.733250777895716022e-01,6.424568935639389800e-01,-1.718144524855760857e-02
2.360374409877873392e-01,-9.283092781102053603e-01,-6.252446971865743830e-01
7.833057292660851045e-01,-4.084295687306538913e-01,7.083808018458587208e-01
1.489361359558426245e-03,-7.048035394371893192e-01,-7.967907825498405927e-01
5.142336757769930822e-01,3.200057468152790463e-01,5.742114246074911943e-01
5.226272190030503140e-01,6.341867433431235268e-01,8.487191986286947154e-01
3.384821257814644713e-01,-7.686422927100844404e-01,-7.025386173451556027e-02
-9.667295531930851782e-01,5.519193309421659421e-01,-3.820401446905108966e-01
5.226102651521681297e-01,-4.464097592954555105e-02,6.605442285531486490e-01
1.928087053054861706e-03,6.202336097750188459e-01,5.076919187966445479e-01
-5.823386975088544748e-01,2.940971864509970835e-01,-5.439222842009263648e-01
-2.386727133595708816e-01,-8.798897692748272048e-01,-7.835346760482543305e-01
3.394326741947288339e-01,-7.692567960422053153e-01,-5.425740997728546455e-01
-3.417043104184285807e-01,6.963058381877188507e-01,3.901836285728770837e-01
3.566476855924511358e-01,7.947386926905144477e-01,6.242991807479888466e-01
-2.166143623569706522e-01,9.916787270596555404e-01,1.698311135686356166e-01
-6.393820803169737443e-01,6.219937599110363369e-01,7.162255561026049933e-02
7.718178495811807427e-02,9.512688377581373089e-01,6.916529689880849263e-01
-3.736130058757232697e-01,7.445743177859224238e-01,4.706516577521667188e-01
2.489319180320658520e-01,5.560945786523847634e-01,9.116143110459378196e-01
3.089205660780101614e-01,-9.631622661474656955e-01,-8.844527658585833729e-02
-5.124636642130702135e-01,1.001735278545604180e+00,3.417183805840358080e-01
2.346630177585077581e-01,-6.829458262863817852e-01,-4.842207578604956209e-01
-6.773432611151821714e-01,5.202525544907069532e-01,-9.563859318021152023e-02
-3.485031616081257777e-01,-7.141326308618916041e-01,-5.513005098974363971e-01
-6.739836681465474211e-01,2.588791276396779639e-01,-7.874783565901137816e-01
-6.644367428740067805e-01,1.720115663268182576e-02,-9.026232772755372613e-01
-5.517548300235022296e-01,6.607207268654572418e-01,1.432260351083275984e-01
2.924190009167131898e-01,3.326274247719164801e-01,7.297971957600944970e-01
6.371195464911458828e-01,-2.615419758019278396e-01,4.128207516835429858e-01
9.609206180606298664e-02,-1.066536557857578282e+00,-5.291171355520181141e-01
4.647806189513675051e-02,5.588782412383985765e-01,6.889017727079911335e-01
2.521731128716514503e-01,-9.469526945511349547e-01,-9.068785286256615674e-02
1.325314763895470149e-01,6.296323588935415216e-01,8.704327823839022038e-01
-6.936242588432764977e-01,6.656379274061606510e-02,-8.947041609267479823e-01
-6.068936182106984267e-01,-2.090529992707785834e-01,-9.667430788025086486e-01
-3.798845522924281654e-02,9.528517225914413524e-01,7.024594601261339166e-01
5.563746975459612498e-01,-7.330524473850689171e-01,-2.818345674559543101e-01
6.533619911682729819e-01,-5.020374897502000167e-01,5.460153892319518087e-01
-8.549866143533804141e-01,1.238090433048021494e-01,-8.027814887462245697e-01
-8.498512588566072834e-01,3.082508677115691209e-01,-2.964084554270519645e-01
6.051923710470229201e-02,7.349591652263764985e-01,8.518569878828026187e-01
8.319775147311352093e-02,-8.060878907020631035e-01,-7.839166789582594497e-01
1.018463681653834080e-01,8.777943926065469027e-01,4.257831635815704230e-01
-8.224524158745194491e-01,6.941660429902467566e-01,-4.707275475680862686e-01
1.370974419089964619e-02,9.021713267230649924e-01,3.659580339226896073e-01
3.461713726371993816e-01,-6.855572120764110711e-01,-2.646667010277689580e-01
4.996201327353360644e-01,-6.453227098805448536e-01,1.776246006275138123e-01
4.687090821535541130e-01,-6.852092634761286494e-01,-2.191818872255793527e-01
5.189638427592710990e-01,1.050061261706062253e-02,6.246439712313205384e-01
5.906606048127627240e-01,-5.206047126766453342e-02,5.830340822618683694e-01
-3.227837390778146576e-01,-8.336108479764914314e-01,-5.839132636710037128e-01
4.659404890776175368e-01,-7.131796148740920938e-01,1.610351660355684722e-01
-1.991816034851612294e-01,-8.671576850469189246e-01,-7.930862161854711490e-01
4.843935774802330951e-01,-8.572077197273094695e-01,-4.213380586170885622e-01
-4.487894616469476072e-01,9.662353694590891662e-01,4.503388443309715994e-01
5.680943060420423629e-01,-1.010001918738390625e+00,4.397657263421402701e-02
-5.039126785667128461e-01,6.513903261714902859e-01,-1.191189212653466917e-01
-4.270702134926657734e-01,6.625757430801521020e-01,9.612510080273838076e-02
-7.500391803176585936e-01,6.292634008344828445e-01,-5.704802625600599031e-01
5.328661127218110583e-01,-6.196430397845573840e-02,6.370705381458761085e-01
-5.589133603290906416e-02,-7.417777759003691962e-01,-8.294132117118879766e-01
4.248718611283038293e-01,-1.086902663650110457e+00,-3.494543005803993907e-01
2.264998098776796198e-01,3.867669714976225137e-01,7.418924248920897302e-01
5.873340655954457923e-02,-6.877090242103800488e-01,-4.709462485931946163e-01
4.354747610654387258e-02,-7.765641214204050957e-01,-7.933113836897146554e-01
-9.421431950822668488e-01,6.703800212176603823e-01,-2.828547921256478470e-01
8.362648166773525293e-01,-6.642174634714044235e-01,4.935811179960455930e-01
6.883141605575926469e-01,-6.002249390043210564e-01,-4.483967953435839815e-02
-9.557210606237108719e-01,3.543753535427289214e-01,-6.561751775915135587e-01
-1.664312378372297119e-01,-6.968954532408426772e-01,-8.996489735604789040e-01
6.306577521789330509e-01,-6.351635818405402256e-01,-9.254216590538610898e-02
-7.794860219506295484e-01,5.749824180589006156e-02,-4.413073935142114435e-01
-1.305691890722888993e-01,9.280037418233063606e-01,6.980103463079578852e-01
8.935487457469987183e-01,-3.229800161567278338e-02,5.358500892372335400e-01
2.023653424451032912e-01,-9.928471590093503885e-01,-2.105432152486498565e-01
8.288948936381858035e-01,-4.374779651062335462e-02,4.586411057505577205e-01
-2.434385776796691991e-01,-5.956701280779661545e-01,-9.117345879498547356e-01
-8.697131435382592368e-01,4.409529513196591144e-01,-6.576161084980264304e-01
-2.961107985314670454e-01,-3.815694933515779708e-01,-6.692224354257131358e-01
-8.234892070587450652e-01,2.483959782069950772e-01,-3.236862186349286352e-01
-5.786891212581981581e-01,4.398221401071484848e-01,-3.267961256182532748e-01
-7.810521859168735315e-01,5.733958418546476477e-01,-5.850243037994867779e-01
8.917878406421801962e-01,8.041135670923167666e-02,6.653425051522715572e-01
-5.206349974977125816e-01,-1.218467403705491003e-01,-6.191515362370831888e-01
2.010726195836362584e-01,-6.596964167879765251e-01,-4.171777294801172209e-01
-6.481040714604135999e-01,-1.358374106279167104e-01,-5.216528959447507274e-01
-5.231504930805790377e-01,6.170937680467558639e-01,-2.530648371516771022e-01
5.788011311548241222e-01,-6.303078516025049094e-01,-6.118564653106514650e-02
6.571561241184512570e-01,-2.669924633359671562e-01,3.752612546914469993e-01
-8.655351787922958007e-01,7.824820162180312622e-01,-4.694757155536523341e-02
8.831461946083790648e-01,-4.389207803135654062e-01,2.290253131375695472e-01
-7.583624102551097534e-01,5.076254265088026019e-02,-8.883622079265848237e-01
4.287201009009188324e-01,-1.075301878987853454e+00,-2.014127479662372322e-01
-5.213355332018380084e-01,5.815769638741808967e-01,-9.797825165596703301e-02
-6.534864250971464950e-01,7.885085961477368288e-01,-3.779550229869537703e-01
6.702904753681963035e-01,1.237593967400921063e-01,9.385826553192967436e-01
2.267598348512289974e-01,-9.218915928682905880e-01,-1.521824759107410219e-01
9.412301552081066003e-01,-4.304210977530029125e-01,3.164962161047937261e-01
5.270704773902779028e-01,1.626312247795498322e-01,9.049934289953471822e-01
-8.126525444607555215e-01,2.541894338224423011e-01,-7.934297483677240637e-01
-2.329143607953973183e-01,-8.611796440440924183e-01,-5.558659361938989019e-01
-3.816212704338389217e-01,-2.419467668105842184e-01,-6.811652950896943670e-01
-1.952764619608539365e-01,-6.844878233474651630e-01,-4.860697065503540304e-01
-9.488016499281785032e-01,2.520967637617439472e-01,-6.628341414619570715e-01
7.434164516685575208e-01,-8.091078160309524980e-01,3.416803863529970786e-01
2.980830113913281454e-01,-6.952228967167443097e-01,-3.386060417144951540e-01
-6.343453731658769135e-01,3.658602675755824318e-01,-6.114959221131137657e-01
6.743060441546928907e-02,7.704007727865276323e-01,3.947321596180375369e-01
1.092075815270180522e-01,-1.054038339532761714e+00,-6.264344569818836028e-01
8.668530269468681382e-02,5.576941723990670452e-01,5.443595266934380117e-01
9.875442398228099217e-01,-4.272307191655884684e-01,4.004108729872096761e-01
4.153771285501278721e-01,-8.614573976247165144e-01,5.025850146210947972e-02
-8.455127719343435988e-01,4.693423224657628512e-01,-1.603337067268234273e-01
6.990260147847758565e-02,7.970880557550352741e-01,3.830324195240024654e-01
-1.246116489361692725e-01,1.019006914276257225e+00,3.329714495597095869e-01
-6.736434539741212868e-01,6.003619418295532695e-01,-5.183398851656972894e-01
5.698926235400050277e-01,-5.359027563652902781e-01,1.217601546632147702e-01
-7.922386712870854372e-03,6.114504572032890550e-01,5.129788063271816245e-01
-5.039457671782420212e-01,9.781340692142507232e-01,-6.508558249941649720e-02
-6.258286756540459850e-02,1.015942503310149236e+00,3.732032580708616876e-01
5.549937535909752473e-01,-5.553603550679744316e-01,1.490160678685706341e-01
-3.661919551985425292e-01,8.222045276316067852e-01,-4.528448111953149030e-02
6.054055569935655745e-01,-5.329738676059353475e-01,1.598054499935313566e-01
-2.751954404437760293e-01,6.762338854996378101e-01,3.599705594668564101e-01
-9.419869619337004618e-01,4.540108765672415947e-01,-5.911312093635451292e-01
4.133933838940800909e-01,-1.074535762338404199e+00,-1.382149587943857505e-01
1.572516780450716745e-01,-1.031217017492767951e+00,-2.670284261449129559e-01
4.117652347892014619e-01,4.803497632943111162e-01,5.818257315940014163e-01
2.268642056208007227e-02,-1.051423456002392953e+00,-5.340443730007470302e-01
7.338361344464721103e-01,2.633173709886846847e-01,8.909652361371344087e-01
-4.868780972557455039e-02,6.177476167119535511e-01,5.649436249296200252e-01
-2.684564469963191327e-02,-6.622698944308723634e-01,-7.776222081883911175e-01
-9.716342482840334416e-01,2.544533347406200963e-01,-4.645332937031436127e-01
-7.705420754793476136e-03,6.597689432245689156e-01,7.565984165937205130e-01
2.610294447793606309e-01,4.154088843306876777e-01,8.792381952127290567e-01
8.651040458078054773e-02,-1.026677557733300716e+00,-3.643145281480372755e-01
-2.457338797302894284e-01,9.736469595331973537e-01,1.465678839369453090e-01
4.606315428385581723e-01,1.897201305716025022e-01,6.448396914717071660e-01
-6.581702715340351784e-01,-2.015683920830564912e-01,-9.616500450909317710e-01
-9.647743926005462878e-02,-7.705362091759684340e-01,-8.373391472752562681e-01
9.414418541282243424e-01,-5.502955022137480390e-02,6.154646155746335001e-01
-8.739543378399101670e-01,-1.187579552741694772e-01,-8.170061167094978538e-01
3.252858503104532062e-01,-8.426096606218869134e-01,-2.267032994043430630e-02
4.907030231291678035e-01,-7.974710269327409673e-01,-4.211006002401181392e-01
2.414443072147164637e-01,-1.053293806662479071e+00,-2.255955678870700809e-01
-5.719159316485857847e-01,2.511713828925477010e-01,-6.491657255531336768e-01
-2.566678237841851229e-01,7.411308436793830889e-01,1.970850547636490702e-01
8.740637753765426732e-01,-1.133385851258605775e-01,8.218190671157734606e-01
-6.528686491511201950e-01,2.510119939718639670e-01,-3.957161767224801618e-01
-1.651565281045849071e-02,-8.180801263297169390e-01,-8.068211050401411510e-01
-6.451470999808280871e-01,4.492095966134264651e-01,-1.891822140935996432e-01
-1.413168415481452223e-01,-8.331562164840087270e-01,-4.355780502525423703e-01
-8.009176057769504808e-01,6.090890471765900704e-01,-4.383926649327483244e-02
-7.616051152953103032e-02,9.181135052972703159e-01,2.843215758251076419e-01
5.098819334536148773e-01,-5.910312341702256278e-01,5.607001377931049996e-02
-5.776597336556428264e-01,3.903906821655665771e-02,-5.399276798372197872e-01
-5.905642287410621805e-01,-1.444182015466753399e-01,-5.593685079469755683e-01
4.621183156399865655e-01,-8.839074818129906141e-01,-4.581572503961990894e-01
-1.620182391521183540e-01,-8.869522995235116225e-01,-4.806691639142718908e-01
-2.408537937063818801e-01,-9.076396232463751490e-01,-6.740623023995367946e-01
-5.111767863842634485e-01,6.308345828179175996e-01,-1.954293498322455802e-01
5.566316761081485653e-01,-1.038431974152562276e+00,-5.814583260830186867e-02
-7.339056677674163920e-01,-1.791369966571506600e-01,-9.202579065609808318e-01
-8.490966619501838508e-01,4.106174750998647371e-01,-2.309206160238793659e-01
-4.598718950807770267e-01,7.568931958243885205e-01,4.031136476340106412e-01
3.879941545482414877e-01,4.908436195415049053e-01,5.736362275214305084e-01
4.361214301705572116e-01,-8.138304999280903118e-01,-4.923369894171396033e-01
-2.747799197849561947e-01,-6.190699598875757381e-01,-5.109291919619163291e-01
-4.357516550164692304e-01,-4.709158279452959062e-01,-9.738556279539050120e-01
