2.316748342497612356e-01,8.221573222107435575e-01,1.445103775169822302e-01
4.138026904005211448e-01,-6.177235074897909906e-01,-3.138135392155504966e-01
7.633657141086378495e-01,5.767914373447622367e-01,-1.403617395640341936e-01
1.839034597363103651e-01,1.106072049611697583e+00,2.716513170629556995e-01
-1.530765655202684095e-01,9.835178963369390903e-01,2.286509687806216051e-01
-9.533221198462439316e-01,-6.914381332306243078e-01,3.367303312972380613e-02
-8.366431642324445583e-01,-2.216489456306888484e-01,2.744666366165020577e-01
-3.232654681338849589e-01,6.930938828313746303e-01,2.784039329206441926e-01
-3.122240074125990916e-01,-7.083019765232588805e-01,-2.525504918445201641e-01
2.040157341796712542e-01,7.360138746731145210e-01,2.729394651584509113e-01
-6.536140275152846346e-01,8.597739935765548180e-01,3.554944085531236975e-01
8.543503237059805189e-01,-1.334466531447022486e-01,-4.926098697813010019e-01
-5.333305773831882313e-01,-5.758753317399089022e-01,-1.464226958683240709e-01
-9.150088609921233074e-01,-2.452983674932658342e-01,-1.210176231142273545e-01
-1.850937507773110224e-01,6.610882545028631263e-01,4.444096988468054787e-01
-8.538127853709287507e-01,3.991457627977932909e-01,5.573137820269132847e-01
4.620885844218290961e-01,9.687550731637082357e-01,4.607937405212520487e-01
-7.495673587094381363e-01,-8.629823842505540687e-01,-1.920005727426915554e-02
1.129141714628336679e+00,4.550408947301962104e-01,-1.261932715147252859e-02
-8.571987758848530203e-02,-1.066238465263270152e+00,-2.435258481246727058e-01
6.200955576432743976e-01,9.102400510331247752e-01,7.008243708897848867e-02
8.925716152607466869e-01,4.624089966812108821e-01,2.114106114062219710e-01
-3.022060247980042358e-01,-8.258617423221474851e-01,-1.289098054625039125e-01
-9.164415550524043219e-01,6.276828316076097369e-01,4.325363543454337489e-01
-2.605551702747551657e-01,-7.794777932219439931e-01,-1.684098721774087148e-01
9.075545961178524967e-01,-5.426295082272869497e-01,-5.439064481514477301e-01
3.351854509546369765e-01,-1.041753172773277170e+00,-4.301809842069139189e-01
1.108223509907977133e+00,4.418709870858305022e-01,5.881847122119861909e-02
-9.243556413484200762e-01,5.707949764990630781e-01,2.813097939703351202e-01
1.048339416076605302e+00,2.819487307890678612e-02,5.598614894522417965e-04
-8.018193514155351753e-01,-8.119252474749599768e-02,2.699239062437965853e-01
1.763939054012714780e-01,-1.059815912526415049e+00,-5.300795133896771816e-01
1.020524484587590708e+00,-4.498339151154642224e-01,-4.103946162242241846e-01
6.215559954462153147e-01,-4.390009135308158283e-01,-5.396202932035190081e-01
-3.402902069810539443e-01,-8.483095876934770851e-01,-9.124566966713013039e-02
-3.302377100884732464e-01,6.188251747121862323e-01,5.064494684403045843e-01
7.631644479022119398e-01,1.457453776823960656e-01,-1.684592410043064814e-01
-1.156163932310291242e+00,-8.571451240646407732e-02,1.155260849801675871e-01
-1.939136456815672427e-01,-8.348496541147282235e-01,-1.754739284644408481e-01
-5.344325650140046013e-01,-6.317086338089725750e-01,-5.794615644311890829e-02
-7.893578328970699554e-01,-1.628815739497574133e-01,5.063337458363705718e-02
5.030862906473916318e-01,-8.238111886667612849e-01,-6.150432365865183826e-01
-2.750028648467687797e-01,-1.109719132190742252e+00,-3.885161476240797107e-01
1.181112748714838873e-01,1.041657576794700946e+00,5.316562070289292397e-01
-7.708035504006000016e-01,-1.379302226941347964e-01,9.881516074709052744e-02
7.795245515324858987e-01,-4.128946579140132522e-01,-1.957807970223172656e-01
8.294071883242601917e-01,-1.131724491183943998e-01,-4.233982626095949553e-01
1.966066812723200885e-01,-6.719287274768642737e-01,-3.993166947037724568e-01
-6.878424211232262442e-01,2.895619433578803248e-01,3.515013842528259547e-01
-1.066162847675579339e+00,6.811917480135953884e-02,5.528693373294810837e-02
-1.834641467991952046e-01,7.331182016919485234e-01,2.891519561019672002e-01
4.699085611333390089e-01,-5.269617694945953890e-01,-4.172492072500594840e-01
4.550341711586206039e-01,1.063336440634139901e+00,2.178074060055956995e-01
-6.004197769665386986e-01,8.680705210845729436e-01,3.020984262219032490e-01
-5.872722633685056870e-01,-5.539251427845809372e-01,-1.083068949620190347e-01
6.924630021453394291e-02,-7.952156137252222035e-01,-2.471219436446225881e-01
-7.763240974590662757e-01,-4.631325053318802731e-01,-2.416262096053998776e-01
-5.301123559061072799e-01,-9.403234456328123381e-01,-8.424372731546818371e-02
-3.654347707315612204e-01,-9.848259130114552784e-01,-4.788545053370230620e-01
1.919791603181997819e-01,-1.069093282639821618e+00,-3.212837398203091666e-01
7.182100856522375398e-01,4.130683168731141275e-01,1.455879695682756603e-01
-7.292279771545568945e-01,7.020985172687698173e-01,6.048384040794155814e-01
-4.539353636048451546e-01,7.590959350828329066e-01,2.455958036843869097e-01
-7.209049310654805920e-01,-3.765880525469572082e-01,-8.364347889180379081e-02
-8.334480524325049711e-01,-2.098921150588083651e-01,2.787723118877028505e-01
1.724759858443940530e-01,-1.034983300220146285e+00,-5.371036813718701453e-01
5.226970927805874023e-01,-6.770748799868080425e-01,-2.372991636963681927e-01
-1.041720444186350569e+00,4.054492088374839209e-01,3.981075434819449366e-01
9.838924324484814576e-01,6.136181278391436011e-01,1.426068513841917962e-01
-5.366032827666415983e-01,4.953063521024200777e-01,3.362786866111003303e-01
-9.786879622071479323e-01,2.008266228735156034e-01,5.015011597100841323e-01
4.165818976003377583e-01,-8.086876123161896857e-01,-2.454421956794312076e-01
2.440285455890565947e-01,8.347694072162399337e-01,5.188305073929977418e-01
-9.516308874850294419e-01,-6.362723431888958059e-01,-1.974707088960058199e-01
-3.769246552436240072e-01,-1.080853988229761198e+00,-2.730272598601939937e-01
7.328233485624893184e-01,-3.284522177858615333e-01,-5.359688593080997876e-01
2.576241261060962517e-01,-9.785245269370133059e-01,-2.505848371540991271e-01
6.587743019066288896e-01,-3.548691555907607653e-01,-4.503658877863523369e-01
-7.524929451549305925e-01,4.147986733026445827e-01,1.702870958675771207e-01
-1.034402444346007033e-01,9.373986728995064022e-01,2.236242278667999184e-01
6.636972620802785716e-01,-7.276879242041083273e-01,-2.191642343990450603e-01
7.416642728585460809e-01,-7.136100182950382287e-01,-2.462209673311888114e-01
6.988205795201715143e-01,9.418892012095072541e-01,1.668340853779782251e-01
1.041392744245071222e+00,-4.165470071086362358e-01,-4.030879278787368736e-01
-9.492659470169896585e-02,-7.912693342588950074e-01,-5.319017343419278898e-01
4.170934758853497293e-01,-7.947734491665578993e-01,-6.332391636163332560e-01
-6.541896234156159562e-02,8.771511141104290088e-01,6.024044432221434819e-01
7.526677963167220931e-01,5.548839356034196424e-01,2.960699633804149133e-01
7.739762366073783539e-01,1.553157514669116501e-01,-7.381493031244885927e-02
8.258607225093849147e-01,-1.879337669844460545e-01,-1.146286300703732303e-01
-9.309489299158807407e-01,-4.227247877387161901e-01,2.603100963478853225e-01
1.669352422362730889e-02,-7.455734112676142278e-01,-5.038718756808293620e-01
7.766408949319336674e-01,2.238571234234930929e-01,-1.270297044339994963e-01
-6.074486507765058940e-01,-7.690447148970418478e-01,2.935053042455186209e-02
-7.822300722313867416e-01,9.485173658108893291e-03,2.483889530023686287e-01
5.649846307153355562e-01,5.717153034087282260e-01,6.820680677616985932e-02
1.031858385782021603e+00,-4.911526400995406827e-01,-4.087430860981705050e-01
4.683641796203280028e-01,-9.346604386298340561e-01,-3.019187067070865371e-01
-9.011763270971479001e-01,-7.090117357247082142e-01,-2.333021093938356660e-01
-8.302223132794424032e-01,1.611501396712365086e-01,1.181083645636287621e-01
4.288664654759406503e-01,9.768364966611999822e-01,4.761696236201393706e-01
-9.052923237511807386e-01,-2.924343506478910837e-01,-1.360571551181770367e-01
-6.626225872722969479e-01,5.133504704821088005e-01,5.948080920791505299e-01
-9.195206713728406589e-01,-1.847652026915586609e-01,3.393755846576402835e-01
-7.788930560280422633e-01,-4.103775729510039105e-01,1.731800181619705392e-01
-6.320448181002253918e-01,4.118670768849739261e-01,4.896047765582475786e-01
4.323154096452357931e-01,-9.883902542827341930e-01,-3.416977720714720057e-01
6.996655504015794058e-01,-4.515998161276359446e-01,-2.065160592033984388e-01
-7.272799803352580916e-01,-3.152059840860629847e-01,5.598356894297190633e-02
-5.684520197833004690e-02,-1.116130045910043389e+00,-4.739868492600730066e-01
-9.910622645327553659e-01,1.816149949340520667e-02,4.195768313762149870e-01
-1.250264368562548911e-01,1.093297449847640657e+00,4.762788260777141569e-01
6.248409195280721917e-01,-5.509536652586213279e-01,-5.972958689764937823e-01
7.391649108166994386e-01,3.511407273426983555e-01,-1.041704546694654510e-01
4.519842537862997500e-01,8.214111621325287382e-01,5.406681063780179736e-02
7.451795064155453119e-01,-6.897772715004727440e-01,-5.906895999475686443e-01
-7.338425503799956839e-01,1.731474394322266575e-01,2.192504949778063261e-01
-4.283780247178379241e-01,8.666797775669888848e-01,2.592622716030519303e-01
6.481937215853442735e-01,-4.967599342098465987e-01,-2.339504412700586233e-01
-4.927393431140152935e-01,6.206609511231339082e-01,6.214713283325852267e-01
9.780389698568520140e-01,5.114082470497796074e-01,2.069820112094988840e-01
-8.532559753717257056e-01,-7.794731809153631064e-01,-2.308096717226086891e-01
-1.173826684550603128e+00,-2.269545927405604013e-01,9.753580342747782128e-02
1.985736528515537058e-01,-7.347184141535277879e-01,-5.667400203920517354e-01
-6.199677191594090697e-01,-5.081406126571521575e-01,-1.773087064201737395e-01
2.974092642985595170e-01,6.657203211769757711e-01,3.322433249570685976e-01
-6.798837427685516799e-01,8.265056811751495536e-01,3.549167249059996254e-01
9.391341941124250470e-01,6.823257446155105432e-01,1.986002134553216947e-01
-8.841174230873933837e-01,-2.653219903305937821e-01,-1.210798498754761532e-01
-7.496384026579522297e-01,-7.083007973103769839e-01,-3.361331514348402383e-01
5.514578031720754892e-01,-6.780878176694712378e-01,-6.377328880576441650e-01
7.557609706493146895e-01,2.294978583923710236e-01,-8.985128494894381590e-02
-1.023042901728093312e+00,3.213585600608109272e-01,5.028151787173410492e-01
-3.522498370375944376e-01,7.841027393084650798e-01,2.355255289058494628e-01
-1.188545250061725733e+00,2.401333413483047741e-02,2.387840826425514651e-01
-6.800443968335124767e-01,-4.559212806767445336e-01,-1.216599935484630884e-01
-8.733023883384691821e-01,-4.821782066239150844e-01,-2.387752190024760857e-01
-1.173262817409201242e+00,1.248515623555912640e-01,2.410710254137392039e-01
-6.390557769013736067e-01,4.900984166949912124e-01,5.961090549174085096e-01
-6.197907254879225780e-01,-8.567295631104696607e-01,-1.476082284947674399e-02
-1.126063615348100955e+00,2.357082501224138926e-01,2.787380015940129629e-01
2.041669969434591891e-01,1.109664384837017126e+00,3.101699918412207380e-01
-7.578569834995416143e-02,9.296233246193338351e-01,2.203184271861995391e-01
-2.017641626268856514e-01,-1.015218838122040390e+00,-1.871319457565945310e-01
9.614683415265472544e-01,2.899441781421955300e-01,1.295116882630606425e-01
6.734962880723898149e-01,8.991289889357011456e-01,3.498563255865233534e-01
-4.603073224537017616e-01,5.970305746499819932e-01,5.680393393375312572e-01
6.273225630138088427e-01,-4.210074043675632316e-01,-5.340018606930978518e-01
-7.139150192613888946e-01,-8.547147474199855433e-01,-3.251094907821064361e-01
-5.423169148332844802e-01,-5.806433141761396799e-01,-1.091153963098567686e-01
5.593290590593676948e-01,-7.690968666289896838e-01,-2.169306994689870205e-01
-8.243202175872762494e-01,1.348608166309399614e-01,1.110627955626522639e-01
-4.105452616510509301e-01,-1.069008569709033907e+00,-2.421500734905195629e-01
2.008242209917414367e-01,1.046790503285402796e+00,2.065529989537774613e-01
7.932775572647227103e-02,7.523394478608539382e-01,2.684678811423630296e-01
1.037596511446172931e+00,4.478801954236333871e-01,1.274288743805195301e-01
1.051028373387659087e+00,-4.291415748445016609e-01,-3.291938122038406411e-01
3.314588358578161587e-01,7.742990011982601173e-01,4.754390042881062595e-01
2.086928406072419140e-02,-7.567181323256608749e-01,-2.748072426289531189e-01
1.010310191687535442e+00,-5.085703643034392707e-01,-3.943667206270379810e-01
-4.836359545143376071e-01,9.717773143260731716e-01,4.038526605431180250e-01
-5.196814855599233285e-01,7.614464503330272693e-01,6.459118527724323489e-01
-5.633061748293537452e-01,5.134684764852827099e-01,5.397207885159689411e-01
4.136170366651670816e-01,6.727243818831160072e-01,1.337842424288388787e-01
7.395446266491233489e-01,-7.812392455367080935e-01,-3.413660955833077715e-01
4.370146777006033711e-01,-9.707841760097249972e-01,-3.577503836600906539e-01
-6.847212373448239298e-01,8.758432280392259850e-01,3.698632841378824421e-01
-2.714922169985347147e-02,9.807488634535642680e-01,2.160309449928823067e-01
3.688917703207441057e-01,-1.014985685064527798e+00,-5.210506328654099795e-01
7.468471886125366277e-01,6.001859290216068343e-01,-1.079918393780575220e-01
-4.859719640682584885e-01,-6.542361659326897394e-01,-3.527654845208550438e-01
-8.922878728857527308e-01,2.019680927439478774e-02,4.013373735336165926e-01
-1.163593737683750629e+00,-1.257163945773111802e-01,2.770518855609751530e-01
7.807333229493397253e-01,2.522451056159027982e-01,3.068439945642963736e-04
1.053004547652801381e+00,4.639536036857487833e-01,-2.007250242446679822e-01
8.768094565547271957e-01,-5.303843861792065795e-01,-5.481758864246352170e-01
-2.640170531530856013e-01,9.258101189144706256e-01,2.428701692798646838e-01
-5.369646061226066719e-02,-1.094596373404826961e+00,-2.689381420510606469e-01
5.370693549410820999e-01,5.603443043964743131e-01,1.210766929973880746e-01
3.762608436646093790e-01,-7.782670925479607815e-01,-2.582336890335833468e-01
7.052036143130631096e-01,-2.808902794336862185e-01,-4.523806274779767489e-01
6.625454043895530054e-01,9.312617752827697659e-01,2.719410511473504544e-01
1.016544073508265145e+00,6.159142687659722171e-01,-1.785936317738354498e-02
7.049281107239082633e-01,-2.701630989799042037e-01,-2.872091614197948006e-01
-5.565055401439668037e-01,-6.770310882863075364e-01,7.944067260445390050e-03
-4.336529122304205730e-01,-6.874754544520207400e-01,-3.634088290425048773e-01
-8.464081824093270257e-01,2.962618295115744260e-01,5.385994542437027022e-01
-1.311833637688338550e-01,1.042681683124948799e+00,5.536733469694631316e-01
1.169748613946161475e+00,2.485126993030818965e-01,-1.098429056753752880e-01
2.127251061482803574e-01,8.598103169894234510e-01,1.449874134790235247e-01
1.091377871415179168e+00,1.817763691722577846e-02,-5.184987570591419875e-02
3.790414628594117041e-01,-6.094306038837338235e-01,-4.948713084366365700e-01
5.555844835614814209e-02,7.476185465666732588e-01,2.740493660505027296e-01
1.126304971377652286e+00,-2.028640054574419316e-01,-2.951280076661391139e-01
6.922510883526420411e-01,-6.948208571430974922e-01,-2.352117766071335214e-01
7.219396738773318223e-01,6.008532621818910568e-01,3.089197092148684431e-01
8.460119244290577045e-01,-2.850525779895953793e-01,-1.285243525906917261e-01
-8.687078467524954606e-01,6.873246433256929855e-01,4.337791753935857364e-01
-3.137602954744611594e-01,8.422537502272329224e-01,6.460845156469384731e-01
-8.989578563234881248e-01,-5.906603220321159364e-01,-2.361129574343729387e-01
-6.134719247817761456e-01,-7.526768276829135518e-01,1.728950030095301876e-02
8.086318450119197587e-01,-5.970346238665062977e-01,-5.916934815281819082e-01
7.931081422422661120e-01,2.530132240396585908e-01,-2.272063690631837274e-01
7.456501909032443587e-01,-1.393055095132841870e-01,-2.031754411909252878e-01
2.252381077326848224e-01,-8.054598431703217098e-01,-2.423225354006175447e-01
-1.080890886242050097e+00,-3.845779809775788927e-01,-6.332258028262954808e-02
-8.398365619105421787e-02,7.536404960338332071e-01,5.769485084215802972e-01
-7.036822407672901347e-01,3.720927758161922116e-01,5.503138023811039448e-01
8.799444296176884839e-01,2.515614808360998045e-01,-3.130415741895845594e-01
3.464414978888419316e-02,1.118348342846874566e+00,3.287868994393153277e-01
-7.915991004636449002e-01,-1.149674098885824364e-01,1.833801102457192911e-01
9.825500870152541477e-01,3.144466875499222352e-02,-4.178801036042667505e-01
-6.387358862810220694e-01,-4.770291602923632523e-01,-1.133281241362968199e-02
7.335785309383957564e-01,-6.378478856188477542e-01,-6.059788494923052937e-01
-9.433706444268501468e-01,-5.881568592774086834e-01,1.308438625741357997e-01
5.702067191292618104e-02,1.003191591710360431e+00,5.626054037716058387e-01
7.624930918566555915e-01,-1.143428542353709387e-01,-1.810979512297355432e-01
5.276210872275418629e-01,9.875581305218900097e-01,1.157864585442068411e-01
-5.150655621525108696e-01,-1.003921787087072692e+00,-3.747030466199392507e-01
5.397015272135121666e-01,-9.458770857742112570e-01,-5.203255765259752197e-01
1.113010324211224589e+00,4.262103332265641531e-01,3.792103935903070461e-02
-2.623981109752929197e-01,-9.620394488927273002e-01,-5.476811493859241597e-01
-1.907446302501557833e-01,-8.153609365247878049e-01,-1.615107443360328798e-01
-5.782331220273209116e-01,4.698274953583483904e-01,5.105278613041533964e-01
-6.777480323658817696e-01,3.345986752036518852e-01,3.064225019626460877e-01
-3.184485589100450875e-01,6.565662259068787421e-01,3.855168299461086412e-01
-7.297796499821495031e-01,-6.050315968890982443e-01,1.139747188324345545e-01
5.843255306244163894e-01,6.848846358903329934e-01,3.789739749107124411e-01
9.470029969839157680e-01,-4.220717585234557978e-01,-1.785581863114827916e-01
5.791995683000049633e-01,7.006932679395522223e-01,3.904904992793137852e-01
-7.119137937809524863e-02,-7.231119348866107410e-01,-3.286616408607352935e-01
-2.545231659105742089e-02,7.225701764409785399e-01,3.146662701861932532e-01
-6.254180062322369782e-01,4.200576478507103140e-01,5.232679438590569498e-01
-5.369210205224350663e-01,5.252420674556816937e-01,5.303816581327054358e-01
7.512653214216890030e-01,4.095760502735179553e-01,1.626328706376815869e-01
-8.073608167515023970e-01,-2.000053805160277032e-01,2.685968729733633764e-01
-1.139543510551211503e+00,1.574099201946523585e-01,1.729784598370540105e-01
7.812738393789556701e-01,-6.822731909128542105e-01,-2.404620806012564005e-01
6.177182647594235965e-01,8.897085746937625217e-01,4.034193946395857044e-01
8.743570299453450323e-01,2.480114421059769481e-01,-2.923501047125974805e-01
-1.009025765067340208e+00,3.786711380911358948e-01,1.983886825768411410e-01
9.091174271184888633e-01,3.248121585571840941e-01,-3.066590735495578479e-01
-9.422585467081245891e-03,-7.207847744012897406e-01,-4.284569110841290884e-01
-5.963020604982829376e-01,5.249930382428320552e-01,2.584516201307080485e-01
-9.345752266189930602e-01,3.139882627716641950e-01,5.247220672760172233e-01
1.075918405770834196e+00,-1.723315971966386251e-01,-1.184844345909872171e-01
8.251438548419655072e-01,2.326544146837510318e-01,5.333732754799277997e-02
-1.168005259409561347e+00,-4.031807384370209718e-02,1.590345539507820594e-01
9.150093913971681092e-02,-7.486697894563247857e-01,-2.893969723026353358e-01
-9.089063038134392869e-01,-7.134851376194829564e-01,-2.255122247780137479e-01
-7.785047364497216238e-01,-2.417788919265097813e-01,1.330941205370395342e-01
1.154880976095935124e-01,-7.265217144930459225e-01,-5.258468413027862498e-01
8.621306887906040606e-01,7.543675637145926816e-01,-4.580962992664312089e-02
8.230430639727467357e-01,7.963494833114490579e-01,3.104059154850367097e-01
6.657566047095568873e-01,7.856915649772597821e-01,3.851439429109694834e-01
2.895029123929926951e-01,-8.134798528797079209e-01,-6.284508487388028586e-01
7.265962320418019038e-01,6.629431783011683343e-01,-8.349497135193809094e-02
-2.072130865586012116e-01,7.946966285370831162e-01,2.361682468112864253e-01
-7.333410840121881158e-01,-7.828660235148038327e-01,1.940020988707211180e-02
1.111623478022301992e+00,-1.868585052477940156e-01,-3.902206446497615833e-01
-7.926801065445939765e-01,-1.332273881255641446e-01,8.627460966779496032e-02
-3.544850871901315537e-01,6.811737251552059114e-01,2.890274824138209242e-01
-8.622730509524657860e-02,-8.241370812572030857e-01,-5.653962256036536571e-01
-9.244199282546345930e-01,-7.962428810890308239e-02,4.014887392846147596e-01
8.544994707950253066e-01,2.210841382112087306e-01,8.187116425598094105e-02
5.870054085371471109e-01,-8.364412501049369730e-01,-6.008498662119148293e-01
-4.697232404708685527e-01,-7.638555087748354344e-01,-2.088122828364890812e-02
4.850696042219136972e-01,-9.123087034725313460e-01,-2.758692813246963471e-01
-6.827323730863100737e-01,-8.959058126108390141e-01,-3.562288419027861974e-01
-3.417949542951673747e-01,-1.077109271913508248e+00,-2.585195952399795827e-01
-1.002958502469945445e+00,-4.529289853051267078e-01,2.296235676692661987e-01
3.289405699957754781e-01,9.306945052551743869e-01,5.230126037757661939e-01
8.239426867642403174e-01,-1.335877854861103504e-02,-3.722431397798107722e-01
8.637119948101041889e-01,-4.658888413353808322e-01,-1.776646672420243711e-01
-3.404000071128106542e-01,6.443491853861326168e-01,3.665796672489168295e-01
5.606807026169551289e-01,8.735077206314258991e-01,3.704281279635959767e-02
5.577726738361596936e-01,6.903156084367313428e-01,2.933193123038352682e-03
-5.259790260151405716e-01,9.390485292654960903e-01,3.062753736638568758e-01
-1.114860791533674789e+00,1.562946522301590091e-01,4.175137598762748148e-01
4.091293827624056800e-01,6.470984283368496071e-01,2.453304684914924261e-01
2.680658148862470891e-01,-7.358051883149835382e-01,-2.707739661888182714e-01
-8.254013291506442362e-01,-1.894682675336176458e-01,-4.760128534496010921e-02
8.285436534638009887e-01,8.255984301891761135e-01,1.021037292205825703e-01
2.316294288192951578e-01,6.943672809659786616e-01,3.402646506446036501e-01
8.885551918881609001e-01,-6.648701118745337091e-01,-4.046839049953647738e-01
-3.215521960593697992e-01,-8.019271613570247981e-01,-4.996469442897247260e-01
-7.409433570296415361e-01,6.407467545927681973e-01,6.053761526986994879e-01
-8.354965721390065214e-01,-3.545459041844677508e-04,6.291051764911861910e-02
7.139628630645712404e-01,7.375986449025978553e-01,-5.880997529534421481e-02
-3.676969573346374198e-01,-9.514886983526307240e-01,-1.104115848039086967e-01
-8.170804499311586921e-01,-1.643100419306488952e-02,3.130498763847965327e-01
8.662497406422795532e-01,-1.113981527851078540e-01,-4.603495788428939584e-01
1.021699728537492247e+00,6.361217189542555106e-01,7.444987186725611494e-02
5.274387155847389819e-01,-4.657556999261777131e-01,-4.330379289804090481e-01
-5.095265961011719025e-01,-8.815660848008600725e-01,-4.352935769696827384e-01
-7.938654202000954285e-01,7.376864626308130557e-01,5.158380226147605274e-01
7.922430397807244118e-01,5.484043937118902035e-01,2.948320198840776452e-01
-4.411472830788289445e-01,7.964189342550295203e-01,2.267928566249432232e-01
-6.762741642599282565e-01,-5.161938500155617282e-01,-2.541418497585615222e-01
-2.646085007813944179e-01,-1.073408114354132747e+00,-4.398849396735955430e-01
8.059914256855886805e-01,-1.185163770279108464e-01,-1.350167335527118484e-01
9.277286389792640531e-01,7.677269263748656147e-01,1.530746850359367695e-01
-6.147447311966267591e-01,-9.713056942808401262e-01,-1.489496818831151093e-01
6.189633406901156043e-01,7.551569290084543251e-01,-1.169203132541296423e-02
6.342658001378645993e-01,9.287989225783133129e-01,9.651809835503755153e-02
-8.815602856153266220e-01,-6.531853042922439734e-01,-2.601327839857464630e-01
8.182757915632639101e-01,-1.706908547478676319e-01,-1.207407572203926666e-01
-3.697031175807456438e-01,6.311159336460649971e-01,3.293306107141579231e-01
-4.849147823767943621e-01,5.366036165174735695e-01,4.418926005099154675e-01
7.169926514226748759e-01,6.245973384993686039e-01,3.369188332214813064e-01
1.078182942385895876e-01,-8.010070718187151106e-01,-6.101953396047815614e-01
4.962954536404239891e-01,-8.965427257059568333e-01,-2.708059833735535493e-01
5.865414624751398298e-01,9.963830076242372602e-01,2.630968523663226866e-01
6.825309776941430595e-01,-8.206391043252311279e-01,-3.855971220529368360e-01
7.709818379221720086e-01,8.486832799370326585e-03,-2.297892590663222212e-01
3.990872742437240502e-03,-1.087204888361976929e+00,-5.175280270307932584e-01
5.109256845781346978e-01,1.013604560251220699e+00,3.978793651264581066e-01
-1.088603370940681714e+00,2.668167123028312715e-01,3.897851553760280363e-01
-8.171492825284303319e-01,7.189028411889086811e-01,5.358278937142590959e-01
3.997326016351895883e-01,8.406759517993820374e-01,4.983793940325184635e-01
1.146197048979781252e+00,-2.431948635557392713e-01,-3.289994964192138327e-01
-9.021683287342976421e-01,-4.645157580715058576e-01,2.181564830327923366e-01
1.069972967202893477e+00,2.119017372641566477e-01,-3.236755752039929268e-01
-4.267034167335822525e-01,-9.310059581727118116e-01,-8.098210561758380222e-02
7.237769265219697878e-01,-3.863541411314505569e-01,-2.195518115262043435e-01
-7.033688580796819689e-01,-7.816015627008552347e-01,3.364478336813725434e-02
6.156361523132891644e-01,-6.867654007639202307e-01,-6.189727239404023695e-01
-5.448718059890355070e-01,-9.215198270121162105e-01,-4.710705350981437417e-02
-1.312917880120456349e-01,-7.407527796205879422e-01,-4.091187814451316962e-01
-9.294677648346751919e-01,5.582501791025191729e-01,5.245465365496241317e-01
-1.859612546508703501e-01,7.982754938068320483e-01,5.824537628370474174e-01
-6.676043927659719435e-01,-8.576323344850850239e-01,-3.566144617632964753e-01
8.532921105146090701e-01,-6.748990479895665695e-01,-3.139901076382252132e-01
-8.640504231796076740e-01,-5.639665498792678644e-01,-2.588134373970030766e-01
7.917889914011561059e-01,1.073516373070912272e-01,-2.410488135442972468e-01
1.109565201571963922e+00,3.683013645774433353e-01,-1.699278726604709078e-01
-9.936401642528387701e-02,-8.074128592944738170e-01,-2.202907069999208156e-01
-6.081569351888542752e-01,8.080613586518969882e-01,6.019282614025085465e-01
7.874201667352785927e-01,-2.580264086610344343e-01,-1.575589962563569979e-01
5.911277550489636434e-01,5.234382134615239712e-01,1.379309483931488722e-01
-6.518047816515276649e-01,4.950484798877583525e-01,2.270253160378347956e-01
-9.916347352201311249e-01,-6.793374065342934198e-01,-1.607789585524994902e-02
-5.155047334077131893e-01,-7.401533620135450908e-01,-4.333417621770564998e-01
3.634321513252011249e-01,6.924125092025879002e-01,3.772650375293803426e-01
8.802733895653404028e-01,5.932607991609620823e-01,-1.473669304238000022e-01
2.887080761447508026e-01,9.798106940919586449e-01,1.257367779520763840e-01
-5.718475151202425527e-02,7.350598180634959622e-01,5.071808755600332175e-01
8.605117308744751892e-01,7.983271821743714858e-01,1.069884589944805342e-01
4.323319748532040152e-01,7.345979531202001533e-01,4.346786014998536007e-01
1.034247955116711859e+00,3.468355478960862825e-01,1.108386321549398867e-01
-1.723562908199244847e-01,-9.852594539475136859e-01,-1.746228835189526374e-01
3.206362762937535749e-01,1.032571692911720351e+00,4.624414604816499685e-01
-4.873707977085058318e-01,-6.414500616814488021e-01,-3.270519833273474175e-01
-2.437014775993520399e-01,6.699333956256214861e-01,4.800022808062089918e-01
-7.940093229759678239e-01,-5.280562958285349717e-01,1.614864198279579444e-01
-9.123936168396059587e-01,5.172658898462034749e-01,2.033923226318533617e-01
-1.065596439589193922e+00,2.990273949375833462e-01,1.777292625366699852e-01
5.096498802654658017e-02,7.419227602680293909e-01,4.565656100589006727e-01
8.404462165858097578e-01,1.479515604299017628e-01,2.267852596132690149e-02
5.662959776065322748e-01,-4.573802568918561295e-01,-3.389080421002524934e-01
-6.723471046481965807e-01,-9.724496828941647797e-01,-1.702640356441414704e-01
7.551168247076679441e-01,4.280438333296464615e-01,1.888592306437189561e-01
-1.939880755433725790e-01,-9.563178036387335323e-01,-1.279056535905419845e-01
9.669002572910607718e-01,4.502552462821111656e-01,1.844690594499152625e-01
-1.059281491772779304e+00,3.520974767101264225e-01,1.999774352809185474e-01
-1.150486818605243711e+00,7.727478390104977612e-02,1.304756250422519914e-01
8.229410824280014580e-01,8.247074509007128462e-01,2.131769602418572274e-01
-1.879050741023484961e-01,-7.926342724326888023e-01,-5.126129255016663722e-01
6.350572796877471671e-01,-7.118058687410367957e-01,-2.590192939485186363e-01
-1.031565285583574187e+00,4.309631161158014589e-01,3.754101260325143352e-01
-5.405845992016083956e-01,5.343554784338476749e-01,5.721505447410816236e-01
9.450907808870303572e-01,5.708374292635099989e-01,2.245794417325834569e-01
-8.423412292094520915e-01,-6.820594757016604781e-01,-3.106139696071554823e-01
6.193773015668052606e-01,7.602588898123280314e-01,-2.377308466848775462e-02
-5.941448062189897961e-01,9.246821550595852868e-01,4.145283548991497424e-01
5.359258868064399328e-01,8.125601730074262230e-01,2.357438297110327208e-02
-2.484632696994498180e-01,-7.011792442369967349e-01,-3.263210749521383569e-01
2.139518697674771819e-01,-7.613832379945703055e-01,-2.685746413830469859e-01
-1.577864192601880489e-01,-7.355030611298035703e-01,-4.139798679890472899e-01
7.669602239050510306e-01,-1.989361003613167589e-01,-1.783543289998413828e-01
7.454241990401448970e-01,-2.696052045838727151e-01,-2.513459388412225826e-01
-8.396615315808528823e-01,-6.442666382360686672e-01,1.412094147263342203e-01
1.698288145936537041e-01,-8.165882790637367661e-01,-2.366427335951608868e-01
-9.808503532973423811e-01,-6.747619278125961406e-01,-5.701257244982961547e-02
-3.691297418303911559e-01,-8.755348039307910835e-01,-4.941153844048059574e-01
4.344638099321804225e-01,9.681414320181449540e-01,4.601860604815455891e-01
4.040981137133936585e-02,-1.108872937900138522e+00,-3.369522371062711463e-01
-1.627464539369873342e-01,7.597768871992452988e-01,2.977907578523230625e-01
6.125114653456470437e-02,7.219003980060744174e-01,3.251826102086271542e-01
-6.671824395844672129e-01,8.599740348062235862e-01,3.151050323006311937e-01
7.669652303184701925e-01,-2.736713364399044335e-01,-1.746799207751048300e-01
-9.249669303463018410e-01,-5.816970448085043710e-01,-2.175985106848481454e-01
-3.831558280228469782e-01,-1.093351430667263813e+00,-3.765183492639425644e-01
8.364050879256671456e-01,2.134424286323756137e-01,7.851167288946764300e-02
-5.492653823090702936e-01,-6.075993388522589189e-01,-1.652702856343323257e-01
-8.601679329092561943e-01,-6.431918078374004866e-01,-2.840890606303929089e-01
-4.833183567465125785e-01,9.021605381263527734e-01,6.079142503638786943e-01
6.268775665038804901e-01,-9.023145635371766504e-01,-4.207124284804367176e-01
1.059716747346891724e-01,-7.291870668260004296e-01,-5.413992829836475895e-01
-8.907626217568912486e-01,6.548848293262594655e-01,4.972105314699247214e-01
-1.022108920346832539e+00,-5.030184709578005009e-01,-1.581033779744256129e-01
3.211570849208216644e-02,-7.427215506475111084e-01,-5.070101656004122326e-01
-6.970435434585982026e-01,2.977211122422258049e-01,4.807797413009686771e-01
7.751468885915872020e-01,8.226626787720692224e-01,2.963631549102442309e-01
8.331968356788016505e-01,-3.132480308332135643e-01,-5.424634036171449569e-01
-3.307402835698014520e-01,-9.718001994853535663e-01,-1.313045908089102154e-01
7.358511134676366527e-01,-2.983145537518990809e-01,-5.185208232186366839e-01
-1.041199269064647659e+00,-3.861741705331419028e-01,-1.100853921439881034e-01
-8.366613886544727041e-01,7.187078540927565040e-01,4.083578634934814655e-01
-7.998307226076284415e-01,-2.029471074978214107e-01,1.479317653083224264e-02
-5.675452400441706180e-01,4.746232886384914584e-01,5.451907360282431947e-01
-4.253438893300231505e-01,6.031972864725492212e-01,3.005926331630257575e-01
-7.056437940201745196e-01,8.154037756694400008e-01,3.438928077215853141e-01
9.725721722324552898e-01,-2.230102535198200397e-01,-4.988005461017774311e-01
-7.884353627121578612e-01,9.134420984994626180e-02,1.981967904254472168e-01
-4.367579344007558872e-01,-6.210279319158882316e-01,-2.706171339024326383e-01
-7.582323390149755538e-01,9.306006900946953153e-02,3.564210670611921428e-01
-2.966532862957983463e-01,7.504783773550481873e-01,2.594455658276667021e-01
3.950663140786103006e-02,-7.306731691604971823e-01,-4.478820899556629209e-01
5.401866110940661825e-01,-4.618093800411262606e-01,-3.726803964765664778e-01
-2.179730409615535380e-01,9.585038752052577049e-01,6.303898797863668468e-01
4.648251874140849060e-01,-6.580655734765464837e-01,-6.131382329055469205e-01
-1.084006175308926512e+00,3.508204553662517822e-01,2.621705808919964631e-01
-2.483884245707816685e-01,-1.104402103861821027e+00,-3.150259266146872017e-01
-1.673580396465985942e-01,6.935225602367220965e-01,3.326258948035538121e-01
-4.210118837249277601e-01,9.633759760969680119e-01,2.937618692543234045e-01
1.132154915461647260e+00,-1.698613133924352647e-01,-1.868568760459264344e-01
-2.529054301496923562e-01,-9.175027394872645736e-01,-1.367157785753992383e-01
5.678311871229431151e-01,-6.758110019719262285e-01,-6.262536337753894511e-01
1.052469053045842928e+00,-9.475482084015712791e-02,-8.121407662964037766e-02
-9.758653654496547425e-01,5.454124964631180683e-01,3.236652423385378841e-01
-7.842455876672462800e-01,-6.954581637845150821e-01,7.850616823717763981e-02
-8.134614550732227611e-01,-4.721124186482538593e-02,6.489029976813844025e-02
-6.665344504552882521e-01,-5.440626203172604924e-01,5.145802233500842982e-02
-9.173230079371739176e-01,5.558024940845810447e-01,5.027211304208760723e-01
4.213516510518174885e-01,-9.986025404548188877e-01,-3.864255650772459028e-01
-3.356892074071275434e-01,-6.887988076183395592e-01,-3.157710688755860917e-01
-7.162911100658562180e-01,5.857948391895787532e-01,2.322638642317805535e-01
5.531016153227813481e-01,6.692481306520361439e-01,7.953471237111577052e-03
-7.498590738362863606e-01,-9.494016873364021780e-01,-2.273566612842646828e-01
6.439873059343462769e-01,4.385135093518958693e-01,8.860405094780528235e-02
6.616296242454402510e-01,-6.954553551935545030e-01,-6.298306672954100405e-01
1.720334057553443707e-02,-9.317616383323705787e-01,-2.206744620914116162e-01
-3.817567059929604656e-01,6.688191596915565862e-01,6.064847151687342564e-01
5.499486045572060666e-01,6.960569264270890510e-01,-3.296095518650686389e-03
4.767349253552638499e-01,9.615055330714686876e-01,1.140353516887048502e-01
-5.963856470314042868e-01,8.071176069879348880e-01,2.753026141142262961e-01
2.188471089233449962e-01,-6.641195984531998997e-01,-3.712761826122029651e-01
5.897075907650900506e-01,5.164806562646427901e-01,1.502476977017511983e-01
-3.991852528923092031e-02,1.066526298335227052e+00,2.754485305131889050e-01
5.370595541838676379e-01,9.385315073416727882e-01,7.785950273602372518e-02
2.322571480379479747e-01,-6.833608128683825722e-01,-3.431087227255805727e-01
-1.583849477273288836e-03,8.819788702927496837e-01,1.851439475604557683e-01
2.676963922007825070e-01,-6.749279329169829422e-01,-3.859089799528470088e-01
3.595851789950231248e-01,6.621915023722614313e-01,3.079034187126659661e-01
-8.048278328227175260e-01,7.382718552014992941e-01,5.001082347944983963e-01
-1.988139532651039820e-01,-1.109257320829334592e+00,-2.732137943071978325e-01
-4.079598562713124266e-01,-9.902485351164386218e-01,-1.114333978434535327e-01
7.931805954302311168e-01,2.841049110470797445e-01,-1.701664719463762687e-01
-7.034628887675958842e-01,-9.403561035993270867e-01,-1.099077449224395708e-01
1.148485341896563261e+00,-4.323207107635331642e-02,-2.842234500666953045e-01
6.201689789202934344e-01,5.244028569776869597e-01,2.086528247984952844e-01
-8.490386149166117002e-01,-5.192869179443854177e-01,-2.312853813125893276e-01
-7.513706567362131716e-01,5.347291763365327188e-01,6.116515651316821733e-01
8.156901398356453115e-01,5.278335148738871885e-01,2.526597955662533979e-01
9.783094396371974089e-01,2.133005763536779675e-01,1.057081860007379887e-01
-5.218336822297205968e-01,-9.556339669172322360e-01,-9.343052198440339462e-02
2.520489689699305091e-01,9.724841017793363074e-01,1.435328362602994456e-01
8.019765691479854297e-01,-1.594863610631887599e-02,-1.434315078469070581e-01
-1.165405328481795344e+00,9.550574751011005337e-02,1.769118559630725729e-01
-9.552992423846704551e-01,-5.989298288003376269e-01,-1.812655818669820229e-01
9.178886122375832235e-01,-3.575876834611040889e-01,-5.456640480074452793e-01
-1.107753729979681800e+00,2.038643210097096092e-01,4.203803559232794362e-01
-7.987828653984194172e-02,-8.824461005149027981e-01,-1.767037279477584044e-01
-3.525706910288531337e-01,-8.195125541027203919e-01,-5.081026399491795909e-01
-3.418187166038950120e-01,-1.036780491887890454e+00,-1.638985463943787857e-01
-7.501709289073135167e-01,4.665042574917028784e-01,1.766589676608711357e-01
2.385601422274686023e-01,7.438875817015287994e-01,2.090840557308842329e-01
1.058620261853458144e+00,-4.280029952385152603e-01,-3.851704488133039228e-01
-5.601307331500204878e-01,4.483908848288650217e-01,3.619875175544102763e-01
-9.063857526001454223e-01,-6.674335284907160215e-01,-2.312693407079651209e-01
-3.292520927082971949e-01,6.076433401976745197e-01,4.197101178113850084e-01
-6.340038245158755581e-01,-7.068254094238370921e-01,4.780125233679581587e-02
-2.285136133644670442e-01,7.763251449876126253e-01,5.995674755085654839e-01
4.305900483657349453e-01,8.602829923296320125e-01,6.385118606667579411e-02
1.235161828604368073e-01,-6.939568885560275513e-01,-3.400131492598672533e-01
-7.050616436691840017e-01,2.478765426768054225e-01,2.611168596736545555e-01
-7.697446819444754285e-01,7.703890169494923001e-02,2.899551433121366206e-01
-4.169141797217298384e-01,-8.908214251866226618e-01,-4.872100115155251210e-01
-6.946688355116406033e-01,-7.473642377539503334e-01,5.347000730690995574e-02
-9.024114053489310505e-01,-7.213263993560776743e-01,3.901415427644419620e-02
-2.377455339219731179e-01,7.526531663639254299e-01,2.728312314519110160e-01
-6.088739653910755362e-02,-1.118893756751931479e+00,-3.686871460782243370e-01
-1.154962236356089855e+00,1.285029830185344668e-01,2.590973239675734563e-01
-4.589787593623427253e-01,6.232843318015635070e-01,5.863030984755787101e-01
3.400794090748839871e-01,7.759728518078935489e-01,4.786253351627360320e-01
7.785801108891863276e-01,3.008385365705900094e-01,-1.543846824496423742e-01
-4.416303222965965447e-01,-8.124760044448681162e-01,-4.896560999773792999e-01
-7.061565153491172753e-01,-4.592737721023256725e-01,1.010486854935827850e-01
-1.146502172847336132e+00,-2.130245473787390487e-01,1.375920880393089948e-02
