2.576252329718291545e-01,1.035789307805060483e-01,7.592656171049882996e-01
3.512869072424840144e-01,3.541492422847619115e-01,8.243133153496696730e-01
-4.493266516336025806e-01,2.582169414530570417e-02,-7.698695114372242632e-01
-4.694748615629626420e-01,-3.280134875805646999e-01,-5.692588389099001445e-01
7.274955227157950954e-01,5.593580126839488020e-01,-4.983439176080241007e-01
-8.585610377916699232e-01,-8.040268165390760391e-01,1.380211027312573668e-01
-1.403358986790379515e-01,4.091515053378925182e-01,-9.094212186623962246e-01
-3.596594179185274021e-01,-4.058970615214301247e-01,5.865648313326435881e-01
9.238866513605676900e-01,7.455062509573637808e-01,1.502168925056168169e-01
1.901935204323944861e-01,-1.349007580632732850e-01,7.815095858630797254e-01
7.845972029073057241e-01,8.673821825557019860e-01,-1.801353327957238293e-01
3.178988076794020401e-01,2.909334174578729892e-01,-9.389651091624316992e-01
-2.331869229882563982e-02,-5.671800251700399587e-01,9.398295967852948740e-01
-4.718171375659771516e-01,-7.733906661351631628e-01,7.450335282383899749e-01
6.768246249383861324e-01,2.249780887542128516e-01,5.682617855770247806e-01
-3.223861422804202848e-02,2.551618666005930902e-01,-7.667148981727340828e-01
7.666717787648957838e-01,8.366792932321900356e-01,-4.099199268079066760e-01
-1.673390248396232627e-01,-6.747590441063813227e-01,8.035305086892851056e-01
-7.325736493336422184e-01,-6.703929425647834339e-01,-6.173890191291303564e-01
-1.079995102050662070e-01,-3.109145432533390041e-01,7.336225375579196184e-01
-8.646448014765429901e-01,-6.773216833502032630e-01,2.987093570652263330e-01
8.556774938117879259e-01,5.846322578651510504e-01,-1.023739043775906549e-01
7.700157574679638017e-01,8.859274217544806929e-01,-1.505436438765907492e-01
4.358887104604478591e-01,4.173246979495948694e-01,-6.412626857253204138e-01
-8.301326399197347383e-01,-6.851203096062753461e-01,3.728988258044079185e-01
-5.904075165982938800e-02,4.210552041588842553e-01,-1.083773111275859291e+00
8.254179920572424223e-01,3.248567573490989679e-01,5.870893879775533897e-01
-7.070865843376497040e-01,-3.681899583698047818e-01,-3.560869497704955977e-01
-6.850801988978172385e-01,-8.947187472676363384e-01,2.214067284160701754e-01
-3.376857929604679676e-01,-6.104278686500031609e-02,-1.136991600461803920e+00
-9.078266731281492419e-01,-6.786319950584144278e-01,-3.302230065565927575e-01
-9.418839760932233851e-01,-6.126180078672186502e-01,-1.009095918333839381e-01
-1.957516643171485632e-02,-3.116447564839721629e-01,1.153137270853121343e+00
5.861505933922738637e-02,-6.847315234120988914e-02,1.126580818194054645e+00
-6.710162283675275008e-01,-4.756489858030443774e-01,-1.564917533889014223e-01
-3.257368037234851244e-01,-2.834745245310083539e-01,8.441430657382449354e-01
-5.332234873878426429e-01,-5.759064333321707307e-01,-1.391452252251815236e-01
5.987377993110741814e-01,5.291841045562363510e-02,8.953334103940400190e-01
2.451372454986571470e-01,-3.141824849659584640e-01,8.772228133311772424e-01
-7.610936511837694540e-02,-5.879785503198361463e-01,9.359240819316694271e-01
4.486188533351895269e-01,5.250873783279351725e-01,-4.487461968444893534e-01
1.972384240246048692e-01,6.069330685979771461e-02,1.131896993971449383e+00
5.447681691338622789e-01,5.601967679804269462e-01,2.872472259627464330e-01
4.359009223548738765e-01,7.175121000235485935e-01,-3.066336965038299334e-01
-5.565792888729469423e-01,-6.577028721602966588e-01,-5.667843531954036562e-01
-7.311970843536808040e-01,-8.716586772582154419e-01,-1.743679564444696461e-01
3.716887974377872661e-01,-1.855957258879383301e-02,7.598684900654875118e-01
-7.659653420459467954e-01,-2.439074123826627527e-01,-7.688104474092438689e-01
-7.314428349375700078e-01,-3.355126929830626881e-01,-4.170790922855819316e-01
4.935815568006775012e-01,4.725780236946500734e-01,-8.934177616290099877e-01
2.724770186112238091e-01,-2.910157086699132201e-01,9.081400475558895069e-01
2.999503515073278503e-01,5.199612200075272028e-01,-5.288167139925264992e-01
7.927672307328234025e-01,2.668834856859222948e-01,6.475365166995507016e-01
3.126840202584762474e-01,7.562121524086911073e-01,-6.121332793047763454e-01
-6.897396474081046724e-01,-6.519575656964620158e-01,-7.044055225728282910e-01
3.293997729252121087e-01,3.146371315555807624e-01,7.924400918524214799e-01
8.157080361195430118e-01,5.935584158846648473e-01,-3.673676806438002096e-01
-4.834074280319395900e-01,-7.109610566050521552e-01,1.666626062411825371e-01
6.106375743646456078e-01,4.827856186679401751e-01,-5.344397039724845255e-01
-6.695119162215303898e-01,-2.536367502834504517e-01,-9.459771490393446003e-01
-6.895021936628575876e-01,-5.064504522817175891e-01,2.104011780815416566e-01
7.602118494555307748e-01,8.879974693615397818e-01,-2.423438477893818943e-01
2.285929173734134179e-01,9.150955014765158047e-02,7.795501096164488830e-01
-6.612523329991260024e-01,-5.107902979623257789e-01,1.071771526349813985e-01
-4.266165747526302621e-01,1.185106669012522956e-01,-1.023834294932960187e+00
6.066622635767583427e-01,8.984768544958998682e-01,-2.005714472216496569e-01
7.328768191804695409e-01,4.275629653656117246e-01,2.138952532228148018e-01
2.213126440808912618e-02,4.953681978288588805e-01,-1.057338318728097804e+00
-8.552566082650996382e-01,-4.315536455475826871e-01,-6.164913502959658009e-01
1.100241113312868807e-01,-4.042972471018638214e-01,8.697925515561402143e-01
-4.952906123611707789e-01,-6.688537339646896118e-01,8.590437114379655403e-01
9.719755268417215599e-03,1.625293254030541479e-01,-1.167686919431348613e+00
-5.737401103831750726e-01,-5.385888232647145779e-01,7.796651892194582656e-01
8.133410817243263979e-01,6.668394440946234791e-01,-4.505077654502069873e-01
1.145183734245578677e-01,-1.290341334995704636e-01,1.179406036513660272e+00
-8.557534787157101697e-01,-6.323378441232866409e-01,-5.634206782324202578e-01
-2.227826014793664322e-01,-3.627631823839857494e-01,6.876291497583570944e-01
-5.327008763156785287e-01,-5.200764229358012525e-01,-3.489596900566496185e-01
-8.007304026067497693e-01,-5.799506904154704268e-01,3.984586560100953356e-01
-4.481137076740402403e-01,-4.669481758506645042e-01,4.810734440736249007e-01
2.157305510333132892e-01,7.659220113687978393e-02,7.674200943228485228e-01
-5.908154065064024074e-01,-5.632538817357365390e-01,5.060956309340233078e-02
-6.616702317991154381e-01,-5.036747169339214070e-01,4.888727075048685533e-01
-1.389430647900301297e-01,-5.205440795912060770e-01,6.804134014880994785e-01
-8.871834435492558235e-01,-7.028167938244297419e-01,2.285300934101732739e-01
2.564658507311551316e-01,6.160561008280594775e-02,7.716034713704758019e-01
-6.759664013361954549e-01,-6.479780583215095646e-01,6.543569623137801550e-01
-3.981894177366544774e-02,-5.084688450220649358e-02,1.035798628550629541e+00
1.515260104890249482e-01,-2.729670078829760788e-02,8.105442649780143505e-01
5.188783906559709669e-01,7.722140242573098945e-01,-1.626905951556232022e-01
8.175802366694672196e-01,3.664893511927950764e-01,7.146929400075965333e-01
-8.775736524866685206e-01,-4.615436781001880928e-01,-2.637083733912390926e-01
-7.252894654452106682e-01,-3.465214744106905331e-01,-3.984770045027564156e-01
7.261508131691237766e-01,7.428249333139317345e-01,5.259480414711247276e-01
-7.367920169771046135e-01,-2.284839135171205238e-01,-8.023451958778903270e-01
7.073703868399987549e-01,5.425398418780934540e-01,7.973991094138977997e-01
-1.910127653777055623e-01,-2.936347536459707475e-01,1.107717287836173403e+00
-8.524710633961528616e-01,-6.150449793696807221e-01,-5.037084611918090093e-01
3.926697379912250652e-01,5.688804566391663098e-01,-9.610681364514430669e-01
4.949623151486974848e-01,-1.778714874089715528e-02,1.044911423244796023e+00
-7.960720747750539283e-01,-8.422499973396083695e-01,-1.851930862009157630e-01
-4.090483951613572700e-01,-8.120367938082194703e-01,5.065426436287756573e-01
-5.361571233585016305e-01,-8.117755333799262507e-01,6.969383616980159291e-01
-4.386511936960815206e-01,-8.556179056831642038e-01,4.975272323665663743e-01
6.644952059216573392e-01,1.522501732084429737e-01,6.600067618759595245e-01
2.620657600581181579e-01,-2.278270435663091176e-01,8.404758101753495581e-01
4.493521469716851291e-01,8.513368888955138436e-01,-4.068971243373633584e-01
-7.159820249499090350e-01,-8.974895787512356948e-01,2.698937395489920954e-01
1.675742941915099871e-01,-3.473740436140305698e-01,1.043475806349023483e+00
-3.899240639699040334e-01,-3.578275794986648384e-01,7.420263236608717339e-01
-2.845299954452931712e-01,-7.197162061043091974e-01,5.996152191879148274e-01
-1.754742417927755427e-01,-1.843371663845848885e-01,-9.365899365832663914e-01
-6.021894809157635198e-01,-5.219504922359931021e-01,-8.312895317760879976e-01
1.699481176241575409e-01,-9.505033392751802146e-02,7.732851630931171227e-01
9.226676298283118527e-01,6.860686349049219812e-01,2.979149190493019517e-01
3.068510050145828796e-02,4.195477621265800705e-01,-7.274176928172538803e-01
3.984150772991718603e-01,4.659129106883721505e-01,-5.159002687850738900e-01
1.846489540215423275e-01,6.960472162981165556e-02,7.807984539960184378e-01
-4.812202620190373925e-01,-6.066605489277079322e-01,2.188500796401927906e-01
-4.939847909104648493e-02,3.537524320554920609e-01,-1.132078528077133495e+00
4.709646877581631363e-01,7.233191126901116208e-01,-2.156322090008121473e-01
-9.693589540945969640e-02,-5.949742049260392518e-01,9.710191815068021093e-01
-7.830076099477827345e-01,-4.906569926634499201e-01,-2.924633174964985649e-02
3.719824689504062087e-01,-6.025311804893367790e-02,7.945114090463804013e-01
7.573749946619875439e-01,8.336573798030536553e-01,-4.541147867115248316e-01
-8.501177577250560446e-01,-3.861737393190802781e-01,-4.969550302027059829e-01
-6.583345545926957421e-01,-8.981751526728614099e-01,4.033485895104386709e-01
-1.812740509988986295e-02,-4.097633732035305676e-01,1.125198916656570791e+00
-7.283632766538277181e-01,-2.306682842388691201e-01,-6.934151845020246618e-01
1.698280253272785589e-01,5.694117578219724113e-02,8.243582227630822379e-01
3.817682492111386661e-01,3.047759514266921155e-01,6.821343577244554091e-01
4.559192112335246350e-01,4.274674521039799613e-01,5.804364024331761795e-01
-6.358876999563118915e-01,-5.113447409211923089e-01,6.016523317475097610e-01
-5.321890752900885202e-01,-5.388768649988709969e-01,-4.030260336746160355e-01
-7.311207945511639661e-01,-8.679142931673389239e-01,4.057982066689995171e-01
1.094994479211940271e-02,-1.281430413051481143e-01,1.141632751910414134e+00
8.175791906839730006e-01,4.232383665989475907e-01,3.370229136871228937e-01
-4.685050746426537294e-01,-5.443581474898724348e-01,3.600451837343390804e-01
-8.344440930206806772e-01,-8.355792780125588237e-01,-2.128530490272917131e-01
-4.122429848933349961e-01,-5.112053090052108839e-01,4.396491067269635566e-01
-3.911813180058250627e-01,-3.839615130026048373e-01,-7.082638458683025995e-01
-3.820012609068627885e-02,-4.396827833677443773e-03,-1.008870389127264122e+00
7.242754611258919173e-01,2.148738247448600258e-01,7.289212713201390637e-01
8.017785992134304207e-01,3.172578285006892318e-01,6.051667708209730323e-01
-1.059414798781833783e-01,-2.284631007297242555e-01,1.102826551979753988e+00
2.131079470353620664e-01,2.299671962632495181e-01,-9.026104709584998886e-01
8.458029187714407593e-01,5.867907165384762536e-01,-1.682621561631484075e-01
-6.545415456338542493e-01,-3.170938267177444980e-01,-4.292104840167195179e-01
-3.502622001948434427e-01,-3.489930300042595190e-01,-9.282283531340809191e-01
-3.465355351108307391e-01,-3.063552754732074557e-01,7.996276933849958413e-01
2.864688269795541142e-01,-2.126423273624598875e-01,1.118619869397194488e+00
-7.495969758066229893e-01,-5.318069605405078004e-01,4.080639059355672393e-01
7.014160519168193275e-01,5.736647120227204022e-01,-5.942502566983600687e-01
8.476102050995661941e-01,8.396890165762349589e-01,2.038362171811408663e-02
-3.285095227411644614e-01,-3.084311250536440063e-01,-7.585071672964510681e-01
5.758522406968966667e-01,5.273276028675526472e-01,9.046724380886718431e-02
5.380132539987213525e-01,5.885959819111513669e-01,2.929154424237249699e-01
8.170261314442320844e-01,6.361426712972126918e-01,-3.581733586497037325e-01
-8.106332381731361503e-01,-4.689389124529876884e-01,-7.181039632505047399e-01
-7.563617607173027668e-01,-7.539751612526521818e-01,-4.632999888283916290e-01
4.646171702785286128e-01,-1.211147314354492702e-02,7.757431316365750451e-01
-1.980488412217100772e-02,4.619201200200222235e-02,-8.377600431090823641e-01
1.229963561254820426e-01,-1.727029336725178499e-01,7.687415365385973365e-01
3.733612951307959671e-01,3.569702605608985890e-01,7.244889612635329046e-01
2.644644028639555056e-01,7.062260095079291311e-01,-8.750550576412520210e-01
1.948494517230447975e-01,3.171960715604955072e-01,-1.116839293137972478e+00
1.660970675758618453e-01,2.210232176610203436e-01,-7.758155122690560956e-01
5.925662743799080950e-02,-2.974593487392795388e-01,7.814846154956454072e-01
-5.319496645053051198e-01,-7.478019614121330649e-01,7.947373833438249324e-01
-9.509030888944244309e-01,-6.701600702151934152e-01,-1.211402780751881791e-01
5.548516375659738875e-01,1.451932822045134686e-01,1.050212228828776517e+00
-3.624753704055824199e-01,-4.670800947362425126e-01,5.455273761389128895e-01
4.151880759034585200e-01,3.827108037048947836e-02,7.384326610869046403e-01
-1.532952816184160738e-01,-8.849405725336486478e-03,-7.941532191783124972e-01
-2.900132383171418193e-01,-5.862641609331452515e-03,-7.472243375330019921e-01
4.431675666418810611e-01,6.069353939010398991e-01,-3.557019112801825811e-01
1.172142117564921593e-01,-2.264011391532541329e-01,1.181181652018782113e+00
2.398734689058973912e-01,-3.370403401006744626e-01,1.020017516203757024e+00
-4.362205608265179446e-01,-7.123263301385107660e-01,8.359190679408300406e-01
7.804599384283917862e-01,6.475776487215494370e-01,6.525922826670651489e-01
-6.138701795981494902e-01,-2.941809049381051699e-01,-4.913291269187539112e-01
-2.875067704308690852e-01,-5.411843237078531876e-01,5.430573270995543433e-01
-3.153998179094493204e-01,-2.969052820634162648e-01,8.580309491084999740e-01
-1.967414045430920244e-01,3.075252297404707513e-01,-1.115010455011471890e+00
7.019164482775377412e-01,6.946576621778367544e-01,-6.169268385566024637e-01
-5.095479311426703850e-01,-5.717208349363839259e-01,-6.932514426664412310e-01
6.517852556735189706e-01,4.437175381624620107e-01,8.843147520797253192e-01
4.453830317669306704e-01,4.364582209435707294e-01,8.868487502575074233e-01
8.437026403169707311e-01,8.511352663035782751e-01,3.510523868617946869e-03
-5.834418083707392649e-02,2.470705963564785168e-01,-7.560706175525385708e-01
4.880944316878627065e-01,5.342849194524627032e-01,4.488629735866112580e-01
-5.564840228597613958e-01,-7.844500855600990974e-01,-7.489304778402819385e-02
9.183689646133598172e-01,7.060302753671464648e-01,2.144401770228234749e-01
5.544083061666779111e-01,6.836627968308961467e-01,3.533155902813170379e-01
-6.972243674301941141e-01,-4.432599536695526199e-01,-8.731027869499717875e-01
2.334536516432125230e-01,5.620902337743004518e-01,-5.860125272863186963e-01
-8.654815522923369198e-01,-5.235638140291022369e-01,-9.916713045525085701e-02
-5.647995067563021943e-01,-5.167980120104529451e-01,2.496048711548750354e-01
-9.868089172398489262e-02,-5.284813965743937469e-01,1.036814442206086539e+00
7.891259013357510010e-01,7.178946285352326706e-01,-4.738932250752234121e-01
-1.792587463225084332e-01,1.380316775803113183e-01,-7.788991971874312803e-01
-8.204566534664509136e-02,4.614966767295857752e-01,-8.630132243668711123e-01
-6.107830867453317714e-01,-6.556916473665213019e-01,-6.242577078344844210e-01
1.861043929130986041e-01,-5.746534564841003501e-02,1.166969103944786035e+00
-1.725940414136144518e-01,-6.891668690121316443e-01,7.715251314455637832e-01
-3.766580226568690404e-01,-7.437288954248897355e-01,4.465964513296860616e-01
6.572690372579259588e-01,5.018499254192255732e-01,1.226814678453427981e-01
7.211676081511262382e-01,4.917779340889672501e-01,2.379957586883078499e-02
-1.447260717984299172e-01,2.723355894782943931e-01,-7.901760776393281782e-01
-8.131418593171743092e-01,-6.564380908356595157e-01,-5.947162970279589178e-01
2.599901797057639352e-01,4.787191210115200324e-01,-5.895071927809129031e-01
-3.883228189460340429e-01,-6.655757320766296503e-02,-1.125714167002064059e+00
5.285595224780068602e-01,6.393414233466956365e-01,2.122197232464845262e-02
-7.024191434328462824e-01,-1.839181393375387830e-01,-7.861772297968704359e-01
3.710074622095138053e-01,-3.042202400742551396e-02,7.447957745731794699e-01
-1.200816420260439055e-01,-3.848788992892388516e-01,1.156445679277798178e+00
7.869826858879914733e-01,4.872412710462385443e-01,4.007545030670958686e-02
-4.969525869615002978e-01,-5.666629195234950123e-01,2.633166715141570524e-01
7.895302430632944457e-01,4.732035799859574121e-01,9.185236612899011499e-02
-4.855922901720832741e-01,-6.860449820738369064e-01,8.415605262760524896e-01
7.061404646765863380e-03,2.533304325444342697e-01,-1.161028665150921180e+00
1.145292629191391742e-01,6.112385194807476996e-01,-7.595097273207054300e-01
6.335151213636319723e-01,7.945736243272484289e-01,2.973911908128371584e-01
6.462746526283815740e-01,4.585144163140362217e-01,2.422894834280454324e-01
4.020513257563437803e-01,-1.744254570581550701e-01,9.559277170248401401e-01
5.736965545708140324e-01,5.432438702511375173e-01,-1.181469697802644270e-01
5.109530269888532539e-01,4.607843126718290105e-01,8.772943147893046412e-01
-4.140552386441102573e-01,-6.326592050037481707e-01,3.392136701660110609e-01
1.096794517698102683e-01,-3.705699116448913366e-01,8.142591112316354129e-01
-3.000162459978161777e-01,-2.526550825199216921e-01,-1.020858043172607088e+00
9.385920238907793367e-01,6.736012826250733498e-01,1.723386629012746418e-01
3.135705557555659162e-01,6.240123188141187827e-01,-5.290734168903080681e-01
-3.980246172022115503e-01,-2.631866717131344791e-01,-6.534298332534205223e-01
-5.700831651578164294e-01,-4.237766657903179746e-01,-9.267383025640294480e-01
1.640935802466848559e-01,-3.946454898496695174e-01,9.293698051546187555e-01
-2.683111659561021045e-01,-7.306200033724538079e-01,7.709330668098655082e-01
-7.404429860226092730e-01,-8.913450127483617536e-01,1.806419000484623394e-01
-7.762624703042131369e-01,-8.926345376940625354e-01,1.555558029848572166e-01
-2.978508124433183468e-01,1.439019547220219686e-01,-8.180307723008108933e-01
-8.901150199721478973e-02,-1.189884011768461980e-01,8.573429071810780844e-01
-4.422979604627981787e-01,-6.873474945784958656e-01,2.660922256012808740e-01
-5.237430058840914079e-04,4.569190229579326856e-01,-7.764498779893240776e-01
-5.417474583395047796e-03,4.109761685536066772e-02,-1.055084454556713736e+00
2.993238601995704684e-01,1.002824669950230368e-01,7.438210515966358072e-01
-6.985524700772884898e-01,-5.826188718151423807e-01,6.387780141410168699e-01
-3.010238962248137917e-01,-3.364534469185799792e-01,1.018480892091788048e+00
-4.985817940448569185e-01,-3.977926420619352643e-01,-9.475606539459221489e-01
-5.274263760539397161e-01,-8.163382892286444870e-01,7.130154474612413473e-01
-6.179620828272182065e-01,-8.166392928296227760e-01,-1.889885475913908319e-01
-4.787932094696460972e-01,-4.604622208487638702e-01,4.836436423463444934e-01
2.455662161050556000e-02,-4.876307834154002818e-01,8.122702008179062405e-01
9.309813096514707453e-01,5.500327840137771984e-01,3.279430231463500434e-01
6.541107171111660845e-01,8.955187017631460744e-01,-4.015907885976952030e-01
5.527806884019377254e-01,3.654561711108560984e-01,4.412572451253769512e-01
9.410703802701524401e-01,6.704221150299629617e-01,3.785918948967925135e-01
-5.247327185178916054e-01,-5.518324233720934835e-01,-3.391242187353144533e-01
-2.393515604693026433e-02,-2.416342853534466928e-01,7.521448675766246872e-01
6.141930924043774442e-02,-1.236339091407570034e-01,7.969504652625805097e-01
-6.652797970156112406e-01,-7.815021573804612487e-01,-3.975231957572198938e-01
1.324296419890389209e-01,-1.539542611877962874e-01,7.874561747728020533e-01
8.015843853583006773e-01,8.746225169780752484e-01,-9.086134917802034250e-02
-5.737863751903897747e-01,-3.807308660073678575e-02,-9.674847079306788666e-01
8.030557403961614549e-01,3.363251554124032094e-01,6.198649584330639950e-01
-3.111473190152350687e-01,-3.213980233941212128e-01,-8.085598876771252774e-01
3.281131181948601649e-01,3.221883100658072818e-01,-7.575988843009900942e-01
-6.525486379594452879e-01,-8.861701444362040103e-01,-2.552405813895270922e-02
6.773953429805658344e-02,-1.482568395631129743e-01,7.742960746969560493e-01
6.494213465389654383e-01,3.167890815689943240e-01,4.382769392758930627e-01
-5.244176389456809417e-01,-6.078470932892445777e-01,-3.869086078907652548e-01
1.699181199383481000e-01,1.660027197120758635e-01,-1.059359381055040350e+00
5.885631650907289236e-01,4.773461093307334591e-01,-5.343853838893609653e-01
-7.772625985721172137e-01,-8.405096267138840727e-01,-1.844861829892699145e-01
-5.809306940434076916e-01,-7.463040579413573461e-01,-2.863048576875267259e-01
-4.913415637284815896e-01,-5.222795461976259546e-01,-5.904975750114229704e-01
-9.117847589933993913e-01,-5.672310221521723594e-01,-3.769588078058170866e-01
7.858451178522882219e-02,-5.308091107875590603e-02,1.145995404310465426e+00
-4.276582049538869557e-01,-7.243635381688108277e-01,3.212221735652137644e-01
3.026012618378701724e-01,4.168737503373014519e-01,-1.032015888523359015e+00
-6.064280878941047392e-01,-5.420054469176530665e-01,6.445964575469084745e-02
-6.837321983748340104e-02,-8.755352628257449810e-02,1.036510874379171554e+00
-5.494752294986264829e-01,-5.750543675327367543e-01,5.603752197575676691e-02
-6.186641092505732464e-01,-5.089202298791108969e-01,-8.648434709796931630e-01
-4.566401987160825238e-01,-7.263766193754310763e-01,2.690272209271517556e-01
7.422403259861352076e-01,2.257355161396756016e-01,6.443018527152286623e-01
5.449947488147534047e-01,6.874990332878082588e-01,2.334778391581774082e-01
4.202056444365689369e-01,5.299989423259697796e-01,-9.620547599988688026e-01
8.323246163661203179e-01,7.811979749613813251e-01,-3.338684394295019509e-01
4.155460984865820273e-01,3.667252352122049586e-01,-7.464312666514590910e-01
7.921058487587079311e-01,4.920417959633073268e-01,7.357198802699250074e-04
2.591786031866092355e-01,-1.174917042836036013e-01,8.030633541228624495e-01
-4.230457630997722096e-01,-4.200285099195462668e-01,9.248486024935216321e-01
1.712192474182574753e-01,2.556165157250794295e-01,-7.660904514075493887e-01
7.493203482131139959e-01,4.129380397188501806e-01,8.548357901008047932e-01
-6.082798166716466559e-01,-8.774969077270736717e-01,1.040031464650872928e-01
-7.766555543022284347e-01,-5.426475642276368250e-01,2.218596325621297327e-01
6.119759152757112686e-01,1.870826255163749452e-01,6.227918228290698632e-01
3.321835934182493788e-01,6.271777080296455642e-01,-4.629813026485807836e-01
6.563978452711723977e-01,8.563992994923596003e-01,-4.813299104835146447e-01
-5.063967725201459213e-01,-4.059078180706150452e-01,-4.708335874888227024e-01
-4.505512164994579516e-01,8.043414884898687778e-02,-1.067160823607521403e+00
4.531376552886715037e-01,5.054093301152904338e-01,6.178289857260350626e-01
6.470878988078830885e-01,1.912325454403281388e-01,5.943146025695835721e-01
5.767761958992734250e-01,1.742417528138488769e-01,6.406550898516599757e-01
-6.803144870829842816e-02,-1.061444127449464037e-01,8.755540207617268367e-01
-3.219195841045160433e-01,2.487776039945461259e-01,-8.602242285767782715e-01
7.599928443938482880e-01,2.762333583847197405e-01,6.034657160160837863e-01
1.498279530096772449e-01,6.570509684789893612e-01,-8.313501432991913243e-01
4.677643156813627301e-01,-1.138634440095594447e-01,1.011121784939737145e+00
7.684744542917045784e-01,8.928082882711916302e-01,-1.552932200303852039e-01
-6.000988463520562366e-01,-5.066279863673139872e-01,3.215523330403292634e-01
-8.151818009117262065e-02,-6.077382037821747567e-03,-8.414024911491277958e-01
1.811944136955570273e-01,-2.590601009723640380e-01,1.156594581392669907e+00
-1.342459985874728812e-01,1.404978362091468536e-01,-1.184230685646230574e+00
8.076422856658211913e-01,3.309312147217489675e-01,5.591116338380399675e-01
6.171563843753796741e-01,3.176992512491935705e-01,9.882164145431012736e-01
-9.010923537051070964e-01,-6.424684348730643757e-01,1.326764506966555957e-01
-4.048870179307997308e-01,-3.949692056494901182e-01,-6.719278314040612043e-01
2.634440117391990688e-01,-2.573346521836731848e-01,1.105622588558403008e+00
6.076266361588812392e-01,5.675869884937424781e-02,7.981543950665195286e-01
7.584795369786316854e-01,8.575773794724189658e-01,1.808401136511471052e-01
4.775556929618420821e-01,6.239748524900053939e-01,-2.169159562170531186e-01
4.744371640295321768e-01,5.540902588969698339e-01,-3.146964236445269347e-01
3.996467033111738565e-01,3.576021205770765210e-01,-8.408871703174588541e-01
-1.791060294487972215e-01,-6.862511772465264004e-01,8.797224926299554992e-01
-4.537667740579046094e-01,-8.490468128264567760e-01,5.636799676845537510e-01
-8.849003731535967088e-01,-8.131234235347953865e-01,-2.040699473128609331e-01
7.644344184951212817e-01,5.443357478168781016e-01,7.518422824188980558e-01
2.126667312298643475e-01,-2.924434959035522863e-01,8.354090313935580436e-01
6.733806954093919384e-01,2.383116849446865193e-01,9.487504891372799953e-01
-5.695424615662755818e-02,3.519700786246219848e-01,-1.137842007975968128e+00
7.347964898497439945e-01,8.024599591325235481e-01,3.738207138189352241e-01
-7.418620049841878616e-01,-3.978303134332217272e-01,-2.661546053238813547e-01
-6.836117375781829153e-02,4.806965782487707117e-01,-9.192582884980421420e-01
7.327776858016078476e-01,8.927026130681303684e-01,-1.350539872471402669e-01
-3.810523729579172181e-01,-3.713132981152812429e-01,-8.274054156131978033e-01
-8.613887221383489390e-01,-5.907240314731828645e-01,1.979161383672649877e-01
3.479079280639710836e-01,3.403074717745345756e-01,9.275114974956357727e-01
-8.036438428802838985e-01,-4.357735744307297820e-01,-2.327752767961281388e-01
8.393665111692090453e-02,1.513885051128148751e-01,-8.312025270176134351e-01
-3.586542718842409272e-01,-3.003461344215270223e-01,8.684497151502353907e-01
7.401712797814323785e-01,8.267644623848010577e-01,-4.439452907111169910e-01
4.816457940209639133e-01,-2.328628247177720254e-02,8.049326571439564537e-01
6.004683012516828233e-01,7.292980901688446149e-01,3.820452524422491836e-01
2.398203245196116329e-01,1.931951092543214843e-01,8.278296666405768889e-01
-5.241262265159906120e-01,-6.069906879935572652e-01,-5.027528952926259009e-01
-7.131708478866457535e-01,-5.210250148123011238e-01,2.376952757839039254e-01
2.079265453351104020e-01,-2.933430609276180961e-02,7.752331913005969799e-01
1.464782345120940743e-01,-2.861893465977050077e-01,1.138588362424621803e+00
7.175347690927019739e-01,8.928653457145895311e-01,-3.412932985580729994e-01
-7.270846013184205647e-01,-2.682966052892794551e-01,-5.852087482199481716e-01
1.365059011227290342e-01,1.056363926738013437e-01,1.063470751385139579e+00
4.683521365872944653e-01,-9.206173437480290322e-02,1.028620469539210047e+00
-3.023826346025033640e-01,-3.176329418016279882e-01,-8.572299261609720444e-01
2.893238623288133526e-01,6.766277708017052195e-01,-9.367627610490639745e-01
-3.044480988515163578e-01,-3.860380577616344122e-01,1.045528332155665874e+00
-5.856611648872034337e-01,-4.284970034440453990e-01,-3.304301243548359857e-01
-2.063495036364042245e-01,-2.506565316048829997e-02,-1.166560805819745861e+00
-5.813838076846443714e-01,-4.389830091385956562e-02,-7.929842381596099443e-01
7.581460215503755817e-01,2.553775269362454359e-01,5.986633028729411166e-01
-3.005768945077789134e-01,7.041775733514936408e-02,-7.830639551243692154e-01
-5.393390486941931350e-01,-4.856666171637475382e-01,-3.915247194550557364e-01
-6.975897285270120651e-01,-5.044064379626348460e-01,4.290403492255365769e-01
4.295701531575397691e-01,5.999877779413510526e-01,-3.857067534961706734e-01
-2.239461496556894027e-01,9.746095426226031311e-02,-7.740156271106056751e-01
3.625603401149715133e-01,8.379543187150112482e-02,1.150829448268342547e+00
-5.159456492075280981e-02,4.336954325167185487e-01,-1.073997734762589085e+00
-1.435319332431463646e-01,-3.827932566395075148e-02,-8.079405606830292186e-01
-3.880877540935445767e-03,3.223523868347483723e-01,-7.428677326307259188e-01
-5.943983952853483244e-01,-4.722943806765931840e-01,5.827040744148883622e-01
-2.283829709610615266e-01,-6.856593656812890458e-01,6.319094920409138449e-01
5.137129021013994712e-02,-1.343802059781518954e-01,1.150916879022853445e+00
5.238181159197494718e-01,5.642867454766937740e-01,-2.062936151839881993e-01
2.492167869065704533e-01,7.067294950797763375e-01,-6.581627703742858326e-01
5.623605840002444678e-01,4.333068240538108240e-01,-6.619962653610622638e-01
4.625149159240210528e-01,4.434054151212047379e-01,5.846443061295993893e-01
-8.935572245920754275e-01,-5.434252662274664525e-01,-1.324506495787050597e-01
-5.917986113858333397e-01,-6.124974078047012993e-01,8.037517082565094340e-01
3.012720216823936981e-01,-1.262458121778851083e-01,1.159873222125049175e+00
-3.397973788369495485e-01,-8.785629087061685993e-02,-1.144321772042422358e+00
-4.549773783297473839e-01,-1.762236205451314375e-01,-6.522717984780216360e-01
4.404641746751999376e-01,4.839392987981252503e-01,-9.494096373324599769e-01
-3.333951641299919832e-01,2.219795665151234609e-01,-9.300355616418374272e-01
-6.950707102002995352e-01,-1.836709981774180822e-01,-8.456602342497556712e-01
5.724380192636973064e-01,3.249480679929690474e-01,4.872441469876304110e-01
-9.505751639370591845e-04,-5.491921444028550203e-01,9.549754112459787336e-01
7.068696949458006529e-01,8.881383560261093546e-01,-5.969224571761696380e-02
-3.983129187927103576e-01,-3.684027158564552873e-01,7.329811023711048090e-01
5.586470095390201340e-01,5.702582565172511497e-01,-8.353524580741512606e-01
1.338483626770877177e-01,2.266320000576600990e-01,-7.962430995712105330e-01
-4.748759974635569092e-01,-5.529023427037662586e-01,3.228139926534729365e-01
-3.993895913935173736e-01,-8.148613624001005418e-01,6.114116073381665739e-01
-4.640118456963615579e-01,-5.999229647877979410e-01,8.852502174009611036e-01
5.532954597913174455e-01,8.506540357481919834e-01,-5.825174429366445361e-01
-9.423447933768294704e-02,-2.153200500175393717e-01,7.667893345759646540e-01
-4.753940993818417393e-01,2.027014512428468654e-02,-1.071863853378236753e+00
9.206573453066370094e-01,6.206217580975644799e-01,2.882036085057366193e-01
1.232835391690645099e-01,-3.432043448487580029e-01,8.252004797612363385e-01
-2.769083216567680972e-01,2.083903524924655970e-01,-8.552207377478042716e-01
5.986911131246255291e-01,2.446767670107212744e-01,1.028621839441374197e+00
1.950262051075334069e-02,-4.120168465117247103e-01,7.725407274457838369e-01
-7.869942708417497768e-01,-8.698085662293835174e-01,-1.401463753463026186e-02
-2.175086414864636775e-01,-4.450721175149132125e-01,1.096146161816825559e+00
-3.932262334816307159e-01,1.254200877466175867e-01,-8.193226539889697513e-01
-7.109952606358596050e-01,-1.709585023495397427e-01,-7.203407312652769789e-01
-1.948213479160035844e-01,-2.989843970051157471e-02,-7.925426435448840179e-01
5.909850416966051512e-01,7.027303546192966710e-01,-7.719359758876085387e-01
3.167435550090049595e-02,3.458501849969001785e-01,-7.498285508319463277e-01
2.344294120359372291e-01,3.697117396233111086e-01,-1.082485188639044082e+00
9.106257234113581678e-01,5.915656712335085610e-01,8.076902520042933409e-02
2.635135055063476117e-01,7.287078064492973350e-01,-8.403770069912368523e-01
6.855192649976330488e-01,7.845354821027481496e-01,3.516343893065640436e-01
2.770992527763350144e-01,-9.653947115491708086e-02,1.162643123859298244e+00
-7.663296732540875178e-02,-5.079718803892378787e-02,9.198894420238722391e-01
-6.833473905456027842e-01,-3.251102270674898764e-01,-4.389884826337082657e-01
-2.753812589049700055e-01,-2.666819191065919470e-01,9.630404173924788092e-01
3.940107913411987073e-01,2.016664061950382003e-01,1.088829469475111944e+00
-4.630787884976996643e-02,-1.435342776348239868e-01,1.141954723563116447e+00
-7.349822700358801253e-01,-6.342583896025748569e-01,-6.591640302335768364e-01
-7.742611290352162390e-02,2.583591659098806725e-01,-1.182683874185910700e+00
-2.652816239585727986e-01,-6.302318639526792096e-03,-1.166456399700667612e+00
-1.121519608380023847e-01,2.763060028598764983e-01,-7.820108400803544857e-01
6.763548072567492075e-02,-4.106434875810827667e-01,1.111967324210465735e+00
-3.792405080820090979e-01,-4.905225588554893990e-01,5.369471500441906908e-01
4.699054557588174807e-01,3.457993920385976083e-01,1.007192873237512165e+00
-4.713368154516461850e-02,-2.997119109009926952e-01,7.525456103855815426e-01
6.475207481315368163e-01,8.717058243932244155e-01,-4.019710139471602828e-01
2.057714245682733534e-01,5.247744469949409130e-01,-6.181248353405192075e-01
-2.481640442967732174e-01,-9.801127897612564588e-02,-1.133926862785946454e+00
-9.498804569738769077e-01,-5.977735513098807463e-01,-1.601581400672089650e-01
6.442409819632340939e-01,4.546137701000209641e-01,9.022298694956477627e-01
4.701535116081160259e-01,3.849029086161917523e-01,9.480294712672678870e-01
3.197694293967667245e-01,7.045355741817589390e-01,-5.154801528986642234e-01
3.526575970682366834e-01,3.516553054526095345e-01,-6.831412735496602551e-01
9.175543889112759421e-01,5.427182614856197462e-01,2.847682146513119128e-01
3.576533414346162454e-01,3.897243477028871639e-01,8.716176878964604358e-01
7.228192595459802527e-01,6.967234804367181678e-01,5.845617788447204921e-01
8.155876976610928475e-01,6.687837553014746028e-01,-4.123577460047507803e-01
6.167181883673276133e-01,4.554614210925722606e-01,2.263904708577327285e-01
-5.407040663737160829e-02,-2.932859233352311801e-01,7.460646481558348420e-01
3.388489190899396930e-01,4.833981559391337668e-01,-5.586974233699946168e-01
-5.721161464310480227e-01,-8.766851828225090681e-01,1.579296483582199040e-01
5.398652294453496481e-01,5.040581081742221414e-01,3.387777257771138473e-01
-2.346103817482435017e-01,2.540721664365827581e-02,-7.620253812748445377e-01
3.622559916615000208e-01,6.224525796680506762e-01,-9.620756799349767796e-01
7.503384048050963928e-01,5.026958047925194073e-01,-9.742541029001679231e-02
7.724487559197147357e-01,8.127644379229066462e-01,3.234171994269647854e-01
-2.160035198313873389e-02,5.176185740663838963e-01,-8.645614695869175970e-01
-2.961801513809489972e-01,-3.190922966536878791e-01,-8.663959163726263624e-01
5.919469061131722443e-01,4.370819186775545262e-01,3.257110305343642875e-01
5.237794700585904351e-02,5.860623889208476101e-01,-9.745359152611127174e-01
-9.571052474842561830e-02,5.626051789256217642e-03,-8.250766237748253795e-01
-4.189293995801021686e-01,-5.339100297414959284e-01,4.164160760758561786e-01
3.030881132145448742e-01,2.090025737061819988e-01,7.187366580687092332e-01
1.675384432125643086e-01,-2.542878635109260821e-01,1.150298002479459347e+00
5.375317966738600850e-01,1.117388307756808363e-01,6.822483020743399518e-01
9.195532557274503915e-01,5.030441251135644443e-01,3.729196841699589648e-01
8.853629140074794623e-01,6.568197650342497695e-01,4.807467482085199806e-01
-7.907754068383864299e-01,-2.856140558365479754e-01,-6.113752636484961478e-01
-7.763130197859932080e-01,-5.808530747546742923e-01,3.890433071543594190e-01
6.868854347411031958e-01,8.631771452100490682e-01,1.296411725095705514e-01
-8.767348192109588600e-01,-5.950761948419571734e-01,-5.321709557730902596e-01
-2.798384738477395772e-01,-7.568512006998052710e-01,6.480123262486513491e-01
-1.577385706815988275e-01,-5.977014532288551507e-01,1.001073417127646970e+00
-9.063864858607335595e-01,-5.852947716678137402e-01,7.385516061292544954e-02
5.350269590094305361e-01,6.046252245344002629e-01,-7.117759361310663224e-02
-5.846523238351668539e-01,-8.630447239448926777e-02,-7.186442970722053403e-01
6.897306523942184908e-01,5.406769556876255267e-01,-5.534978929035007100e-01
8.951332457835941003e-01,5.290618244402714998e-01,1.035479217011195940e-01
-8.825547364083211610e-01,-5.200009551747394321e-01,-5.817156457746687215e-01
5.815802741386921770e-01,3.148721107359725435e-02,8.655013620528003715e-01
-5.474687733661615097e-01,-6.481568806631820001e-01,-1.901263991363432437e-01
4.610537323909829621e-01,5.709391100260680085e-01,-9.068417482789254969e-01
-8.462584640864906360e-01,-5.382443279889577159e-01,2.009345845865644770e-02
-7.241011641032634172e-01,-8.870383095405335316e-01,1.062658401800162244e-01
-6.101286628064995776e-01,-5.745088380239098402e-01,-7.689759030777330029e-01
5.483902811286747170e-01,6.560963867044121711e-01,2.943994895551208524e-01
4.822792892535955889e-01,4.151881777771015414e-01,9.325158328017807419e-01
6.540326448644339097e-01,7.967235966025205673e-01,3.102208779508308090e-01
-5.326793278312633717e-01,-7.773333668968035459e-02,-7.254751994828362305e-01
8.014983542023881302e-01,3.655715908684315507e-01,3.674278277884650001e-01
-5.897249572509455362e-01,-8.058469664042769987e-01,-1.450220864640104912e-01
-8.706824316496957206e-01,-8.247811837682623715e-01,1.355533077797189956e-01
8.033914811124593935e-01,5.927135853622826911e-01,-4.368316346720416132e-01
-4.783202877724450075e-01,-7.947090203281914622e-01,2.316651467691178412e-01
6.720710637339920579e-01,8.227524882564525299e-01,-5.723339875477404526e-01
8.012760843191927274e-01,7.114135970567017075e-01,-4.057192627214212810e-01
4.959445581424956617e-01,5.425452161107178206e-01,-3.103445231690030726e-01
4.907018004050957560e-01,5.080624171740953932e-01,-9.104914504589404212e-01
8.301674246049561834e-01,5.996037470461986763e-01,-2.856052982798626960e-01
-9.100942098893743948e-01,-6.962356746777386141e-01,-2.808264998787013966e-01
-5.972182876560077069e-01,-7.496790948704870061e-01,7.147238416896219970e-01
-3.776978240935206510e-01,-5.693003031677168480e-02,-1.156494585479229897e+00
-6.738044949743329237e-01,-8.969644188642946769e-01,3.673505802512258556e-02
-6.286120005432377367e-01,-5.195836682340034818e-01,1.546186750139328381e-01
-7.413526951518715213e-01,-2.358568262412973904e-01,-6.563117921727770199e-01
-3.338398392259877556e-01,-3.214526027315424139e-01,9.310236556352361470e-01
4.362438368352491991e-01,3.045089108433291503e-01,1.051021991118051613e+00
-8.391057327407696054e-01,-8.318825107295996224e-01,-9.665790043945290955e-02
-6.204526113507352614e-01,-1.994677707591915317e-01,-6.164929956864269034e-01
2.602513370977050933e-01,-2.828852309735053194e-01,8.841782883745340493e-01
