6.589210407891984422e-01,4.287172443061827432e-01,3.640380844627211787e-01
-7.083159655805416621e-01,2.628111807844821790e-01,-2.837476199751470807e-01
2.223147591651057076e-01,9.021894149450607747e-01,2.678570533376319895e-01
9.552744591166343335e-01,4.459611142203870893e-01,4.685933117960358607e-01
8.793024591923750410e-01,9.541141025225277628e-02,5.106319622808126457e-01
-3.544715465336504279e-01,-1.102911970112105289e+00,-2.144265336081762618e-01
1.328789480569377845e-01,-8.907383616669255488e-01,-1.155868945419469274e-01
7.267445844337805383e-01,-1.518063355558738337e-01,3.334450309317004701e-01
-6.420325540535843922e-01,-4.625929202793342965e-01,-1.917270490184294351e-01
6.891259030627947535e-01,3.644171461138815959e-01,2.239205852334349434e-01
9.394168052706334260e-01,-4.308784744988016779e-01,4.739606499452946875e-01
-5.390869479332582870e-01,8.356403898599228386e-01,3.843657191721339128e-02
-4.472332285581450684e-01,-6.498382714885114764e-01,-1.233132941984128594e-01
-1.466787133850253888e-01,-9.275909676646467705e-01,1.735457335685874347e-01
8.012234155169182248e-01,-4.712215091743833517e-02,1.569009195890260222e-01
7.735235926372543425e-01,-7.701577741427324542e-01,8.620045603420219138e-02
9.532489969561623866e-01,6.532237707421653106e-01,1.701710259604021780e-01
-5.384547854876634565e-01,-9.488753582841383816e-01,-3.415559418240767253e-01
1.784305116813635628e-01,1.204302714015335285e+00,2.290977156340050501e-05
-9.194528279699516471e-01,-3.444559311464976403e-01,-4.893606130060506043e-01
6.231161339849378145e-01,8.322628457501013433e-01,3.701781169297392315e-01
3.668730000278692671e-01,9.550155088903798939e-01,-9.246726353393876219e-02
-6.421969648544109122e-01,-4.988876813736042304e-01,-3.587310643161774060e-01
8.586887288896469794e-01,-7.538415281418245906e-01,3.395808829703690912e-01
-6.413239727432659132e-01,-4.420266211107950483e-01,-3.116930222896207026e-01
-8.734564872626454646e-01,7.809986542728591941e-01,-2.026110050247333649e-01
-1.081957646741676493e+00,8.546422306600182095e-02,-4.524579051370639093e-01
2.207512876939753954e-01,1.172696009628924285e+00,-5.405430306285333858e-02
7.148846719452512932e-01,-7.598671794505820198e-01,4.134213740052572472e-01
-1.077804333486349214e-01,1.009533437227691843e+00,-2.627478123963803980e-01
2.259086105018290325e-01,-8.187543860114258054e-01,-3.117641142592124034e-02
-1.144202243067552693e+00,-5.997495987340199786e-02,-3.500187137421545969e-01
-7.290340956650233073e-01,8.991849921990897609e-01,-2.687380751187057881e-01
-7.614085000215600196e-01,5.353562766464634581e-01,-6.240570120775758983e-02
-6.276572149664234601e-01,-5.456251342521631909e-01,-3.899897269746860351e-01
8.314806890445364251e-01,-2.043089570584806225e-01,1.240577281639967805e-01
-1.051790070940542415e-01,7.879527775762923403e-01,1.039241617401848346e-02
1.597659712574744650e-01,-1.141279039472963053e+00,1.713630088757324421e-01
-6.939322304383447326e-01,-3.925968264453695844e-01,-3.601296127113537970e-01
-4.261112560880715439e-01,-6.760225394802652499e-01,-2.223835541861768073e-01
1.502518614461216886e-02,-8.043958860621797102e-01,7.001025908819598353e-02
-1.073946812754309477e+00,3.259806583042939576e-01,-2.245300137332937873e-01
-1.027177740119980420e+00,-5.208771943503504032e-01,-3.628233228397499954e-01
1.096255874068533309e+00,3.363279004826819074e-01,2.583906053731636621e-01
6.376020502368548448e-02,-7.852968674131969307e-01,4.659143614930336130e-02
-5.253892761576496317e-01,6.547635256569952489e-01,-3.342476318933454427e-01
-4.738950542707467406e-01,8.095309365941910640e-01,8.574164617698736349e-03
-7.793421275238008317e-01,5.010687357994051544e-02,-1.992771288569248900e-01
5.331842931955856901e-01,-6.181866175481152137e-01,1.186859462760902206e-01
2.172655598206127414e-01,-1.006659740685567961e+00,2.895374376131890082e-01
7.456460698628994965e-01,-8.519758355898731164e-03,3.141171704093175809e-01
-7.214961760861489104e-01,3.527438256268956018e-01,-1.661767873719136590e-01
8.544675109787475131e-01,6.995239943027444784e-01,4.071019566274503010e-01
9.020805551960362489e-01,-3.717785651638504940e-01,5.033340517948892145e-01
-3.986990855961500269e-01,-6.997099275542669750e-01,-1.220541480409255974e-01
-7.471291745376819060e-01,-1.222528857437469724e-01,-3.536727384439568578e-01
-4.024194495509660352e-01,-8.407130225807324386e-01,8.254845392347869015e-02
-6.653871262309454249e-01,-7.528504898866734685e-01,-4.034853281181494666e-01
-9.890025345453180572e-01,-5.631874931784540683e-01,-1.934428134368025576e-01
-1.009012793659524343e+00,-7.108242130486759625e-02,-5.097844231318116037e-01
3.076291159061437797e-01,7.823589429931391281e-01,-3.042745118240075194e-02
1.007584729153324421e+00,-5.740579980689138884e-01,2.139525510373719297e-01
7.673433428951283997e-01,-2.550557510104212167e-01,4.344329750016250324e-01
-2.385765359351447457e-01,-7.819812747863871261e-01,1.025840637731770776e-02
1.438573256533587363e-01,-8.849721393070913988e-01,-1.119541890627762243e-01
-1.130803836438118326e+00,-5.617739502593199763e-02,-3.279413754861221220e-01
-7.114080062356443745e-01,3.421424514168410203e-01,-4.059442432203271833e-01
6.914376103930139905e-01,-9.301293387928157852e-01,2.546244391467866186e-01
4.164389425535067746e-01,1.091145619754277263e+00,2.980072347930199858e-02
6.512898058037968063e-01,-4.159877424778695709e-01,2.216542522534765136e-01
6.086006289844885231e-01,-9.371525308925358067e-01,3.186347840270576520e-02
-7.981209001014273330e-01,2.058543542838744134e-01,-4.564920774619807831e-01
9.240989741764845666e-01,4.018590780358979875e-01,1.006248329899003952e-01
-4.743515995872532032e-01,-1.060302358568310677e+00,-1.371094373176159203e-02
-9.145648616475902104e-01,-6.234257007809919093e-01,-3.997160663204871733e-01
-6.934779253329759197e-01,6.713461155850860562e-01,-2.358596785175880867e-02
-9.036285224303532981e-01,8.332197835974929426e-03,-5.196722704843316221e-01
-6.443735845437481569e-01,5.837657451221700544e-01,-8.213019961046029438e-02
5.058924450753173874e-01,-6.255439774357827165e-01,3.465094994514972826e-01
8.367933730938474923e-01,1.308755522068791033e-01,4.712455750372979701e-01
-7.523695574703983535e-01,4.610992678607211959e-01,-4.892690941957865691e-01
-7.704734442572364062e-01,5.424852645471912593e-01,-4.816745021722679265e-01
7.027087876273230282e-01,9.052281127461500043e-01,3.001691280682932672e-01
-7.027602564707212673e-01,9.273586590821580877e-01,-2.581163959332381519e-01
-9.202475610536281492e-01,-2.460599252369849721e-01,-1.031339531063588111e-01
-1.055185802722616417e+00,2.537364584337228335e-01,-1.697774215197137837e-01
1.049808575802756438e+00,1.082361363334993776e-01,1.508367455077783692e-01
5.083906905972619406e-01,8.369292438319192451e-01,-5.613166087033114732e-02
-3.450919937895622486e-02,7.902449208917943224e-01,-5.415645470882230611e-02
-3.143619277272043933e-01,7.510906370429849543e-01,-2.598926507820044640e-01
-9.081765386496245054e-03,-1.033951008726056831e+00,-2.097291959474067713e-01
-8.819451839564023121e-01,-1.301082762963421680e-01,-1.236518555366282468e-01
-2.246344578917073426e-02,8.174127082181446013e-01,2.741341356818985733e-02
-4.552691797578945487e-01,-7.929657214997339887e-01,-3.538649869179659180e-01
2.735166990115410202e-01,-7.729547858763214929e-01,3.742246315754997610e-02
3.865423833641635221e-01,6.877556741008793439e-01,1.682120928829945183e-01
-7.588254249167618593e-01,8.985966171214956333e-01,-2.995691052431549983e-01
-9.334008681458477730e-01,2.274425858357189689e-01,-5.110212669192500945e-01
-5.571981526067951718e-01,-1.027830235411288928e+00,-4.838919372371881800e-02
2.981422049994567058e-01,-7.629330853723546024e-01,2.413138529080003092e-01
9.736778206829864724e-01,6.219406631054885670e-01,1.732478281642602369e-01
-1.919208510105672172e-01,-9.294298555224985714e-01,1.513608963746086167e-01
8.575815761829835848e-01,-5.605949476457987579e-01,8.173866879261193485e-02
2.140755531753135987e-01,-9.672173763267002400e-01,-1.161655591546203320e-01
-7.884504963875565986e-02,-8.754710380514227896e-01,-1.800260633382458897e-01
7.088635484265177755e-01,-5.471341067088300036e-01,8.357462130257152511e-02
-9.947853986939825255e-01,1.828535837513189377e-01,-5.074799041055487736e-01
-5.506761843017117242e-01,5.691229097639355361e-01,-3.301181798673011314e-01
-9.779508026421095124e-02,-7.870857571374014761e-01,-4.855178039237250526e-02
-1.117301191425713602e+00,-3.045087750059223830e-01,-3.640791716449559567e-01
4.231239776904616168e-01,-9.894339406144241345e-01,-2.378121813450304392e-02
1.124817058414586235e+00,1.242224233748228795e-01,3.963935147763317235e-01
-8.815538094671339087e-01,5.145410830648238232e-01,-9.406819827892189123e-02
8.886115254431171950e-02,8.136342909864980877e-01,1.030485104543324287e-01
5.691610181446390415e-01,6.492416687224150662e-01,3.694188327336672684e-01
-9.909885173105721368e-01,5.910624744667699604e-01,-2.204229896866105043e-01
3.645459962546465649e-01,-6.789318307980973799e-01,1.507762906494816146e-01
8.505397855610541402e-01,-2.029139991001794596e-01,4.871000682903103840e-01
-5.955481294891178390e-01,5.107355453068077589e-01,-3.257759508181285457e-01
9.318627862671923223e-01,-3.720523983465649498e-01,8.629860309348266756e-02
3.883947352816474186e-01,1.050520481649544369e+00,-8.060038407984264353e-02
-6.117246608444032452e-01,-1.001470464705665364e+00,-1.083842768651713251e-01
4.856421149051087099e-02,-1.194540789461775887e+00,9.800267931888435868e-02
-9.397246804426303557e-01,5.374152058756620498e-02,-1.202758011779580805e-01
-4.094624620459246800e-01,-7.107492675461238862e-01,-3.436863776234133638e-02
6.682608411030610540e-01,4.278939286949032250e-01,1.111560953406743602e-01
9.184495224821103143e-01,-4.649661337632434166e-01,4.599743421316220271e-01
5.095847216268334368e-01,1.060754062236387796e+00,4.591004284803529290e-02
-1.648187743536994043e-01,-9.035046204132211045e-01,1.524266345428310909e-01
-6.460255728510183593e-01,-8.712436010151298760e-01,-1.479177529243059890e-02
-9.913017787450892904e-01,4.143854177452349630e-01,-1.273481161163777520e-01
9.717986526128196204e-03,7.948099646877395674e-01,9.992294101336980996e-03
7.011089224082960314e-01,-9.469183189875540752e-01,1.204291614784786524e-01
7.658428503422232136e-01,-1.499398282006230432e-01,4.305486090435055035e-01
3.270275586526837364e-01,-1.156252215942489947e+00,1.623825076593937711e-01
-3.264671649033172862e-01,-7.602256313799297116e-01,-2.453425160399748048e-02
-4.022028423859452251e-01,-9.388973899794951228e-01,9.418627446060230668e-02
3.988255411570946762e-01,-1.114484990863044755e+00,2.216081756014196269e-01
8.389683166406465276e-01,-5.445400984878017159e-01,5.952305607524207426e-02
-5.468139926027628661e-01,-8.236428969445879211e-01,-3.754341558862852035e-01
4.982341781434929118e-01,-1.043468526923466477e+00,2.533942690138815679e-01
9.818777505009962381e-01,4.619727442374481075e-01,4.378834321006377928e-01
8.255736445192122241e-01,1.555634389683094310e-01,4.612064408051049225e-01
-8.299514794713257482e-01,-4.478322564767699965e-01,-4.658575356300734271e-01
1.787584346403187641e-01,9.831779735687854460e-01,-1.633057559525392943e-01
8.012253648594471755e-01,8.488163329414544211e-01,1.482510876263464228e-01
8.742170189214352183e-01,-3.414726535760073678e-01,1.006879332108952807e-01
-7.453822962449542233e-01,5.451282815085234379e-01,-5.638447451542843991e-02
-7.474887074867683223e-01,-8.781521663928504307e-01,-1.265604204327062665e-01
-4.238606545062983955e-01,-6.639186359177076113e-01,-1.507138167729258349e-01
-7.676620357204605449e-01,3.498408729454511312e-01,-4.896164595570235978e-01
2.737741724451295267e-01,-7.636481840711808466e-01,2.278494217909326769e-01
-8.807254598061057260e-01,-6.558094062790719159e-01,-4.052160894537177316e-01
8.660077155849816855e-01,4.533344489565702684e-01,4.725287089889562142e-01
7.129823983798355691e-01,2.501909057282564186e-01,2.710039688503754207e-01
2.809225672110844396e-01,1.099113962397091360e+00,-8.045071124089091252e-02
-6.620772644264546480e-01,9.248334006034308885e-01,-3.217585678379075165e-01
8.402938710631321362e-01,4.738562214179476983e-01,6.937320520596521045e-02
-7.327415983635883201e-01,-1.549072259096184179e-01,-2.960918452060649630e-01
-7.587442496104470635e-01,8.716496672308853277e-01,-3.153246430473329309e-01
1.031975891432027392e+00,-2.434090029335228278e-01,4.659717516754911526e-01
1.052639675262928565e+00,-3.622698778087120597e-01,1.666790760871601773e-01
8.075881577433240421e-01,-4.594482682996465228e-01,9.471488125154982340e-02
5.224292691836439628e-01,5.631794748681471230e-01,2.267860408169664888e-01
-8.840612064764656886e-01,5.327702387306277876e-01,-4.564903949837651465e-01
-9.938233765444547396e-01,1.939372170924129613e-01,-4.858935418235293957e-01
9.646044421661502666e-01,-4.578551220245813402e-01,4.823384074647632525e-01
8.532210603592225162e-01,2.164302962805107755e-01,4.841967901693459697e-01
-1.129498596603841998e+00,1.351753976438505866e-01,-3.791192071730267177e-01
2.633453200710306752e-01,8.891230894978107147e-01,2.641504950303705801e-01
-6.510958623992711969e-01,-6.026786317199837040e-01,-3.859847896715468824e-02
3.999328662900744624e-01,-8.924276967912391223e-01,-3.582952776131684974e-02
2.432665751906163409e-01,-1.177421116408919444e+00,3.183761242073358810e-02
8.498708222199166662e-02,8.147231571649677928e-01,-4.664313516984541774e-02
6.463486509900528976e-02,1.155112998607424668e+00,1.609296547261977184e-01
-8.638773953562756125e-01,7.554242268097591806e-01,-1.834374716497667590e-01
8.614122542103823665e-01,-2.790792028342085548e-02,4.929557546552607028e-01
-9.611404395157920888e-01,-3.187031090328276139e-01,-4.979855807383977151e-01
4.182240692336934296e-01,6.520388492571682626e-01,1.304713150335390648e-01
-7.802415162295175399e-01,1.770282819898297277e-01,-4.169420723526783834e-01
-5.985524819156933241e-01,6.484815248109631058e-01,-4.545720195218443116e-02
7.719041647191796640e-01,8.558493212626814284e-01,2.277119717165756729e-01
3.036226585719488114e-01,1.141021404443185006e+00,1.375304784824230020e-01
-4.771492361673618787e-01,6.325605931263322823e-01,-1.568328606868844288e-01
-4.104554380230257538e-01,-7.168515082654002279e-01,-2.928871240199124037e-01
-6.885911487946898557e-01,-5.605167739021797990e-01,-6.638148658989148632e-02
6.861777643963237194e-01,-7.889511981167228738e-01,3.135821463143665527e-02
1.142659472304321966e+00,9.587190614557017376e-02,3.099778223737513216e-01
-4.112395849661264202e-02,1.197889029437400943e+00,-7.420605542791065823e-02
6.884890357481808776e-01,4.207908382154327831e-01,3.930203813838170634e-01
-1.562880792546232356e-01,1.053836612403339590e+00,-2.431602865405755876e-01
-8.227678088872448781e-01,2.522046104386861942e-01,-1.393616538465174970e-01
7.163588703177847794e-01,2.255625428643492636e-01,2.703235016799057644e-01
-4.860641918866197564e-01,1.054472887525415903e+00,-2.205578495738810818e-01
-7.434131466229738638e-01,4.991304158504190069e-01,-4.642390484462575184e-01
5.538632882848517625e-01,8.186157493016237297e-01,-2.750699946849425107e-02
-3.958292326265391292e-01,7.455052209080635928e-01,-3.178849507300287036e-01
8.963422956683734233e-01,-6.921437607425608984e-01,3.643355113056956363e-01
1.085325645493850022e+00,-1.435121286035053179e-01,1.635072363042285870e-01
-4.747891847195352955e-01,-9.932134250114282858e-01,2.926592878479566950e-02
-4.511321823815847010e-01,-7.929154956197925763e-01,-3.330674212116449540e-01
-9.331401220689642395e-01,6.770359859274818204e-01,-1.769428305698308168e-01
-7.259320554565101835e-02,8.523440758746562151e-01,1.135726807061526872e-01
-3.307303285291634531e-01,6.976108513563454849e-01,-1.436559846953622266e-01
-7.702439402008925962e-01,2.350806953634148114e-02,-4.054498964710949727e-01
-1.862358221100792743e-01,-1.130488564196214574e+00,8.687292657744224988e-02
9.462537355427499408e-01,5.977267205947394552e-02,9.448771764355123892e-02
7.309864308114665254e-01,-6.332421046623454286e-01,3.361972232690473711e-02
-1.433473918517926549e-01,9.445940587058675453e-01,1.509105514323250130e-01
1.021652524618354541e+00,3.002222243189878181e-01,4.754963651509500622e-01
1.409355058776773639e-01,-8.084378626858846895e-01,6.349124660543319087e-03
-3.854480704466348162e-01,9.945959991722529425e-01,5.679617147855561127e-02
-2.706680884513212315e-01,-7.388920604413495852e-01,-1.282423242946221786e-01
-9.629662775069914860e-01,5.958143344628635818e-01,-1.729132138012887399e-01
-2.149585467983722853e-01,-1.076245622318972917e+00,-2.201930149943319703e-01
1.097537176880168719e+00,2.640022104860837993e-01,2.277817931291937215e-01
-2.997473209330155930e-01,7.180128907399886407e-01,-1.479036974118839443e-01
7.211758198972589851e-01,7.597657530532774262e-01,4.119745309023068458e-01
-9.126439421951658693e-01,-7.230988837459488838e-01,-2.403391357013617835e-01
-1.100498492879966816e+00,3.171330102490591552e-01,-3.808275547222025881e-01
1.945834557080443616e-01,1.175362716502950988e+00,-5.044797910186664402e-02
-1.032702338421157995e+00,-4.507765089100125300e-01,-1.570150645520520805e-01
-6.707747394324251600e-01,-3.858392371653944775e-01,-3.584299419953856924e-01
7.581184414273565153e-01,-4.822977515591482800e-01,9.151734032794131557e-02
5.331164901057080518e-01,-5.912239857022525413e-01,1.772975612935055179e-01
7.737734578322928991e-01,-1.691801701613604714e-01,2.318720031043287610e-01
-2.647804435335497364e-01,-8.748014934044353597e-01,-2.761258248601892173e-01
6.790101783929839430e-01,7.020643611299930420e-01,1.324289800713913251e-02
-5.405953010855358842e-01,8.103957156985546195e-01,-3.973131963075393625e-01
6.988677275273537104e-01,7.001686891551279768e-01,1.654484299324645094e-02
-7.345180649294812403e-01,-2.276984788602466059e-01,-2.112206714871082691e-01
7.363264901248425254e-01,1.367596892897837701e-01,2.467598614452533590e-01
7.370811630000335679e-01,-5.423591968332683866e-01,6.295483991523549705e-02
8.063471411961955493e-01,-4.299796249335667286e-01,1.019309816213008618e-01
3.128194394787995880e-01,8.110844849915210819e-01,-5.373575374506816410e-02
1.407280717892642752e-01,-8.562072260621993447e-01,-1.052744825749932223e-01
3.711023922754241311e-01,-1.065748235610888051e+00,2.823518296777994818e-01
-7.489533484450062728e-01,5.882143915475442908e-01,-4.762144924010530689e-01
8.381893808022325976e-01,7.869226516579478359e-01,1.187253666676321567e-01
-1.309580435912496288e-01,9.359618675851680836e-01,1.352917151973277998e-01
5.308088359849550963e-01,-8.837037042598965275e-01,3.717427033381772716e-01
-9.015416574993771748e-02,9.916751346873146078e-01,1.857145004253045739e-01
-8.091118687829822465e-01,-1.568088762674367809e-01,-1.547377164740703359e-01
6.262475537486557053e-01,-4.562196360988388100e-01,3.125199554713157246e-01
7.000906670478810323e-01,-8.668346299671315647e-01,7.631194832348406343e-02
-3.364701253044906637e-01,9.947543414490944702e-01,-3.139885530634879962e-01
1.020494796392707321e-01,8.458772754506609370e-01,-1.091460807669238225e-01
2.236218487605624583e-01,-1.145145354018138883e+00,1.725955079507184575e-01
-7.456764406390266053e-01,-8.357330790803899068e-02,-2.993520188126022608e-01
-5.540878425114729167e-01,-1.037310369136674959e+00,-5.478444215783997290e-02
1.405300879681826640e-02,-8.247490501105718685e-01,-4.280443274773241408e-02
-8.955443201328517899e-01,-2.803580936339465646e-02,-1.220678782425713010e-01
4.022708946474402580e-01,1.034233242690411059e+00,2.880590129936789756e-01
6.822808150178063524e-01,9.682328080579170049e-01,7.030174927468774149e-02
7.453617284505518192e-01,8.066066886879347253e-01,5.196626094796118200e-02
-1.049645858899940443e+00,1.261694004781024614e-01,-1.511182645577311412e-01
3.275555844589133070e-01,8.840778983644613787e-01,2.924393287978149791e-01
7.561059210240500539e-01,-8.515505325896679037e-03,3.981039535255624373e-01
-4.565902222112936393e-01,-9.159241000913497244e-01,-3.219520713873538775e-01
-5.382834459367239477e-01,1.055486998472275895e+00,-1.381779188987379003e-01
6.116772026076811031e-02,-8.035159808382857927e-01,6.446064743102700167e-02
7.293567475246368614e-01,-1.860797168544613966e-01,3.265077032600202100e-01
-9.678680488354727274e-01,-2.429160510540007145e-01,-1.026313838829681357e-01
3.326030628981913595e-01,-9.502962584373069177e-01,-9.163876109103499812e-02
1.098259919155688130e-01,8.675785267319847671e-01,-1.449005891896971432e-01
-1.083478569850724549e+00,4.011544169323354447e-01,-2.652907814187205338e-01
-5.029960165459174126e-01,-6.542775304473487097e-01,-3.513788654848321591e-01
-9.015335260653729588e-01,2.465566448741033923e-01,-5.197602081719036038e-01
-8.021770823403626682e-01,-8.560505176874956268e-01,-1.391371476932979079e-01
-9.062009527194309078e-01,-5.904644244311714196e-01,-4.170996911030822596e-01
-4.298570528088599407e-02,-1.107534597852742664e+00,-1.879275124512578554e-01
9.851657596497435110e-01,5.086244040243577125e-01,1.366966936477889694e-01
-3.666503213811975748e-01,8.256956123274882264e-01,3.767307744154142074e-02
-5.611119072514402228e-01,7.187773504292156446e-01,-4.038912037869851757e-01
7.546899856082829317e-01,-1.913521422072792522e-01,2.434462431128390503e-01
5.813834068589845971e-01,7.692059932134404088e-01,3.860909640268506138e-01
4.272857592027038409e-01,7.204514812327668105e-01,2.933106573646646065e-01
9.465896071059115569e-01,-2.818036389636648376e-01,5.261420962272208568e-01
5.356159943950836722e-01,-1.069960747725528849e+00,9.979903494350522708e-02
5.814430641459681359e-01,5.393786714755552936e-01,1.315480082693600283e-01
-7.452719730916881336e-01,8.657884972829693604e-02,-3.516544979539524274e-01
-6.719343488646947748e-02,-8.350258289656766753e-01,1.329224142147414911e-01
5.591287865022492864e-01,1.004867540201173970e+00,2.369361768520999723e-01
7.023155928492399447e-01,3.719133666413428907e-01,1.414616605439660002e-01
-8.626893640523011220e-01,7.139460788007243597e-01,-3.760315350789941724e-01
-8.779234581194143017e-01,-4.691780928433180176e-01,-7.247326907456394518e-02
9.655254483227920792e-01,-6.019971277857346648e-01,1.771829982887651034e-01
1.453230091118326850e-01,-8.056806519825129298e-01,1.782478359852467387e-01
3.994695485622550835e-01,8.895271089263664388e-01,3.262191690387243881e-01
-7.112637993550026128e-01,-5.977183103552217158e-01,-4.353839027548326857e-01
3.037648698209833298e-01,-8.205805853766382496e-01,-1.628101436054997866e-02
-5.025727038737060060e-01,8.493803042084765442e-01,2.633766298229524988e-02
3.809823912525075462e-01,1.141062683992456916e+00,8.302005056252693971e-02
-6.956475021974841688e-01,4.261449747320653070e-01,-1.308313106410442239e-01
-8.675527170247188113e-01,-6.777221522778033025e-01,-1.195892121037495925e-01
9.796746684657030579e-01,-6.161488389698095425e-01,3.179475433402704221e-01
4.980616903671564177e-01,8.731299016224083331e-01,-7.000757497505419313e-02
7.795186039934992595e-01,-2.305709539820444687e-01,4.685262268344085879e-01
-4.612179559289664721e-01,-7.581124873396619668e-01,3.056745829198999689e-02
-1.037850543439164053e+00,-4.952931068406309367e-01,-3.054052825311018293e-01
-2.763344564056746111e-01,7.532686952687162041e-01,-1.952520657327345699e-01
5.406997933694172032e-01,1.078194102546430333e+00,1.365947691038505440e-01
-7.217203837017659440e-01,-8.348839692080196606e-01,-3.544295271535902736e-01
4.560863115394179768e-01,7.982086989728672810e-01,3.291845340453795066e-01
6.528479638844109090e-01,8.478792171985832793e-01,3.593976296693259243e-01
-5.381557320068016681e-01,-9.908857930754813026e-01,1.548357549309439720e-03
-3.053130896189609200e-01,7.492172784024012655e-01,-2.423764767006496290e-01
7.231743921623740023e-01,-2.187673668725745313e-01,2.694550161278285172e-01
7.471904118154939489e-01,-3.672353349998643268e-01,1.587436771374262923e-01
5.907186168866508380e-01,8.171952343648658523e-01,-3.095258032556661570e-02
-1.005922358258553917e+00,-4.613365118040049090e-02,-1.075516691447436779e-01
-8.881502919417038067e-01,2.610030011268443251e-01,-5.162367763710611346e-01
8.216779015116707496e-01,8.019114580587418661e-01,2.963332219163801184e-01
-9.356989045702877039e-01,4.725415080258874023e-01,-4.349187266305413191e-01
-2.464871505800563800e-01,7.649995656786210407e-01,-3.616453275669421347e-02
-1.134040581852434837e+00,-2.336045181790860625e-01,-3.305246479521877223e-01
9.360274253157137014e-01,7.191687797667062343e-01,2.310761220525449910e-01
5.923320385781168929e-01,-1.011695891629270205e+00,1.838344458293118266e-01
9.828559557942965208e-01,-6.457572842099909005e-01,2.977540541082357994e-01
8.951845814320112948e-01,5.545760675121073069e-01,7.742208760589784633e-02
-5.406500258048200225e-01,1.066327182469629431e+00,-2.275872907646177556e-01
-7.150074061102125456e-02,-1.013067324268783764e+00,-2.141426499980345066e-01
-2.022831211283516450e-01,1.116622273027809253e+00,8.213776883351905922e-02
-6.691383055333618435e-01,-6.518527103250305599e-01,-4.274903198264412008e-01
-5.159536296174521697e-01,6.113735171076745134e-01,-2.852013926042730740e-01
-4.495493702321849416e-01,-8.885367906182911613e-01,-3.393647893082261668e-01
-9.924476331571104870e-01,4.712534621435763849e-01,-1.635533263565238649e-01
-6.245728028046897418e-01,-7.660199479426704761e-01,-4.140355110122473370e-01
-7.951584939893948656e-01,-2.808870955215380105e-01,-1.488482463859369942e-01
8.739799146831707111e-01,-7.955172613290664163e-01,2.324092360446710637e-01
9.944379940484004976e-01,-2.617301068890818400e-02,1.465803110631651862e-01
-7.769306441891414838e-01,-8.311420922501504549e-01,-1.182553057726074691e-01
-8.031116661308864701e-01,6.673181465811124369e-01,-4.380457527546449681e-01
-4.756038248444897087e-01,-9.500403381247244372e-01,5.338685499247541877e-02
-1.861014190007582447e-01,8.130337253240342843e-01,3.001890703062912169e-02
1.052483920019900432e-02,1.179698027823707918e+00,6.211364185601157134e-02
-7.167405855959013694e-01,-2.897327410694348626e-01,-3.356405821959000946e-01
1.066519772537901867e+00,-4.292075108674466288e-01,2.518970750929221403e-01
-3.893215847972639754e-01,7.001209626537140407e-01,-2.639930398950309787e-01
3.968229862921398565e-01,6.917737787772970659e-01,8.015665394725830784e-02
5.899994499523263380e-01,-5.138733333688663141e-01,3.306021948707801861e-01
-3.753777586949558764e-01,-1.130643492361342206e+00,-1.607298671842613824e-01
-7.643742226112495430e-01,-6.452041701614740221e-01,-2.829909762022830150e-02
7.102546774549162167e-01,4.931888554419788240e-01,7.842171944286965846e-02
2.149570526948190174e-01,1.019187544525903988e+00,2.522039709451561196e-01
7.517309025208647189e-01,5.282037409685159668e-01,4.637807079212862837e-01
8.816627162911154780e-01,8.817874867727966415e-02,1.253428715753508449e-01
5.390806092219595502e-01,1.027455880702764501e+00,2.073156267608854131e-01
7.715035303264577982e-01,5.640525375509193307e-01,4.601753347267641819e-02
1.976701667985329425e-01,1.070304663275092549e+00,-1.327530235244657741e-01
-8.035207714459274841e-01,-4.129868292429210719e-01,-4.633921479195007853e-01
1.017323706687159435e+00,5.352002983222183818e-01,2.479458479963077000e-01
-6.240826359056925732e-01,-6.034305416197389693e-01,-4.841405673998497999e-02
8.392223239894960329e-01,-1.047328762074218184e-01,1.527752267114529383e-01
-1.691788163645633614e-01,-9.206006560293908958e-01,-2.434031235163176543e-01
6.215132363255382320e-01,-7.542273511069780279e-01,4.315749641347715326e-01
4.665706494159778672e-01,-9.571023752920189143e-01,3.503822456462096779e-01
8.384887820912438894e-01,1.990987928310342936e-01,1.370955925516987306e-01
1.851319861896359373e-02,8.409187444460949346e-01,-1.458312362387476080e-01
-6.296190824624151583e-01,4.549739755351910886e-01,-2.032854821007017976e-01
-7.301596574428254049e-01,-8.878504642486362286e-01,-3.244800217271646692e-01
3.436051504702145043e-01,8.168376913239554504e-01,-6.166391011246694087e-02
-7.480220063586930923e-01,-4.310451808515327610e-01,-4.724384629744288744e-01
3.305394166756571162e-01,1.025778708778378956e+00,-1.008784560205905068e-01
5.190552717381829995e-01,-9.391388399972419032e-01,3.669342592740181819e-01
2.858912999433620983e-01,-1.093216641731509897e+00,2.641187982698484094e-01
6.356377472881787893e-01,9.867799542322864825e-01,1.582681182191052749e-01
-8.965642771283639512e-01,-3.374625655196389906e-01,-9.295661326598211871e-02
-7.649442190039525968e-01,4.425274995352205254e-01,-4.428160925979439666e-01
6.928113774822001192e-01,-9.109339144035628610e-01,2.846062322257367772e-01
8.420639385732040516e-01,-4.357001615204599276e-01,7.885064793249632609e-02
4.470304127377264791e-01,1.033211114294819488e+00,-4.611381354804742344e-02
-5.983500707639671790e-01,-9.555771233001457698e-01,8.629436702560782865e-03
4.513669809311889880e-01,8.013501662425414063e-01,3.410172141954430636e-01
1.019181086270113168e+00,-3.630316855501795059e-01,4.575552473023377642e-01
5.315677136821378435e-01,7.304896534299140098e-01,3.631073869286941536e-01
-6.955268103425761295e-01,-3.914222258199528959e-01,-1.513369423678914139e-01
-7.554211487450629425e-01,2.765834733615941260e-02,-3.552268001171227096e-01
-7.915083392051677214e-01,-3.042347401469969737e-01,-1.348940695170054160e-01
-3.588854972768139584e-01,6.989723224267766488e-01,-2.055546547226062837e-01
-4.570199710845358476e-01,6.673826281808094008e-01,-1.930081797688753542e-01
-2.606335725183927532e-01,-9.935498962666362566e-01,-2.915130049807708179e-01
-7.675079150812501583e-01,-3.311289853757141965e-02,-4.018621198521004634e-01
-4.016050563714275712e-01,-1.114489106928150175e+00,-1.313351340717168747e-01
-9.209176999944594932e-01,-5.352858187646163390e-01,-1.111199998641925618e-01
9.557734189026541038e-01,6.267234130445124007e-01,1.776028717488085940e-01
-1.029686008653610596e+00,-2.249962034636647790e-01,-4.836242212329797119e-01
7.681164813250132006e-01,1.755795077814867669e-02,3.195550837255640708e-01
7.324737446883847758e-01,2.182601056939080242e-01,2.155930360189826922e-01
9.134176019742715757e-01,-4.392498285622132292e-01,5.066624143585117812e-01
-4.097887557988272866e-01,6.782429440697316236e-01,-2.563287421822541545e-01
-4.524522913081906461e-01,-1.017715971878890624e+00,2.873170196915312072e-02
-9.939779901305323406e-01,-6.211410295217988375e-01,-3.319388247902576583e-01
1.042648248649853671e-01,8.485851378642226273e-01,-1.425739608770304478e-01
-4.809380408847782618e-01,-6.715740870497501902e-01,-1.259782938592632906e-01
-5.501203726596208821e-01,-9.650291654653551099e-01,1.942818134734742436e-02
1.122635594724607166e+00,-2.849824915197939346e-01,2.748168613832754348e-01
-1.011453036410044692e+00,4.010926991201644864e-01,-4.474744733327488677e-01
-9.069909736419168311e-01,-3.610671626358476216e-02,-1.100937630401335465e-01
9.195137146744338796e-01,-7.291759556051288227e-01,3.038872404338004429e-01
-3.433551095445164791e-01,-1.095854912988864616e+00,6.277088283636141075e-02
-8.839543468422663697e-01,-1.142404678324060868e-01,-1.236925897475038005e-01
6.291361284878327353e-01,-6.392999229240976522e-01,3.376480679756692360e-02
6.972895668946158532e-01,9.311908661907759566e-01,1.101296152213369212e-01
-6.993647571220120707e-01,7.721405821770812583e-01,-3.599580421186041740e-02
-7.446915185412339433e-01,-5.655709757296781826e-01,-4.433843390198081158e-01
-6.602907815834319072e-01,6.804723293500000159e-01,-1.748630973115597106e-02
-2.244259487657456198e-01,-1.087729358568280569e+00,1.087337918056939523e-01
8.973576201356758819e-01,-6.501239368747065983e-01,3.941923030245198523e-01
-3.700929079167106228e-02,-8.212687839174215298e-01,7.268733244894003132e-02
7.841000294124431669e-01,-4.746770354802508085e-01,6.690784803680305259e-02
6.902421937802157847e-01,-2.763044625876674987e-01,2.869527480086821458e-01
9.060768058750177101e-01,-4.913647788609401545e-01,4.676154622850546838e-01
-6.218531827201309037e-01,9.249719235435509557e-01,-4.645156579006905900e-02
2.982503633159167555e-01,-7.509830362956123606e-01,1.277781419541614838e-01
-5.768287603820981824e-01,-5.558517799492916911e-01,-8.924235858919984943e-02
4.046979007313389332e-01,-7.394436909406515435e-01,7.420949327448008413e-03
7.514636786245838529e-01,-1.086371040633291735e-01,3.768730397679603827e-01
-8.355426813837910638e-01,-1.105499761938962683e-01,-1.602796022855282609e-01
-6.528378130979932692e-01,4.326140310906102515e-01,-1.749515536088611101e-01
1.145909954749906312e+00,-1.859127241435109754e-02,2.240046117866243691e-01
-9.494520681210167901e-01,3.342663452635285526e-01,-1.088945694926034546e-01
5.639810160901977953e-01,-9.701101555761350026e-01,3.281607731500426062e-01
-9.760451890032501021e-01,-5.022595938504382795e-01,-4.191816316627147154e-01
7.452920636647955011e-01,-8.781825580748326213e-03,2.531498770753303207e-01
9.425198543565370679e-01,-1.734613428177948224e-01,5.226928353036527364e-01
-3.886536850958665634e-01,1.056861822869809009e+00,-2.784501947184150894e-01
-7.191239443778661977e-01,-4.758095057885138868e-01,-4.253583248286361140e-01
-9.837761333639220007e-01,4.293621381929333958e-01,-1.384884651606485551e-01
-2.524801550095642777e-01,9.892454162860490063e-01,-2.844513800596797370e-01
7.321990668462963203e-01,-8.207613410374439145e-01,3.805030084614487995e-01
-3.471797069319542683e-01,-9.474551517513789545e-01,-2.943830910833221126e-01
1.104883630300801389e-01,-7.975842687823051502e-01,1.407510109313309943e-01
-2.719672676633576036e-01,-7.907479589288529676e-01,-2.089777674835948396e-01
8.557192491074352425e-01,-7.821213030146683121e-01,2.432227011831596120e-01
-1.031534194529749371e+00,1.746282807670078430e-01,-4.790732032418427155e-01
-6.687359929529423930e-01,-4.726068118909168558e-01,-1.275828451181727496e-01
6.663782887028334434e-01,-5.514195159556856130e-01,4.025562623746901658e-01
4.162511570566927444e-01,7.096942779503159215e-01,2.773927198975822961e-01
-7.434946961282762334e-01,-9.492437673310932800e-01,-2.479821626132495682e-01
2.956801676880144725e-01,7.247488063422797833e-01,4.665653303109863065e-02
-1.011764783432547166e+00,5.140690129145588649e-01,-1.736768642596900336e-01
-8.201766461210824311e-01,-2.120937722181352458e-01,-4.466535847365041279e-01
9.423920907763112531e-01,-2.512030693504421763e-01,9.836221767317991638e-02
4.280601435953316214e-01,7.152353941341687005e-01,3.035661726380209369e-01
7.075728802287534203e-01,7.042453564863281334e-01,4.100636994998892448e-01
8.395628116455721157e-01,-3.814831532511293588e-01,4.821940376243581960e-01
-7.571789388520508979e-01,7.033277469730714326e-02,-2.202913009428552615e-01
4.005010702225167418e-01,6.871395991479597454e-01,6.722905324039243902e-02
9.570124144202267757e-01,2.208678552836356446e-01,5.002882727106031657e-01
6.588608461257372539e-01,7.597208410158373670e-01,4.050470174537444401e-01
-7.531871297593064618e-01,7.474977775616435671e-02,-2.564577884946734887e-01
7.582141203877317270e-01,2.174811611447871329e-01,4.358678810512235380e-01
-7.809587170688943036e-01,1.157262139323981670e-01,-2.298385073918926547e-01
6.413721464730932631e-01,4.890949968481600463e-01,1.096879930004106829e-01
9.706070557854556968e-01,-6.246978820537898436e-01,3.325295755192971825e-01
-9.568021993029843797e-01,-4.609019142846640382e-01,-4.655357623682762069e-01
-7.347501207638781340e-01,-6.466229167513560805e-01,-4.488450415828774687e-01
-1.110813521168319343e-02,8.544528972803838718e-01,9.270674885939240994e-02
-6.618577072716834708e-01,-9.156497206929977706e-01,-3.387319207922419584e-01
-3.671437912174747020e-01,1.117849945576795179e+00,-1.314819296825544548e-01
4.426410788709987942e-01,7.118386062492609856e-01,2.232922002263650410e-02
-4.265479695603396904e-01,-9.266401115979265857e-01,5.842374190635802461e-02
8.953243062464000257e-01,-6.414953323130111462e-01,1.071863714415851737e-01
4.514540826874200441e-01,8.946881582737722383e-01,-5.931194326898548558e-02
1.055147967052528918e-01,9.811105039546175188e-01,-2.001237688276694127e-01
-6.836707330586490050e-01,-7.480682264433932138e-01,-4.089794498731668670e-01
7.632304537059715344e-01,4.891741056119149333e-01,4.561180274795700318e-01
-2.083046475859886837e-01,7.782666406330505104e-01,-1.220802349730950587e-01
3.327172674734615865e-01,-1.107739611010897463e+00,2.465783980074980897e-01
-4.360492810025053956e-01,-1.055477017787517235e+00,-2.880219954965058797e-04
-7.436355189787694497e-01,8.413868167290142752e-01,-8.492437031959260141e-02
5.707293144966967269e-01,-1.050556198940173713e+00,1.264845988780285979e-01
-7.427666083166555300e-01,-2.964132062014796509e-01,-4.204198439706020585e-01
-8.925199779793173693e-01,-5.026541024294343130e-01,-6.944172698393479004e-02
-8.122300648708555837e-01,-5.901621385955668764e-01,-4.589199590107325144e-01
5.469614116840322282e-01,-6.099822496086915180e-01,3.746276884874924495e-01
6.465702016951985209e-01,4.067540813136026334e-01,2.655068918969366587e-01
-7.007255215727404840e-01,9.386936573459194744e-01,-2.829446208253826867e-01
6.383248188244670107e-01,-4.541213363496245936e-01,1.793070668622380737e-01
-5.254347993870257527e-01,-1.021732275806395140e+00,-2.166987748457061685e-02
7.636562712630385885e-01,-1.966530791019646673e-01,1.787473587860118340e-01
-3.948338637067889123e-01,-8.035023946690644792e-01,-3.199032517251833574e-01
9.957339409758902971e-01,-7.473456000022585255e-02,1.315637649614514182e-01
6.063065924487649472e-01,6.382637497473988564e-01,3.931708182417789077e-01
-7.453212602473097137e-01,-3.240653826673633303e-02,-2.364051344055730641e-01
4.432704679815633875e-01,-6.358138442780251198e-01,1.612103093121949327e-01
3.488991776942925727e-01,-7.473281938954802195e-01,4.780990799503195832e-02
-9.212442524630812812e-01,-5.858879368576548341e-01,-1.131290983520387844e-01
-4.124890931187561449e-01,-8.731420318734527397e-01,-3.338455882889686532e-01
-3.783953000275610545e-01,-1.062982478469710168e+00,-2.511283945100331039e-01
7.550222161999546877e-01,-5.325111458591465230e-02,3.529197932008345528e-01
-1.046296501695190617e+00,-3.209650044562888938e-01,-4.402338266124574684e-01
4.116048895057470847e-01,-1.098028875823903405e+00,2.061460892967334202e-01
9.053968781963502854e-01,-3.351182087885485328e-01,1.041559512838260981e-01
8.426287705153772123e-01,4.821919770237811931e-01,6.586148398631569423e-02
1.350659111926206905e-02,8.432739941729353594e-01,9.608322996855404863e-02
-8.638895343205074129e-01,-5.879322474398712695e-01,-5.429770278150836127e-02
-1.723603663832546373e-01,-8.111381181585876066e-01,-1.792961687305775209e-01
-2.491012728061885433e-03,-1.155217132394186219e+00,1.596971441041821205e-01
