1.413276545935934466e-03,-8.657407274782099593e-01,3.146642551037183433e-02
-1.674112619895561094e-01,5.059733247882797214e-01,-6.060184812734241699e-01
-1.441390915514374482e-01,-7.503810323392062775e-01,-5.926796961230768046e-01
1.266852395655307904e-02,-1.138062708812636492e+00,1.888467071676156461e-01
1.969012700297578800e-01,-9.161243500260607409e-01,4.061615663757857653e-01
2.987170631051279668e-01,9.305234165670075441e-01,6.579801796893677279e-01
1.851183971367634240e-01,4.173921536221726347e-01,7.848228737159796964e-01
1.669676266779156204e-01,-5.988010854324167243e-01,5.253070672456990886e-01
1.608935066998690711e-01,7.979689812499949353e-01,-1.777796802537267781e-02
-1.085743618264566196e-01,-7.949857272997330471e-01,1.185077908361930193e-01
3.393361852313135918e-01,-6.693204274328883319e-01,8.542013874500435922e-01
-1.298699548780584134e-01,-5.568776755414279328e-02,-9.850987950570203600e-01
2.399810573848071560e-01,7.231174464142624547e-01,2.387964805678028657e-01
5.293501991601851087e-01,5.207025341770988858e-01,6.005955439759780301e-01
-4.827567593146062791e-02,-6.338355766959511417e-01,5.145087735650730743e-01
1.575463178256236718e-01,-2.046649416786020803e-01,1.064050601920190520e+00
-3.292774683682505033e-01,-1.118640605362212215e+00,6.754752250688061954e-02
1.762830453400175690e-01,1.039666122759481892e+00,4.415621180317275130e-01
-4.822995973351678622e-01,-7.626794988510855466e-01,-8.172451012095608425e-01
-7.726730163434258891e-02,1.067227468246581434e+00,-2.420175531727803420e-01
-1.301367252952842779e-01,-1.053270146299323917e+00,-3.027431762171697294e-01
-5.232437388734475503e-01,-7.321332307781296400e-01,-4.953761573957397024e-01
2.447414115952221969e-02,8.878902605791448854e-01,3.233787845805204120e-02
3.567436075464054390e-01,-3.835395202980754203e-01,1.070780086477402415e+00
4.578266442329022995e-02,8.375225829819167300e-01,-1.721576496912901461e-02
-2.400819316220133559e-01,3.221684254433007100e-01,-1.119153485555210548e+00
-1.582538391035488434e-01,9.464601483229162504e-01,-6.795760065906045755e-01
-5.301680349073940590e-01,-7.544719806146187313e-01,-7.593173347999160328e-01
4.620379277073340396e-01,-3.054271656787966305e-01,9.760177543970072200e-01
-5.735649404291380815e-01,-3.377985452762407581e-01,-8.103864494995186574e-01
2.107426211040602793e-01,2.751684957963714817e-01,7.760381821228676813e-01
2.226501540053427847e-03,1.025213851962286649e+00,-6.198713328247162924e-01
-3.792740768725170186e-01,1.815784266684823400e-01,-1.111496723089097305e+00
-5.424608914512826091e-02,3.086195370597460408e-01,-8.786666384645347438e-01
9.671910994640455644e-03,9.148783742474588809e-01,8.158656902289071478e-02
-2.850793941797886283e-02,-5.599344397668035711e-01,6.589031238798993551e-01
-2.492275390078494690e-01,-3.394299343561461568e-01,-6.743242239460869314e-01
5.260817733543038388e-01,4.071325960518911158e-01,9.564984627795052319e-01
-2.004461353649102974e-03,8.710329731809106635e-01,-8.163999200175106608e-02
1.552872441144259597e-01,7.632193635906847629e-01,2.853310296451372352e-01
3.503879235698200145e-01,3.805761453094839708e-01,6.201371096361193436e-01
-4.328445956209001078e-02,7.179433537080919248e-01,-8.903497457221569711e-01
1.277191960802453174e-01,1.185600308621782117e+00,-1.899674712610331107e-01
-1.721475194083646187e-01,-1.095705833842518517e+00,3.891697062503464699e-01
3.099604947935274413e-01,3.444887346281303442e-01,6.388891132409117990e-01
-4.017173315240682996e-01,1.869068659929981335e-01,-7.875021615566553113e-01
-1.639151253471019531e-01,-7.752288845422615482e-02,-9.203870976455457154e-01
3.606369105935700210e-03,6.340663881793580092e-01,-4.975369675529601188e-01
1.933404077302067481e-01,-1.204556813460800901e-01,7.928659748278241715e-01
5.683855717675969643e-01,2.440408556430680442e-01,8.728012301574348264e-01
9.286458102695070715e-02,-6.796300517970305100e-01,4.291962334590573858e-01
-9.128787457375016345e-02,4.187692416842950793e-01,-6.992127783879890091e-01
-1.084086133884632763e-01,-1.170333076514076920e+00,-6.122590606652791867e-02
3.538278576468364967e-01,-6.851410307977353620e-01,7.814738718247766780e-01
2.467100627489791920e-01,7.128459554001589371e-01,3.073059508620507030e-01
-8.052591209169879249e-02,7.659928101731200423e-01,-3.240413086033410717e-01
4.820678356892087457e-01,7.027291369188259917e-01,3.864406925753735567e-01
8.238072075419425322e-02,1.057024302885503309e+00,2.196300021411609626e-01
2.849866678083013971e-01,1.107760428224989102e+00,-1.561272580632538098e-01
-1.716231316125881867e-01,9.988624539145546377e-01,-5.058250540555273567e-01
-3.898634799867702894e-01,-6.242157676375036379e-01,-4.074409906051699726e-01
1.407717205989470477e-01,-5.344795988676577236e-01,1.041662203758563221e+00
2.844262260734327086e-01,-6.175213622396305002e-01,6.167417132617664111e-01
3.539107377827635514e-01,5.815449959931010548e-01,4.528480096392195620e-01
1.834615814804956557e-01,4.047201576048942151e-01,7.867323560726070530e-01
1.718538348341994149e-02,1.003966798436328522e+00,-6.173929803640728631e-01
-3.048412877580101155e-01,5.184987816034534180e-01,-6.528279557090035379e-01
3.875072521517451407e-01,-1.316074741213973387e-01,1.113812265709606786e+00
-4.757811684458058132e-01,-8.918894312660903267e-01,-5.857249880721429047e-01
1.819531994475176717e-01,-3.572819722658449049e-01,6.968482231321748710e-01
2.117749982747914039e-01,2.770034045566336159e-02,1.097291626806143450e+00
-2.784470208762130361e-01,6.753850400503852436e-01,-5.950464749775430384e-01
-2.929913767881957565e-01,-9.359552570281514106e-01,2.524258300120310605e-01
4.939012977078799382e-01,9.117042050412655918e-01,5.237322524220461295e-01
1.028912770444866537e-01,1.171746222000507931e+00,-3.585527248763246272e-02
-8.621209066862825510e-02,1.707387092073830714e-01,-9.463558032344692172e-01
-2.363470891121848272e-01,8.835881763362234409e-01,-5.000851816318951926e-01
-1.195399049299866595e-01,2.051471391914050924e-01,-8.404582046329058809e-01
4.071235350949189979e-01,-1.930039608069596679e-01,7.511998170827992594e-01
1.596879303983853304e-01,-8.865968205105660971e-01,3.575888619030293536e-01
-4.120753040793631028e-01,5.217725054179085387e-01,-7.589493584705641060e-01
-4.301145451852111390e-01,4.892990193413163658e-01,-8.339771365517715251e-01
-2.397560740828839354e-01,-1.120625498512778817e+00,-3.000909841752111284e-01
-3.867215067935783068e-01,1.429050807758611985e-01,-1.118264167614596127e+00
2.332890395894335334e-01,8.525633574943249915e-01,-3.697967254878953836e-01
2.712832440099713707e-02,7.187155573582924006e-01,-8.302623941201339175e-01
-1.739008166569533664e-01,-8.963200980422781905e-01,5.503940576026595810e-01
-4.842653345181238689e-01,-7.902451569386860220e-01,-3.210328558544935373e-01
-3.260487544799717252e-01,-3.654871715044894498e-01,-6.234758845307417641e-01
-4.242499939067573278e-01,-5.099270460748676903e-02,-7.402137821841929810e-01
1.891657866663898346e-01,6.372058656201040616e-01,8.193341763377940401e-01
1.630404507774211864e-01,7.722221621108161793e-01,-4.325921823120946197e-01
-2.659138930634772913e-01,-4.231935468541331291e-01,-6.477782495372544913e-01
8.737186406772809444e-02,9.017512960366235175e-01,3.748277577008837236e-01
2.433648181165997681e-01,1.869240262932057861e-01,7.612515353636203352e-01
-1.979013054463405752e-01,-7.171667375721837434e-01,-3.118094504815158152e-01
-3.990252330435292705e-01,2.169674049467290033e-01,-1.125494363914686158e+00
-3.003550575286708102e-01,7.871466909394543299e-01,-6.886922187093682535e-01
4.723571609168611407e-01,9.706081580567730294e-01,4.517131879937571481e-01
4.160660969627326122e-01,7.705547915333521569e-02,7.417138928546981314e-01
-3.204337178932490926e-01,-1.118652840475343968e+00,1.039786122779695204e-01
5.217691314618448928e-01,5.644980717222224387e-01,5.767863476331271944e-01
5.599617523683688564e-02,-3.746548397278287590e-01,9.554539468429836813e-01
1.914495672373950352e-01,3.977030990851481707e-01,8.944336425090519960e-01
1.762694900506072138e-01,5.931487847191612151e-01,6.497530683759183967e-01
9.098370425251524340e-02,-2.725982876892354412e-01,8.521972291947208511e-01
-2.652463999861083832e-01,8.543581226069543177e-01,-6.930265660466079503e-01
-3.604811674835021740e-01,2.487003675035616423e-01,-7.377835821889003887e-01
2.668923641788104040e-01,5.051252073715890578e-01,5.523061949793462988e-01
7.134012728193477038e-02,1.139386938953145689e+00,-4.127337873557021530e-01
2.285401673480439433e-01,2.157183771753176382e-01,1.029472653026646700e+00
2.101730464487283623e-02,-1.064201006948026329e+00,5.520932291221855026e-01
-4.419016664638063946e-02,4.217173554115243861e-01,-9.332417545263691494e-01
-2.253954814476168411e-01,-5.355300971473014870e-01,-5.855941012338328200e-01
-5.061981782181970008e-02,-9.172126601528360901e-01,-1.951610951451581144e-01
-1.569965104711315562e-01,5.160523405870488522e-01,-1.043571493488149926e+00
2.874455525241532139e-01,2.236586129938350487e-02,7.303769757191057588e-01
2.913305730694917828e-01,-7.286306706747825990e-01,6.213552424567725385e-01
-3.238980448184009542e-01,3.105991779528443630e-01,-7.213019819237429520e-01
-2.734075671994399409e-02,-5.302341536111787601e-01,8.557703627768318277e-01
-5.527564784612456483e-01,-8.030921565540821705e-01,-5.571745133025611807e-01
4.230690369116629768e-01,1.022519612272054346e+00,4.054177306929403479e-01
5.082421735287480091e-01,5.482925797362488973e-01,9.380596172590959236e-01
1.142838481430777375e-01,7.171806464903839329e-01,-6.107601957972641493e-01
3.320328590566427041e-01,6.894140998480099425e-01,2.974350548290011775e-01
-2.272406076149299792e-01,-7.650212387494172983e-01,7.159367297617194592e-02
3.445488484867386680e-01,-6.300440277345545903e-01,8.692813356079006626e-01
-4.742735489794953074e-01,-9.516223440828789348e-01,-5.064217768633229033e-01
5.063627402991469628e-01,5.304409949579285133e-01,5.735406110384250189e-01
4.685354278201053213e-01,9.399783890046519153e-01,2.711981393469528601e-01
-9.500895859826493511e-03,5.693779008855057722e-01,-9.199622669558449317e-01
-2.816002251983026339e-01,-4.277480464202997879e-01,-6.079885583811078797e-01
2.708834774213550456e-01,-7.307773013233087589e-02,1.150648944669036444e+00
2.432358837507457017e-01,-6.698273295112965320e-01,5.352914923162794825e-01
4.804759075626796605e-01,2.951950068523877535e-01,1.073423075942214089e+00
3.374443157238687929e-01,6.498378781002739357e-01,3.859634902948390067e-01
5.280221765253823030e-01,7.490664454215405499e-01,4.607152385925017413e-01
4.999453356332797527e-01,1.951621939310087539e-01,1.078060837833469732e+00
3.505875670027142066e-02,-3.598949524889245577e-01,9.344416815104661378e-01
1.026939132194052973e-01,9.946041683957203006e-01,3.443261215723232849e-01
4.771356447260977629e-01,7.103793331607734240e-02,1.081003102253283110e+00
-2.748393259182361006e-02,-1.153089605922522853e+00,1.971639612559513699e-01
1.446302232980191116e-01,-8.869832665524267634e-01,3.329053776574453227e-01
-4.174803149437425476e-02,1.045283777957440430e+00,-1.097057752646055512e-01
-5.485668518288390194e-01,-5.778634497848187390e-01,-6.248283908966490996e-01
-3.807308799536693877e-01,-1.099475198003191379e+00,-1.750083522871825892e-01
-1.071711454874534411e-02,-5.097577767173530061e-01,7.943734523121559477e-01
-5.651216406022666061e-02,2.891070640998806285e-01,-8.770189853264268587e-01
3.969844246060559856e-01,1.065942376629325672e+00,2.282068173977783720e-01
2.145296191545958131e-01,7.248375329331443462e-01,2.678582787228674933e-01
-3.681340643586449857e-01,5.914977867157005242e-01,-6.826606725951659405e-01
4.105254436110925553e-01,1.011424436043949632e-01,7.288794631441727345e-01
1.010035206083372966e-01,1.166037066391334198e+00,1.091973869472779787e-02
3.646388468478228145e-02,-1.077635077721050161e+00,1.270350001420342545e-01
-3.112672455632256585e-02,-7.727369995032974392e-01,2.151538925008770475e-01
-5.426127765194844743e-01,-7.491997923530833159e-01,-6.615983327818921733e-01
-4.532777616614415694e-01,1.411437902795032173e-01,-1.082501455041956939e+00
-3.255439541135611847e-01,-8.984992248786078939e-01,1.488839371992707328e-01
-2.080345111184059639e-02,7.480599511700830595e-01,-2.975742013115758033e-01
-4.033950680295954605e-01,2.377009108063135312e-01,-1.102572585050439535e+00
2.404484133744986263e-01,-8.325238398213187230e-01,7.684012449237693776e-01
1.008491365067897688e-02,-6.586697000238730393e-01,9.127563669991966000e-01
4.381231893183859527e-02,-3.961976066852599399e-01,8.446124493920168508e-01
-1.352007935037131958e-01,-7.771448080688301285e-01,-1.389318654937755637e-01
-3.748391263280835828e-01,5.676415262082882274e-01,-9.005945546602380780e-01
-2.501717790951774045e-01,8.386917143637714345e-01,-7.038461274508063248e-01
3.501451739595840551e-01,-6.773515862733863191e-01,8.895710020297414866e-01
1.360619747210691788e-01,-9.490393784848728531e-01,3.001435984973403470e-01
-9.834922659339703777e-02,9.244620012830579991e-01,-7.572768839189070178e-01
-1.532692726414480455e-01,-7.722825375213344667e-01,-5.565557673852689069e-01
3.511774107876163842e-01,8.131377899713946311e-01,6.417599564355917774e-02
1.885496039509805821e-01,1.871477285522442080e-01,9.418503178034041134e-01
3.927223279363114550e-01,4.235075735921841611e-01,1.054951777943236690e+00
-3.589001951221508224e-01,-4.697880530922723397e-01,-5.689130374116831979e-01
-2.910731704880438198e-01,-7.210348725000418346e-01,-8.716347751033013402e-01
-2.160979490547108861e-01,3.203596929653863556e-01,-1.096024893057359062e+00
2.303566923846097070e-01,-8.308167747512383849e-01,4.924373877272806843e-01
-8.361365481809672484e-02,1.088196075230928761e+00,-2.866885302608437880e-01
-2.269103770725094393e-01,-7.058697409711721660e-01,-2.595156770441514604e-01
-2.371629196357011582e-01,6.605095997260780338e-01,-5.669544480729642455e-01
-1.219157873917540297e-01,1.218469458865436006e-01,-8.666888607803150402e-01
-3.045566790062800289e-01,-1.115175279588721979e+00,-2.092753386009427174e-01
-3.683498998616310249e-01,-8.803201097689249410e-01,-7.087919668815069185e-01
-2.471261336007588294e-01,8.769221976471358593e-02,-7.639630831571267988e-01
1.028981053862936951e-01,8.029226543935422677e-01,3.359461413549023057e-01
3.206433546767377685e-01,8.305340045835861718e-01,1.201799142874553257e-02
1.376736289882916353e-01,-1.070360283917412975e-01,1.031434203182121090e+00
-5.071158334754190256e-02,-1.025905059104886607e+00,5.965697674335618261e-01
-4.900489015974524576e-01,-5.656306270795042890e-01,-9.391751238314700601e-01
2.265150959148654747e-02,-8.957209066187696855e-01,5.213509963415814685e-02
-5.596065150566017499e-01,-3.334660819516933605e-01,-8.773627612358144701e-01
-4.800104271808604620e-03,5.348951119991156578e-01,-6.883602847266229174e-01
-2.367831338799658569e-02,-7.620427318462462685e-01,2.363334502399101478e-01
-4.548340909173645419e-01,-9.971279971812524456e-02,-1.086278298356817773e+00
-4.057364525710950298e-01,4.846240059363171038e-01,-7.860214224984140019e-01
-4.636705724030730780e-01,-8.263845432317357131e-01,-2.824023886747586976e-01
-4.532424024100328852e-01,3.670933379084322795e-02,-7.789309386420227854e-01
3.468831770901164568e-01,-4.541721091190627502e-01,1.043375588217156258e+00
-8.043916947326211486e-02,-7.960647110889377265e-01,7.649003986926248277e-01
5.082015452422319335e-01,8.586688088949393505e-01,4.660184955359217285e-01
1.049225559062160612e-01,8.898527363572839022e-01,3.745964510062650965e-01
-1.640692767153947018e-01,4.098449028579519426e-01,-1.079604282589313513e+00
-1.885017652511764008e-01,-4.409712605987193279e-01,-7.174053127737231028e-01
-2.965270324340869568e-01,-6.015420896581519239e-02,-7.246610809595467328e-01
-1.737980281366895974e-01,7.286672755510725796e-01,-4.439101511057378935e-01
5.354021529836234805e-01,6.929492924517430819e-01,7.439091969176713226e-01
-1.802046174718416605e-01,-7.705343186234403507e-01,5.307541736101218932e-01
7.175164135793896114e-02,-2.226656404654643040e-01,9.390094383953595525e-01
-1.703005541212582463e-01,-4.528401638396888917e-01,-8.375642735374880798e-01
5.461196952332384585e-02,-1.113694575991721170e+00,3.416225731670373134e-01
2.624605598397416473e-01,3.166440567637659464e-01,7.101590680050968718e-01
-2.105164420564122896e-01,-2.602546207632854824e-01,-1.014380392984000512e+00
2.224620196125097205e-01,6.413927067902632784e-01,4.180847166972563311e-01
-1.233574644456822272e-01,4.727199968651470963e-01,-1.036106409980912746e+00
2.480311141400754205e-01,8.159152111707131949e-01,7.250929008433325551e-01
-1.736864070763921297e-01,-1.045793224852651360e+00,4.497989883336397376e-01
-3.156893411063398380e-01,-9.193351245382867798e-02,-7.205240735625479953e-01
-9.161958659216203060e-02,-1.105466441952927203e+00,-1.913409885463377980e-01
2.813036812004508502e-01,1.154981812684475084e+00,2.095500801735575638e-02
-1.732778284208917885e-01,8.084465003102746516e-01,-8.792547729584467842e-01
-5.211784167568760395e-01,-7.380623975754240229e-01,-7.781530635857935030e-01
2.881126822172067059e-01,1.065726580974413196e+00,-2.748549585001263673e-01
-8.882421915661202830e-03,8.496620615412415756e-01,-7.265105005591243614e-02
6.194274322484299988e-02,-3.463208965091887359e-01,8.318383551957720945e-01
2.360950220162416346e-01,-1.593727194202969322e-01,7.642335346061706058e-01
7.018037115689779171e-02,-5.813955980059976048e-01,5.815202438167673682e-01
1.377192238775520328e-01,7.709170785904559953e-01,5.462161482483788300e-01
-4.170863893031936387e-01,-8.750753871493514024e-01,-1.200273907956116992e-01
-5.107126134741627466e-01,1.433518104887410438e-01,-9.085511303203787081e-01
-4.185446947183469324e-01,-8.901544795372465790e-01,-1.066366108099300325e-01
8.206845260385085827e-02,7.515271851380492807e-01,-2.538685016542509554e-01
-1.773639703818461616e-02,-7.202924713381146926e-01,3.203662245749755999e-01
6.352828133653888598e-02,-2.872089390137775311e-01,8.688386696785939112e-01
3.991601710219722099e-02,-4.137754008050734122e-01,8.201614135369135195e-01
-4.224895509390214077e-01,-6.332179437001932421e-01,-4.232483784538164096e-01
1.798250661223629587e-01,3.891335412979912700e-01,7.617190777859350614e-01
5.438261850631870287e-01,1.643700278519466540e-01,1.015132709238666830e+00
-4.473269169938398626e-01,4.471302449951238267e-01,-8.565516357388002211e-01
-3.942508289789762310e-01,-1.081851577079480764e+00,-1.003387237929608405e-01
-1.843488010244695163e-01,-4.508524595629343490e-01,-8.211126927667671271e-01
5.168879254146163671e-01,-8.688243332197084778e-02,9.623726981311185869e-01
-1.698543900332704915e-01,-5.315579895765301099e-01,-8.453595755246252619e-01
1.261495758857149874e-01,7.455691355813696131e-01,-3.625020680681140250e-01
2.843747503303777902e-01,-3.562199005820781972e-01,7.001638817519475477e-01
2.025975648916586713e-01,-9.557426939042125424e-02,1.094153790371894974e+00
-5.553399750242467015e-01,-1.393619036364472652e-01,-9.346191355113796506e-01
-4.305713000058232764e-01,-4.722210014122738553e-01,-5.739782311218291078e-01
5.121759225379646230e-01,3.614531639554745546e-01,9.990902146834133024e-01
-4.625265834349878008e-02,7.216335595900676969e-01,-3.601877015605725041e-01
4.692642068528239396e-01,9.759865721048072151e-01,4.618103392930129614e-01
2.569457408953068622e-01,4.397745813109131818e-01,6.502444971285510356e-01
1.309615010425304316e-01,7.281320503113742904e-01,-5.199605806035273448e-01
-2.201453478062652125e-01,-9.610775199559478121e-01,-5.850677690728235403e-01
-4.632736881663198081e-01,-1.041100195287122609e+00,-3.307749844200026379e-01
-4.373357223122273929e-01,-9.952760184363383944e-01,-1.644447076283469811e-01
8.865367524561444668e-02,7.735344330541118474e-01,-7.309561432472106990e-01
-1.425997275015873089e-01,-8.290746985629967591e-01,-5.164374252836531065e-01
1.654168839758070886e-01,-7.229604613972806515e-01,4.245242763414492915e-01
1.608640208956405304e-01,9.536076926278341803e-01,4.645426350293589413e-01
-3.679785133112612461e-01,-9.657835053601986075e-02,-1.130557139349307905e+00
3.332384031094443033e-01,3.483734664225077160e-01,6.489396667776385907e-01
1.725026147700705059e-01,-5.798377902745828205e-01,5.542789833102681474e-01
2.448385610667149770e-01,8.858896602513659513e-01,-4.019496954203199968e-01
1.768279856526027149e-01,2.908650340371871090e-01,9.519531680960423570e-01
-4.724665999316730036e-01,-4.741790769453803067e-01,-5.811023526285473695e-01
-1.045959374441341599e-01,7.028865134124974157e-01,-9.488098415324616175e-01
5.160185167419419072e-02,8.633154781646407150e-01,2.378546209008820245e-01
-3.233014566017826663e-01,7.572923264790188957e-01,-6.824134026860115831e-01
3.917622804545193294e-01,1.100104639595458123e+00,1.787786443817456772e-01
7.322226789108529643e-02,1.155669094873801761e+00,-5.374009848502315362e-02
2.440790638834518522e-01,6.915600005051055765e-01,8.520373128628849768e-01
-3.150635868381235216e-01,-1.052291589803332705e+00,2.033560687255177302e-01
-1.712667670709578649e-01,-1.775660143204035868e-01,-8.699212425301190432e-01
-4.781285843272776170e-01,2.092904048476282586e-01,-8.498271234397039020e-01
9.348959210362786654e-02,-5.605870854227210653e-01,5.851841640168135017e-01
-8.230219829362105111e-02,-9.961493673574286500e-01,-2.822473105966643026e-01
-1.081488391113489961e-01,-8.174235872623518695e-01,-3.282942371373983037e-01
3.302134399788037578e-01,-7.748258993116732274e-01,7.368002378186938595e-01
3.395267561359596176e-01,1.223985241517463046e-01,1.145163973260654444e+00
-2.270635747566702445e-01,-7.679135028635839522e-01,-7.114247468513983097e-02
-1.548797934172787549e-01,6.543762128905645792e-01,-4.841395652304436581e-01
4.389811039800944337e-01,4.307041188420549505e-01,5.841583803158520993e-01
-2.956157581332977125e-01,-1.039926059155411586e+00,-4.579166301626273472e-01
-1.885542432579349614e-01,-7.737061048908108196e-01,1.319253813852768187e-01
-3.739119488689564563e-01,4.228436714818724629e-01,-1.037663115677968095e+00
3.307421986561743243e-01,9.251667747425240673e-01,-1.755166453399612247e-01
1.287657244734480566e-01,-4.731821400364741304e-01,1.041898170962560988e+00
4.143342905092404216e-01,2.390950920553306103e-01,6.878757254424420209e-01
-1.327941603631077050e-01,-8.993836038421487711e-01,-4.803417409564918472e-01
9.371028292086027237e-03,1.023182509221998604e+00,7.571162549944313036e-02
2.047395475889737249e-01,2.122844296384627794e-01,8.239585567546274802e-01
-1.550730620759002143e-01,-8.473642362517479210e-02,-9.713351534239867968e-01
-4.370814600284909091e-01,-9.143964111097435676e-01,-6.533781146387875882e-01
-9.286779826054737674e-02,3.462395885896774050e-01,-7.444028062726080197e-01
3.614470574424905047e-01,1.046713219700317277e+00,-2.018050392246150456e-03
2.563662964319163851e-01,-5.358899223927062749e-01,1.042876215686725061e+00
-5.071617085430204508e-01,-7.956939951475344719e-01,-3.535256716934617738e-01
3.029668233925250642e-01,-6.537940939911224270e-01,6.009105013307901588e-01
4.206745502772856748e-01,7.249405086183082769e-01,2.930615934428937308e-01
1.726296549960437687e-01,1.155747182354146307e+00,-2.239840429475139783e-01
-3.769023938225038450e-01,-1.076308346998171295e-01,-7.268136055375138405e-01
-4.073482459873225547e-01,-1.022186776485962012e+00,-5.125607483318020963e-01
1.705372550972810985e-01,1.120825098199296432e+00,2.412467365165821276e-01
-1.115927498066426188e-01,-8.946400836265020473e-01,-3.750739755083252747e-01
-1.530956383163599999e-01,-1.078849122578499520e+00,-2.948263613677402639e-01
4.988118398148070898e-01,9.160189113233266900e-01,4.284445667531535107e-01
-4.102042559016464973e-01,-6.412207131534135296e-02,-7.354657013196498339e-01
1.348257893678450337e-01,-5.339645377791650827e-01,5.832240109253452598e-01
8.327716966914182339e-02,-4.270128380450237127e-01,7.273787232035405781e-01
-4.757145631564193011e-01,-8.514118784753005320e-01,-2.578915764929010646e-01
1.788929456750752434e-01,8.130157770172578013e-01,-5.766958699871408411e-01
-3.288200763212597022e-01,7.383429620774636382e-01,-6.856828309868172600e-01
-2.363242254218735627e-01,-1.152785580820181011e+00,-1.458293658413581106e-01
-3.204143188142121179e-01,6.282009365496687980e-01,-8.892021498018835013e-01
-2.463014535820500783e-01,-2.032619408033425612e-01,-7.384499317511593608e-01
8.000597213418715603e-02,1.100392065469806280e+00,-4.822882973697032449e-01
-2.941875442314321187e-01,-1.166274588624809816e+00,-2.126420525058807590e-03
3.791197997519615281e-01,1.435174578695926940e-02,1.124385667539355094e+00
2.481884245755754670e-01,-5.141718024156840539e-01,1.070371729912451553e+00
-3.616947214024424095e-01,-9.847510475729011059e-01,1.197770092869973879e-01
-4.513990464435758687e-01,-6.260993380787080453e-02,-1.128481715603914637e+00
1.936851682974229938e-01,6.742579773669146181e-01,7.649425269233595115e-01
-2.791123238016753327e-01,-4.702532702614658500e-01,-9.977317010572497313e-01
2.523564534039544893e-02,1.017067020655560539e+00,1.426318307199891111e-01
-3.444774128618831588e-01,1.818739975890410199e-01,-7.547070429699281879e-01
1.335290931638918321e-01,9.414402046046769224e-01,4.501344768103819338e-01
-6.225201012732883843e-02,5.557826422407150524e-01,-9.596937858102331242e-01
6.721242501588690910e-02,1.038237407110388144e+00,2.566100688374338135e-01
1.728081078742291221e-01,7.977566377436481337e-01,-2.589441952140565939e-01
2.719048704645825598e-01,-3.275807360774328214e-01,1.126703714429651670e+00
-1.147710977475270705e-01,-7.831980368817711424e-01,6.200856136319163880e-01
3.949541579871547192e-01,1.059551820818920520e+00,1.725220937197681492e-01
-4.278821123373814372e-01,4.295328695731601143e-01,-9.563494917844158616e-01
5.143736006701015162e-01,8.264319386842944315e-01,4.290173052605569803e-01
-2.199369559324152179e-01,-3.010942970414717257e-01,-7.466784255300079609e-01
-3.746040234020883153e-01,-6.520464617401157126e-01,-9.111331137540312763e-01
-1.148332054803069373e-02,8.236239857460776470e-01,-1.784051348972408857e-01
1.071222580008443642e-01,-6.699841017718880520e-01,9.616557462280426183e-01
-3.901860801541263135e-01,3.283060014549725458e-02,-7.470675728455091757e-01
-2.808868065093652056e-01,-6.895435480906374481e-01,-2.967774079022833522e-01
3.307850110305472491e-01,-3.069014223119932994e-01,7.196219551997085073e-01
3.622462617780480287e-01,9.377364296999315396e-01,6.591853252222981130e-01
4.049295512412657838e-01,9.147474701665381236e-01,2.502671907968565673e-02
-2.910234324413292772e-01,-8.163771271341833113e-01,5.177516896483271014e-02
-1.986738025635486626e-01,-7.995948285980258863e-01,-6.853710372015466845e-01
3.086229981430687469e-02,-1.028707012540481580e+00,-6.982966046088759284e-04
-1.462568335298189692e-01,-7.507669740106753808e-01,4.645141137269767628e-01
-3.251861951422145292e-01,-1.024389524795861872e+00,-4.838732262757558522e-01
-3.614772981029959475e-01,-8.850172318638603874e-01,3.961360966783551707e-02
-5.576320757952221152e-01,-6.504256091353195490e-01,-6.842820524832700091e-01
-5.896081066863183978e-02,1.006456979604276825e+00,-1.204325746538813663e-01
-2.332940598752617500e-01,-1.137128730792261511e+00,1.880855079058456059e-01
3.357138169719542931e-01,7.977324811205687149e-01,8.288906772219147012e-02
-4.085844799564972846e-02,-6.299864223138313957e-01,5.831389622254300464e-01
1.590632898320069877e-01,7.103983566385185799e-01,6.367143512116486548e-01
5.002542629245553263e-01,-2.470852755394265521e-01,9.110922504285930978e-01
5.408621273236035032e-01,8.083570002627200532e-03,9.817859547137306464e-01
-1.648314866593756367e-01,-7.819493823983157954e-01,3.505491589909848216e-01
-4.401705245139789779e-01,-3.923500706804052274e-01,-6.173047498059551774e-01
-1.851958282518882393e-01,3.130622737104271081e-01,-7.158498534087855969e-01
2.187334330768857527e-01,1.142110604012744668e+00,2.728331178204868590e-01
-4.395893677351245810e-01,-6.556181798485494205e-01,-4.074515201024228039e-01
-7.478395944294274900e-02,9.787433720727762854e-01,-7.073713496815890733e-02
-5.470872189025268728e-01,-7.387882948937314342e-01,-5.714386743036667937e-01
5.356916249755976356e-01,-4.712205840069968316e-02,9.984262021214294069e-01
5.593462978035820266e-01,2.494481127849002278e-01,9.856584392694119900e-01
-3.792007499394068337e-01,-1.053637881009990895e+00,-3.858404178453166411e-01
2.694460934784592698e-01,8.786281532115030046e-01,-2.859384360190580510e-01
-3.604964781173952137e-01,5.211018247875027765e-01,-7.586511157075179757e-01
4.070574802025808681e-01,-1.553857575040374361e-01,1.095877905050162582e+00
1.213266431471598204e-02,-4.273864845632005527e-01,8.498925363497915608e-01
-5.306570358307117763e-01,-8.519682304711637677e-01,-5.118995262802509272e-01
5.078293068188234338e-01,9.389990723929834138e-01,3.627878858460683031e-01
-1.009177285197553758e-01,-8.978141040364914227e-01,-3.820110305384791238e-01
2.795501402876363617e-01,-7.568424571938432432e-01,8.537681826538068286e-01
-7.605831239064902993e-02,-9.293190255420042956e-01,-2.803705125749527682e-01
1.850328177822814224e-01,7.830948109200647211e-01,-1.113424732527693722e-01
-1.341178297544080023e-01,6.942528443109680092e-01,-4.445644740397356465e-01
1.928329080523744632e-01,8.013746300542096135e-01,-2.405302683905614913e-01
-3.452382264071696683e-01,-1.382685940653556773e-02,-7.350055841547201707e-01
-2.973283693562188135e-01,6.991239007460355037e-02,-7.734514091495066079e-01
1.659051189139343629e-01,8.365771932050406479e-01,6.423902076583922760e-01
-1.507664443476079419e-01,7.547837325915752738e-01,-3.990351155072195954e-01
3.894662846349264407e-01,9.361939721187929608e-01,6.264809397797690416e-01
3.311278055402021581e-01,1.007943966921495127e+00,-1.461892891018327922e-01
-3.136639708757066880e-01,-1.109774765674945929e+00,8.855917591112623388e-02
-8.709228063455393132e-02,1.083671170003264184e+00,-4.035352342867984388e-01
8.251023319549741220e-02,-7.121979592202051235e-01,4.223657068869337006e-01
-7.420528983450164207e-02,-7.469260356954178226e-01,2.592888152931562273e-01
3.783488936854644824e-01,-6.595862634410694092e-01,8.401053537139209215e-01
-3.701306156313345919e-01,5.616484230890163298e-02,-7.439714897017559725e-01
5.108624579504753571e-01,8.552255879460936017e-01,4.988919009209598077e-01
1.831930715667220433e-01,1.200497971214120829e+00,-9.610788970318671909e-02
-4.620694025379370462e-01,-4.611072041592283455e-01,-5.702343708853635507e-01
2.541333082729829163e-01,7.605366007619179802e-01,2.349128021590588811e-01
5.085340382988354779e-01,9.037366390979482134e-01,3.986783012502796986e-01
6.096366867159948993e-02,-7.967093452915804397e-01,8.823761423243587920e-01
-2.862991708736780661e-01,7.269224918656062018e-01,-8.796376970161986497e-01
1.475557655504299570e-01,7.357419990338528448e-01,-5.224633621586159959e-01
3.001948109046521096e-01,-4.262729417347413396e-01,1.094406211265373630e+00
5.416380761745601680e-01,8.011171767638857188e-01,6.225514989428567736e-01
1.577695200659573471e-01,7.654122004271348700e-01,-4.460705891737296036e-01
1.002530790067096833e-01,-1.442981682599901450e-01,8.802182005525557296e-01
-4.180253010063278984e-01,-1.049668759110602423e+00,-2.981745217012775617e-01
-1.323467422009764749e-01,1.275510825055071740e-01,-1.026071586805917368e+00
-8.561448098864920522e-04,1.034433742092640607e+00,3.117304443557201293e-02
-9.258429242957258443e-02,1.388512804047135896e-01,-9.335313326334446771e-01
5.493051328729221527e-01,6.895034310659764465e-01,6.842470979104842144e-01
3.581415350296773825e-01,-4.895882862089755427e-01,1.007639496233822429e+00
3.722744214554930542e-01,4.267272295257359405e-01,6.003758639818173037e-01
3.045631194142124978e-02,-3.590789279342169737e-01,8.454244737659124542e-01
1.798179401534152344e-01,-4.869094587329577117e-01,6.047354868911531955e-01
3.641416000695698041e-01,-6.103128787324541005e-01,8.809073900075301555e-01
-2.170237182508912843e-01,-5.344379899336827895e-03,-1.094214024534236884e+00
3.099930052994842034e-01,1.188404325427191571e-01,7.476879976578230114e-01
2.697486344685671167e-01,7.552007645738147978e-01,8.108204507026331442e-02
1.706278305746551649e-01,8.515922395460605310e-02,8.211251326235503578e-01
1.838756219740254882e-01,-6.580861725045270560e-01,5.016426157905728989e-01
1.112124269920118647e-01,7.432165145495175373e-01,-4.138881843477859590e-01
-1.457410337899495978e-01,3.299207933485591160e-01,-7.168486433015593962e-01
-8.708496888657911439e-02,-9.319079200131544782e-01,6.982815783889569916e-01
2.531240780607696417e-02,5.726012450202393467e-01,-8.345887266866373055e-01
5.006337231391452258e-01,-4.765894300612055767e-02,1.055448858971336223e+00
5.734024163434270349e-02,1.161955651590200311e+00,-1.649645760201920164e-01
3.843116596900751636e-02,-6.533889552436953352e-01,4.372964206729002545e-01
2.889039107140501383e-01,-8.271079210863079290e-01,6.512045228932352714e-01
-5.325994185289235627e-01,-1.484005831037291945e-01,-1.019734395239339619e+00
-2.380928122960626267e-02,9.608832477660859128e-01,-2.449775432854986446e-02
-2.684329000806038104e-02,5.606943649102854588e-01,-9.253365053925107775e-01
-5.484674755117838751e-01,-2.110552446682020800e-01,-8.819889012557043939e-01
4.501663726616426664e-01,-2.723702261198829855e-01,1.038129032793345452e+00
1.688709845996564651e-01,8.775964548189774117e-01,5.533294415182178350e-01
3.867600127572193847e-01,2.764867511320349691e-01,6.649292896487193349e-01
1.692602352063428961e-01,7.037368598194988500e-01,4.680017536742051565e-01
2.814305552867317206e-01,-3.256886727845416107e-01,1.103562494498627755e+00
-2.273717905938284212e-01,8.737790625503938369e-01,-7.133590846711709288e-01
2.288511448657502834e-01,7.957563483858837161e-01,-3.523346111442039741e-02
3.892249740423928683e-01,-3.741687372987597682e-01,7.865600588755764511e-01
-1.156748379320047260e-01,-7.968883545596625595e-01,-3.247552881713126616e-01
3.129436194081214873e-01,1.151697113775238313e+00,3.016675241978815092e-01
-2.968555203902238926e-01,-6.178835358521013177e-01,-3.807376551771683437e-01
-8.187407597384148417e-02,5.519195336986563172e-01,-1.003384295381198665e+00
-1.124919748868354052e-01,9.064383145383717588e-01,-2.879028678860467982e-01
-6.303742732903847013e-02,-6.064300257570987007e-01,7.675609860398046047e-01
-9.726973791354373566e-02,-8.196105258581629638e-01,-3.251565172589173103e-01
-6.971377597230458967e-02,-1.065523141154265607e+00,-1.567595793555695560e-01
3.544734172043222387e-01,-6.249034937066013651e-01,7.528282811384666706e-01
-2.824610472456763610e-02,6.160030040704701504e-01,-4.965252848072098102e-01
-2.917341521161231910e-01,-6.843541571364397669e-01,-2.891924163344529175e-01
1.221949059126236775e-01,-1.034874559594092913e+00,3.592308137364069731e-01
-8.179429967546845981e-02,-1.056462859762993478e+00,-2.291994233446175422e-01
-6.327365568718312794e-02,6.260697411190472295e-01,-4.926277527102447817e-01
1.168014345801326320e-01,-8.589052895385591579e-01,2.465900363417326824e-01
-4.713920802029677309e-02,6.138426480194427715e-01,-5.450595493859834439e-01
-2.438257895673625053e-01,-7.765892026041010254e-01,7.861091682565320843e-03
2.748588029937424349e-01,-5.308927801339902164e-01,1.041876630698901574e+00
-4.121854780151631113e-03,1.145721720926296205e+00,-1.786877660528714273e-01
2.107153338632246353e-02,1.071858904111576249e+00,1.005747878028060011e-01
-2.237613538676563596e-01,-4.786619135510543632e-01,-6.779537702924575138e-01
1.984865225052756255e-01,1.112245808522753787e+00,3.387059368405342941e-01
-4.285649186806669841e-01,-2.585358950992023841e-01,-1.072922114372762969e+00
-3.517405838987096578e-01,-7.093967817528102904e-01,-2.760048691511471919e-01
4.977977736449712420e-01,7.757928931364187486e-01,4.408641104577943337e-01
9.841407819726366579e-02,-3.709522598320290632e-01,1.037940211715436600e+00
-4.934144712647982600e-01,-7.770823371355516374e-01,-4.006005451858825062e-01
-5.619781332063634727e-01,-5.070556753661383809e-01,-6.639546942529325202e-01
8.042443194250584182e-02,1.070357594990268169e+00,2.052862943965009512e-01
3.518711873383151278e-02,-1.013511642072930208e+00,3.757265115929154381e-02
-3.378929283188214505e-01,-2.020067921513988840e-01,-7.134528707743043041e-01
5.368611256161729406e-01,2.298912309137902399e-01,1.028357372702993766e+00
4.943339575968120903e-01,8.751859808966008236e-01,5.420832322677308079e-01
-1.898992556241281549e-01,1.447294276155839110e-01,-1.100513232370176731e+00
3.473769501411125837e-01,7.497817696606030868e-02,1.148523468981081264e+00
-7.832542388881333362e-02,8.822890256906541495e-01,-1.781770792318932428e-01
3.493418234889849039e-01,9.522021454104040439e-01,-1.592060798621313389e-01
1.149583161675289331e-02,1.103803330821734763e+00,1.012964029485344253e-02
4.161192739638491789e-01,-2.434191808947808733e-01,7.610406611337295901e-01
-7.572474339056821380e-02,-8.033457715041711911e-01,5.382520483021620977e-02
-4.135955745785226956e-01,1.459881768636766830e-01,-1.122428550191034935e+00
1.611676206620688001e-01,-3.097776990565123678e-01,7.238083737422337238e-01
4.859211157115316260e-01,9.326189190566027687e-01,4.632394375967470168e-01
3.514394654099878973e-02,-5.370114859845177557e-01,6.034712249766760461e-01
1.060840461939427243e-01,8.482203279575757371e-01,4.160726126718296003e-01
-1.109575364413814685e-01,-7.523533291978792281e-01,6.603281404516729847e-01
-3.490886049109299949e-02,-9.489764102407587387e-01,-1.667235282470041213e-01
-8.494921104239452903e-03,6.678879389873857431e-01,-4.077927041316499746e-01
2.609338400162742877e-01,-6.281103465368670369e-02,7.447852181997326459e-01
2.240095091861523946e-01,1.133984518235125055e-01,7.870682205549510702e-01
3.477510095165058934e-01,1.035542918155643699e+00,-1.071164795139909476e-01
1.233696163965015830e-01,9.036534611145524698e-01,4.606164310485603153e-01
2.575138928047087106e-01,9.428415944373053081e-01,6.171843695017134035e-01
1.414288715053503009e-01,-6.795743710832472528e-01,4.643524061147796256e-01
-9.169769318341609507e-03,1.127822263405984904e+00,-3.456784389219502707e-01
4.768447970703694194e-01,1.836536995584426291e-01,1.075394144249398387e+00
-1.792652575720203242e-02,-5.375946853512502122e-01,8.084347698197719145e-01
-3.323111539841480666e-01,-9.031023150033065106e-01,1.443800133419829157e-01
-2.230110768253502074e-01,-4.924249321875290852e-01,-6.544533521241479024e-01
3.864573518521079998e-01,9.692982271669130512e-01,-7.764893834487336666e-02
1.776417489259208560e-01,6.282381530330031216e-01,5.418122284180280079e-01
5.623827735546710338e-01,5.392678529282455280e-01,8.677279555042616277e-01
