-3.320404477421360356e-01,-4.798112283859866656e-01,-5.595658665976447343e-01
-6.070952431069560618e-01,-4.896343303487295517e-01,-5.656944468655152880e-01
2.759085833060841986e-01,6.929881988374204660e-01,4.887760983594490183e-01
5.692093865351643966e-01,4.962418609305409567e-01,2.860066591739282016e-01
-6.500467421229225717e-01,-1.977204294574585464e-01,7.929840143235612482e-01
9.913645304336838882e-01,3.590897675897585239e-01,-5.393393261550253337e-01
-1.496470195784600776e-01,6.351098026639023786e-01,7.670641301893975639e-01
3.722574121204429431e-01,-8.704059328867298773e-02,-7.014370798916067518e-01
-1.016465207220497380e+00,-5.509828747389020620e-01,3.084275990041075999e-01
-9.424200905054018473e-02,-5.222512677040698215e-01,-6.192746399199677843e-01
-1.017756621275537787e+00,-2.565744390671282349e-01,5.465659855988811433e-01
-1.811987311034074788e-01,2.195148252038313375e-01,9.931453281893671825e-01
3.421996357706590941e-01,-5.700986187243270997e-01,-8.737296993710734760e-01
7.162225695084707411e-01,-1.952103240190015410e-01,-9.081506770841321075e-01
-5.401451533420613682e-01,-7.079168789346472757e-01,-1.967868799747153896e-01
-7.067911184822708859e-02,4.296921264574019017e-01,6.814453617886991887e-01
-9.371150265321060990e-01,-1.612862537602075541e-01,7.427343898514288112e-01
5.154967596813573305e-01,-4.358159594129228931e-01,-8.205430735257649433e-01
9.801236012619453097e-01,6.062603571811927550e-01,1.976516016625124994e-01
1.739281659596567942e-01,-3.203050390743635845e-01,-7.167199244149475845e-01
8.435624656822038325e-01,3.476742292199317408e-01,-6.805347693421480715e-01
-7.946336905453225130e-01,-4.536255881169777848e-01,4.972327325366722728e-01
-1.036228450828181380e+00,-2.492347565868954229e-01,5.143614350633650689e-01
-3.962081867500861776e-01,4.953067163589597310e-02,7.848200359628632050e-01
8.247056514605463073e-01,2.862341831642049583e-01,-7.317746604104085062e-01
-1.514576839357242577e-01,6.413927399363040793e-01,9.596944175956325651e-01
-6.840195988491103440e-01,-8.019493933608278224e-01,-1.432308722361985698e-01
6.394484649353071593e-01,5.943812331352340550e-01,-1.223966421173124444e-02
1.002796116054598841e+00,1.466222976193750083e-01,-5.401659990119483945e-01
3.947593223437660392e-01,7.137741259019585449e-01,8.632493213040285385e-01
9.858472148615271546e-01,6.347489131296851772e-01,-1.376116762837218954e-01
8.892926823525689750e-01,5.963892358602012056e-01,-3.551160348007642020e-01
6.138894397599702762e-02,-5.622089885349622618e-01,-1.052322981590431583e+00
-1.833282484667289880e-01,-5.252647761971783735e-01,-9.837663878667119999e-01
6.869447073491184996e-01,4.439310383063921339e-01,-1.789597931939514996e-01
1.959912820060767669e-01,-1.722385729692509637e-01,-9.115706654731529079e-01
7.320293595698279532e-01,2.840823978012762541e-01,-1.370660758381384570e-01
-4.220561093757749238e-01,-8.383117077098781733e-01,-5.310474060872273361e-01
3.467863554727652897e-02,-6.740011679584209103e-01,-6.876355030435695737e-01
3.791616821444145358e-01,-5.322697645092355767e-01,-8.946455246729162480e-01
-5.389525608656429156e-01,2.529639847549805271e-03,6.227941214302558093e-01
-3.483743683655555201e-01,-5.945259289913302769e-01,-9.213857485297819450e-01
-7.511535211016328040e-01,-3.588703029808361644e-01,9.178189120478906157e-03
-7.416836577075662795e-01,2.885477273908830867e-02,4.979259037259828324e-01
9.017157301746392406e-01,4.437660831062034683e-01,2.314702601146553518e-01
1.076305114655871753e+00,3.521019967227922431e-01,-2.059944031058099922e-01
-2.557128413928519972e-01,-6.213861203530386401e-01,-5.141861280209958363e-01
6.268113133539965354e-01,8.554518913892764642e-01,3.355188132524308808e-01
6.293578228194739443e-01,6.514357630374588704e-01,3.274957477214812673e-02
-4.148262153196476398e-01,1.229828905964320540e-01,1.038240077338201672e+00
-1.778892711098333445e-03,-7.004745211514483705e-01,-7.021285459921837724e-01
-4.703446755876107832e-01,1.568267063228312164e-01,6.278202537424676377e-01
-6.321330858737680414e-01,-8.206912290961446699e-01,-2.142052421006814256e-01
-6.761887478256457529e-01,2.685475544772776835e-01,7.176254286926202486e-01
9.669333227332922442e-01,6.122164225588834219e-01,2.953093128293949876e-01
-5.570673781422522675e-01,-4.734949767907467022e-01,-5.485804200802525399e-01
-7.364725929725168818e-01,-3.109043558486592196e-01,7.166566872316111336e-01
7.791682389835740130e-01,6.927574867225878841e-02,-3.937289877690801632e-01
-5.344208119793906198e-01,-1.145133764278550431e-01,7.699786233026874038e-01
6.407281248573768462e-01,8.420421633179691057e-01,5.365473313447055581e-01
6.471550415904074871e-01,3.010576896510970268e-01,-5.164577534188167229e-01
-1.016430284708602194e+00,-2.035554187255504410e-01,5.921374587383537724e-01
-3.156668785737198335e-01,-4.682150813633917941e-01,-5.911481645069432966e-01
6.629945531914094303e-01,3.170954955043247536e-01,-4.117486947223515936e-01
2.342318153542130577e-01,8.105015741114148797e-01,7.297299490515009035e-01
-9.853457020641930297e-01,-8.801962026033124942e-02,4.866981193988311749e-01
-6.738944185657973485e-01,-5.366928117003905152e-01,1.532867877234201925e-01
-2.515967334732074345e-01,5.910125723118356822e-01,9.753189158476477383e-01
7.982666261274355968e-01,7.984217256376944238e-01,1.518457822829480941e-01
1.628903450345345616e-01,-5.921086691638220989e-01,-7.449662483807595326e-01
6.039520252670390610e-01,-1.817870788101863533e-01,-1.016282251860292307e+00
8.269860329042683089e-02,5.200587834112108121e-01,1.054847287468753114e+00
5.246214222431814234e-01,-3.540467583720630779e-02,-9.750140072538368008e-01
-7.867060498257465451e-01,-2.480617093292461217e-01,7.929153710731581262e-01
-1.558980223130825848e-01,-6.159204458953073669e-01,-1.008514092807655249e+00
9.734864839668768699e-01,7.019390826283521401e-01,9.598758209831478871e-02
2.680128369421116985e-01,-2.255552774040016362e-01,-7.289423829646051178e-01
7.226428105248897671e-01,3.885865947315406133e-01,5.301321908030938446e-02
7.127890279639750304e-01,2.910871563037134013e-01,-7.372118763087779358e-01
4.784518228824625186e-01,6.034585815153007023e-03,-6.490959786372012541e-01
-2.952852799949610141e-01,-4.582406707698837289e-01,-5.866529878601854930e-01
7.004011134229586322e-01,2.610918126220239666e-01,-3.318862055431520686e-01
5.793307288417856027e-01,1.674984096874591044e-01,-7.528694638797081007e-01
3.885944550892861393e-01,-3.521855731124796107e-01,-6.915152800485343532e-01
8.885774970420577956e-01,3.849583724843781418e-01,-6.288950588041529732e-01
-2.953244170220011289e-01,-4.995960295902049930e-01,-5.728256250764420798e-01
6.839700634289401782e-01,5.888218844597467583e-02,-9.130755796465385155e-01
-1.497139659260381672e-01,-4.000795101275416155e-01,-9.458180938625162515e-01
-1.872893969695072214e-01,-4.609984543813234192e-01,-6.580960067180354756e-01
-8.480252367404894631e-01,-7.741324031540289252e-02,4.085069171710519198e-01
-7.458444464782734151e-01,-8.307341692611495132e-01,-2.591036242633928399e-01
7.618087481666626637e-01,6.646971785149455858e-01,-1.747148551803991701e-01
6.338088792915090863e-01,6.347070147617333014e-01,1.841667653344921871e-02
-1.026591788899926971e+00,-5.370297895232782892e-01,-1.158168013466501778e-01
6.099691910053927080e-01,8.503004778285105925e-01,3.791462406439667920e-01
-8.901478941895125674e-01,-7.053720405199498389e-01,-3.750395910034717839e-01
1.088785880873465312e-01,-3.940240518487820864e-01,-1.087490383625469459e+00
9.443528410545405372e-01,6.818373567792469503e-01,4.477705823685135256e-02
-4.579000467838080790e-01,2.706420663769116830e-01,1.057613766478554762e+00
-3.536136882056152841e-01,-8.380688743378719163e-01,-7.139620997537808877e-01
1.072082087451280863e+00,4.217174693875473945e-01,-2.240684252886073480e-01
7.801030766067911237e-01,-1.668539898583366321e-01,-6.685123258652874156e-01
7.821003372223440664e-01,-1.366904138237608479e-01,-8.954338896948373927e-01
8.317461217254500383e-01,-1.549420057480071500e-01,-6.754417673289341284e-01
-4.874521805952169995e-01,-7.617131703024286882e-01,-2.872739763320846240e-01
-4.322476219347683168e-02,-6.409030829414515962e-01,-6.437065092682956458e-01
-8.495492771375611207e-01,1.081477537107575909e-01,5.990218771119600882e-01
1.005459555994300036e+00,1.520077655842412279e-01,-5.974153957909127399e-01
5.662977732641091833e-02,-6.881873206862694214e-01,-8.722287020345661501e-01
3.060314014105250391e-01,-1.058012951422087206e-01,-8.519596731156288127e-01
6.359225116681030965e-01,-2.733089669708991809e-01,-6.923813360035647735e-01
4.163016624231982710e-01,4.516429936982999105e-01,7.514543511481007743e-01
8.442275375606280718e-01,6.388061076884631317e-01,4.531152110840393488e-01
-1.229628051321782767e-01,-4.870278881481627242e-01,-6.193309752011783020e-01
-9.909514968451214045e-01,-6.314265249680802716e-01,1.734205881451161835e-01
-2.509184612168623429e-01,4.233638862458909968e-01,6.811030359388515754e-01
-4.545140658247885379e-01,4.902421765639692480e-02,6.580091880426336415e-01
-2.815601663173371572e-01,-4.402554259026459915e-01,-6.127685631326227345e-01
6.713951694589701535e-01,8.589157869742010398e-02,-4.351511032934227696e-01
-8.249869641003874932e-02,6.272858012659987548e-01,1.004434803895052131e+00
-7.767082594940889484e-01,-3.464070883274329021e-02,4.324578897207823069e-01
3.852132370086068236e-01,-5.315394797305856844e-01,-9.355990950836985398e-01
7.109991318730025656e-01,4.809609580476657542e-01,-3.433035696234432721e-01
-2.242336901943920435e-01,-6.511985875061585549e-01,-5.467260981128602149e-01
-9.223977056493603000e-01,-1.369856876036281701e-01,7.779711710301022709e-01
7.304454892094497387e-01,7.634333040040481855e-01,4.912879617861946185e-02
9.606140698411590462e-01,5.022090569531900694e-02,-6.910221015018894741e-01
1.573707665123333932e-01,-5.892282564752300278e-01,-1.030704482622634144e+00
5.872525300385494917e-01,7.988773185276495381e-01,2.854383193178093858e-01
-2.739016815232975244e-01,-4.500637877072266591e-01,-6.588404897822108808e-01
-5.424191580399665424e-01,-4.768573585772413748e-01,-4.270025470929759703e-01
-6.591542333095192774e-01,-4.519011254594286209e-01,-2.979903296556397629e-01
5.553474293821599739e-01,9.796937782002489159e-02,-8.424982925851479676e-01
7.508128663351838483e-01,4.026924595916437366e-01,1.008082042405338830e-01
9.554536666772207587e-01,1.214592027641935024e-01,-7.244590905924248592e-01
-1.158747678725857988e-01,-5.139495722305919001e-01,-1.020928379434568489e+00
-7.219579141487215690e-01,-6.583258867809139714e-01,8.083742538647444020e-02
5.811042210515410256e-01,4.229067686371289908e-02,-5.531588514715359839e-01
1.083807703472715600e+00,4.673515878331104267e-01,-2.161930848671595740e-01
5.162839811977170124e-01,-2.405155352621456480e-02,-5.978619047291000577e-01
6.239975627350295984e-01,4.653248791630954506e-01,4.429297245848105580e-01
2.204014506323650202e-01,4.336745009693276920e-01,8.846737656075795986e-01
-5.785089687042028750e-01,-8.156127570082661871e-01,-3.196484438672439476e-01
-6.730654050352915529e-01,-7.922915059510182711e-01,-1.702509986756431948e-01
2.228515782880642962e-02,-4.385813424767068258e-01,-1.042494684435967045e+00
-9.853906479836424537e-02,2.695512900670680723e-01,9.113932880280469773e-01
-7.801364203222946880e-01,-4.182152663518193259e-01,5.518163030318075091e-01
5.901114426312663586e-01,5.989784200620817955e-01,7.866452230009525481e-02
6.230164064506228394e-01,5.322739730931491664e-01,6.592591253064914447e-01
2.328376871516711633e-01,-1.456849370103489860e-01,-8.819905841352129183e-01
-1.213661270960528088e-01,-7.667896004324110670e-01,-8.808493243964995445e-01
6.499013694333544144e-01,2.626703039268843409e-01,-7.210152163364988986e-01
-6.355228088901357930e-01,-1.321890141633602356e-01,8.676669125924227899e-01
-1.052897310611800696e+00,-3.998402855756308383e-01,3.942983587580285998e-01
5.441748865787138234e-01,4.615215343791048697e-01,5.188958993815340204e-01
-6.908975578444219723e-01,-3.185431834166738141e-01,1.976242164498914211e-01
-7.764136464534204807e-01,-3.447893719670503399e-01,2.255302640729764645e-03
-7.781605963124544889e-01,-2.996319390299489460e-01,7.107630688310195843e-01
8.391090805531418173e-01,7.876802629480428308e-01,2.610727997611003715e-01
1.033922970282091569e+00,5.330172430121097316e-01,4.587424859935320537e-02
-2.946860800073419773e-01,-7.029445478035568629e-01,-4.866439005513309990e-01
1.330769420274703074e-01,3.689508901258277129e-01,7.419795101038799690e-01
-3.513369386422023066e-02,-4.752507976588961069e-01,-6.393905377771885723e-01
-5.965897666312964809e-01,-4.670974228957615604e-01,-4.664882919155927121e-01
-5.612869173617265339e-01,3.951288952158080736e-01,9.291114590593112510e-01
-1.300659654847427238e-01,4.033465006874947800e-01,1.098318764454464747e+00
-1.008392710301581480e-01,2.547561640223924284e-01,7.766981047939611749e-01
9.816877935500832597e-02,-4.741135382568629764e-01,-6.843178062169679166e-01
7.017693745723903032e-01,-1.552005612734210782e-01,-9.783753156309801247e-01
9.495236281909742448e-01,5.903263949594250715e-01,-3.434032586816580523e-01
-5.247024349257667364e-01,-8.287975294997769193e-01,-6.853241308800575027e-01
4.380776631562274814e-01,-9.133845024696596315e-02,-6.685039833213782812e-01
-3.179119530593955689e-01,-6.277381994391734166e-01,-4.732920366875540408e-01
2.179888216712257409e-01,4.422987694617731003e-01,6.411784174770932543e-01
2.495669706534089927e-01,5.388859471698146386e-01,5.383349539731198119e-01
-6.317650163017553000e-01,7.275321441136943122e-04,5.405222928387817261e-01
-6.702272442555828880e-02,-6.555808758816916715e-01,-1.012871369869923655e+00
2.863190418313727587e-02,-7.353176921687410994e-01,-8.185715063139518133e-01
6.299180652456555229e-01,-2.382778671789573532e-01,-9.710225309091873314e-01
-9.814862418257060961e-01,-6.689448722689406157e-01,-2.086833222467300020e-01
5.684346495583415537e-01,5.984730818393700913e-01,1.532818733053062377e-01
4.831130692467549004e-01,-1.809166867358640018e-01,-6.358638144844575013e-01
2.022957869619547155e-01,-1.914904925068053043e-01,-9.199210330998246476e-01
4.066930968070773568e-03,7.261415009983051005e-01,9.215363490247344691e-01
-7.430571695365565388e-01,-7.793664598259067433e-02,8.930994424640966711e-01
8.326556541190314187e-01,4.874489869006440323e-01,3.690249542027972951e-01
-7.984626020789175049e-01,-7.309324955498569532e-01,-4.815776302558065214e-01
-7.260800134252388682e-01,-5.622342921216170186e-01,-5.762490297738829259e-01
-1.058822999577470503e+00,-3.855143759135051251e-01,4.081056629490834031e-01
-5.697496487893047301e-02,4.441971836493841530e-01,6.599495565289605903e-01
-7.416982186681831957e-01,-3.859111950118581658e-01,-1.616503029536291158e-01
9.194661434667471545e-01,1.992229215616553861e-01,-2.133954347745906088e-01
-9.911586499489559721e-01,-5.869324470946041261e-01,2.469407370210611741e-01
-8.818590445382424869e-01,-3.468083387840966703e-01,-4.054500917494621715e-02
8.103400267753901876e-01,7.645856900884206997e-01,4.512952970761486271e-01
-4.764381903720608102e-01,2.511336446705240699e-01,6.509955942830885078e-01
7.820370963637740536e-01,5.654237444103852317e-01,-3.189443112043839901e-01
6.088168222357316361e-01,1.772931377316914192e-01,-4.962766164453021323e-01
3.109336562219099376e-01,-5.313295786177646418e-01,-9.924836687815695724e-01
-8.214554586375915068e-01,-1.992360599520783815e-01,8.050981905955159057e-01
8.731078215437733381e-02,5.132515891665287988e-01,6.219485791169561129e-01
-2.261619930761877839e-01,5.875807652457423202e-01,7.537254781866959963e-01
9.288600574512342334e-01,5.127927967377885476e-01,2.587426183617013153e-01
-2.425608193611403507e-01,-6.437822985718310020e-01,-9.625292730770130811e-01
5.369883574864876552e-01,-4.240578551249273298e-01,-7.948642301414584610e-01
7.186355392798347008e-01,-1.441997425746243122e-01,-5.976802842551952599e-01
-6.999426265947542580e-01,-4.090504316536794360e-01,2.041194291916028913e-01
-6.911071059513242965e-01,-4.266936160524938404e-01,3.206215860456017031e-01
-4.575857438411418815e-02,5.395288162793744347e-01,6.529206323150451574e-01
9.884561635334221386e-01,6.697680369725136362e-01,1.419975839483854085e-01
-4.070918316459531949e-01,1.989370297613272942e-01,6.625601251983049833e-01
4.138166366272614805e-01,7.494929472845854868e-01,8.303451217872032109e-01
-7.653789718779284712e-01,-2.091229294937928529e-01,2.429930581015112001e-01
5.544386853401317428e-01,8.319141715132423176e-01,3.818503988778044755e-01
-2.414683668508623149e-01,-6.192607730458169479e-01,-5.014996561902999028e-01
1.607120240267597977e-01,-5.071617756302734259e-01,-1.103121278764409130e+00
-7.113035215587729665e-01,-4.898997319490208113e-01,3.352572127037424798e-01
6.304322575002598850e-01,9.633030604900334748e-02,-4.802916284795563651e-01
-7.096044933037615188e-01,-5.180230379280562625e-01,2.895342557375631953e-01
6.202871523425180778e-01,-1.893784348854586908e-01,-9.970262615038932852e-01
-1.819032664926922491e-03,5.538407347880425213e-01,1.051413745582808090e+00
-4.486907014465887356e-01,4.383944189981739403e-01,7.550307897584120909e-01
-9.985413673147273128e-01,-3.487362888387022797e-01,4.927791040859847566e-02
-6.805124768650636646e-01,-4.640255630654517849e-01,9.051870541679377102e-02
-1.608778063657308188e-01,-7.838983062369276889e-01,-6.822676056259224797e-01
-6.627338784699181584e-01,-2.273249016828507441e-01,3.838066455433233326e-01
-7.676808568202748706e-01,-6.040284066578118782e-01,-5.374535136895757237e-01
6.495698873865943801e-01,-2.815295578281992728e-02,-5.138401471599495229e-01
1.430250517689203305e-01,-5.569026353009388641e-01,-6.940985745138282814e-01
5.364977930652816696e-01,5.636437752195887496e-01,7.684213008423618207e-01
-9.591176734949428129e-01,-5.992162173706876427e-01,2.922798371864615552e-01
-5.709437151589500381e-01,1.847671019206162668e-01,6.383736680792572171e-01
5.033399459682950106e-01,4.946365787173308548e-01,3.957839320127142235e-01
7.623963874202450697e-01,6.871506576903969599e-01,5.567774072178091060e-01
1.245711138545941843e-01,-6.574686048765789881e-01,-7.737034778677587266e-01
6.061562308166468238e-01,-3.594740269619827733e-01,-8.387415051059792237e-01
1.025671265845718994e+00,2.104496564698560834e-01,-5.282921917506767651e-01
1.043423841621334613e+00,2.499216910531228408e-01,-5.219035194427023017e-01
1.278182599504837924e-01,6.301944166489114041e-01,6.042472284791993165e-01
-3.478673951646638757e-02,-3.133034633463474550e-01,-8.110172440861674881e-01
7.240229591446074586e-01,4.070349494581032394e-03,-4.633069431217358702e-01
-2.655749773461485996e-01,4.831304817440478794e-01,7.125338938566790903e-01
1.771407554931533623e-01,4.419114597393473676e-01,9.424738637668653718e-01
-3.392353985841756736e-01,-5.097167773280719683e-01,-5.272847945156632354e-01
6.338828871865798131e-01,1.086163898116786347e-01,-9.065608748409862416e-01
2.018250117261853327e-01,-2.825662723064001902e-01,-1.058556848730589195e+00
7.196390155128062904e-01,6.455314919543247987e-01,6.083607191338120668e-01
7.802709567571753935e-01,-1.521333367274563531e-01,-9.060962944598707214e-01
9.920443748374186965e-01,2.840783580202632663e-01,-1.401463034977016575e-01
4.817667213921078551e-01,3.308392753777782830e-02,-6.648201613542066291e-01
2.790425353027558564e-01,-5.291086044882946648e-01,-7.350843733097986998e-01
-8.738103027308408155e-01,-7.016523702596837442e-01,1.447356037438097542e-01
-9.571572328170142585e-01,-4.839603857456064445e-02,6.874573383491652256e-01
-6.046735251003991785e-01,-5.005471102482026424e-01,-1.328727862039299212e-01
-9.986935172522112270e-01,-6.849593345487385854e-01,1.088717798033977530e-01
7.474839028583918354e-01,3.660273798672324941e-01,4.648071918383572809e-02
7.911943262113607656e-02,-3.718346480576164570e-01,-6.929365275843799576e-01
-6.650310178738645661e-02,-4.165891608987482009e-01,-6.900858842155623840e-01
1.016885958706438720e+00,4.202417981046796536e-01,2.659510451029507491e-02
-5.929317577250157317e-02,-4.835491787112072282e-01,-6.511461148448687286e-01
-1.047962285160568552e+00,-3.037360682829627900e-01,4.746338678758651453e-01
4.149144124768314179e-01,8.519112965120646530e-01,6.072892206776629997e-01
-6.940921990584252299e-01,-7.920493326688371472e-01,-1.820427775681231208e-01
5.607322734602045999e-01,4.621427781145071578e-01,5.708605833907413052e-01
-2.500841693102341390e-01,1.502382648147108923e-01,8.368428568223517106e-01
1.034406957614916855e+00,2.214043344923879442e-01,-3.045506428207386262e-01
-4.116185687790789582e-02,-4.220913727248830072e-01,-6.680177549173830220e-01
-5.900218386552371630e-01,-5.984407835156745348e-01,-8.906706225027218038e-02
8.088825467191715912e-01,3.637594362826103156e-01,8.705353436811766321e-02
6.207215656894372532e-03,3.442065668409722834e-01,1.029638129869833385e+00
-5.223207219063122908e-01,-9.814226639562888266e-02,7.598570950668179780e-01
1.064297837835236127e+00,4.063755754247451724e-01,-2.162353706709250201e-01
9.347724291353048942e-01,3.185623256346534204e-01,-3.375263147799789643e-02
7.602814602916326825e-01,4.497842830503643863e-01,2.873082709836438098e-01
8.934852720202098864e-01,6.987315813581603807e-01,-9.305196345337347907e-02
-2.079016007149062095e-01,-5.439109882830952536e-01,-9.915827431733909014e-01
7.424297221840264749e-01,-4.415731680223905498e-02,-5.075687140411191400e-01
-2.740099152423038364e-01,3.169713924856116805e-01,1.074642147063594955e+00
6.829428918205500132e-01,2.766065084962905374e-01,-3.503681238003836240e-01
-1.067362265730555648e-01,-3.903423246328226459e-01,-9.606953509822571124e-01
6.969679986003840533e-01,2.199342712984147241e-01,-3.187715209293922602e-01
8.442397715992835394e-01,6.708988755024514195e-01,4.762911049460732960e-01
7.641434351300281369e-01,1.693178527182090235e-04,-4.739237193237692547e-01
-5.772021498865448352e-01,-7.926917861633444584e-01,-2.355408934657482189e-01
-8.581486528691432136e-01,-2.895781119842237850e-01,6.254202606109052209e-02
-4.305500464015875606e-01,2.333759209069881102e-01,1.069197531237276122e+00
-9.222096783878426240e-01,-2.674604903936096401e-01,7.017812145576883820e-01
-3.215888657377690141e-01,8.950923951817264801e-02,8.676948146774543513e-01
-7.094302623128044827e-01,-4.766400277462420343e-01,3.729079414026193473e-01
-1.368300090092273436e-01,-5.819449246985686219e-01,-6.070471587219574694e-01
3.372256533494202291e-01,-1.746770901352062977e-01,-1.032716503819454124e+00
-1.364598676879340833e-01,2.596262424392762891e-01,7.717015824029261895e-01
-7.952896015787034312e-01,-8.122355633795323993e-01,-4.129538426176180277e-01
9.859853267606815130e-01,1.358931581389934973e-01,-4.002346785311710065e-01
7.062757747584512691e-01,3.556489483886946523e-01,-5.670716718816565249e-01
-4.953172524721944359e-01,-6.898240890523346103e-01,-2.760210676685985742e-01
-5.932104346079628554e-01,1.439809229820457059e-01,5.877247466945958454e-01
-9.055608232781433564e-01,-3.316601199531516581e-02,7.581661989075006991e-01
6.332167336735523566e-01,4.583739371590623835e-01,1.783620391965735352e-01
2.859046279980295702e-01,8.334725054658643772e-01,7.562277439731029949e-01
-7.379503046397433152e-01,-4.351526367337519297e-01,-3.294791523558601720e-01
-5.046545095181087515e-01,-7.062086184136245892e-01,-2.347247224899563223e-01
-4.757625646231811167e-01,-6.723977279320216827e-01,-3.082226310762175570e-01
-5.708263165539690515e-02,-3.332732419081288477e-01,-8.174107150225558005e-01
4.702366443428421250e-02,7.067036490943331417e-01,6.355052837307729741e-01
-6.213616174678248116e-01,-7.721619243963812051e-01,-1.890517523626899232e-01
-4.878684006654582239e-01,4.548962805574978674e-01,8.368758862656490161e-01
-2.491535206279107406e-01,-8.380453139331774937e-01,-6.998129591824162610e-01
-1.041140705777018560e+00,-2.434543723175972563e-01,5.182003570682391924e-01
5.961695296010192102e-01,1.818490617739222659e-01,-5.759333777049134850e-01
2.019682507083909173e-01,4.022678256685972564e-01,7.155625217319728781e-01
-5.234159545487867410e-02,-7.115135722785645989e-01,-9.636718170756090052e-01
1.525912069293126061e-01,6.386526793639766275e-01,1.004491227264534325e+00
-6.782816413143625267e-01,-7.736210009416577549e-01,-1.259043745216525956e-01
-6.917666442857023368e-01,-7.910442191196679351e-01,-5.950583603673383903e-01
8.565837977651747925e-01,4.576536114917045261e-01,-5.469492934251836136e-01
6.312275254289954063e-01,4.580974042112864741e-01,4.038808744064489864e-01
-6.999839086452532000e-02,-7.592000688558115939e-01,-8.813289168023631381e-01
-4.088013239635440166e-01,-8.054319902167803580e-01,-4.400487517195368348e-01
-1.073331643661275203e+00,-3.827916033747506552e-01,2.118090829134417485e-01
-6.866333121115321125e-01,-7.707741463642313329e-02,4.324931853029126971e-01
-6.011854601662235398e-01,-6.171237009524645906e-02,5.156627798605452062e-01
-2.889414844954324990e-01,1.371244901041151765e-01,9.446680316727543714e-01
5.144909216313967582e-01,-4.607829453102657569e-01,-8.943765878902976141e-01
8.171299076164688646e-01,-1.662887878765531013e-01,-7.410577809346510225e-01
1.077428931889340857e+00,5.144590634669061746e-01,-2.456454445926939123e-01
-9.008901957891676249e-01,-7.341549817520305332e-01,-3.087742250639191055e-01
3.343179655838855735e-02,-6.219587435944419207e-01,-6.638585864832290406e-01
-6.283484797134213373e-01,-8.521595582245767853e-01,-5.379254466352805242e-01
-7.726092355989415406e-02,6.352314476263672960e-01,1.006142591859750413e+00
-1.053773340456302110e+00,-4.609455112179126623e-01,2.647217819142366757e-02
6.598336711131568277e-01,5.763031217990948196e-01,-1.093650077977298546e-01
-2.369384282757401317e-01,6.058746472785569992e-01,8.108972464999978369e-01
-1.033691838815999242e+00,-2.217628514313121912e-01,4.841725846730999261e-01
6.331471141652299517e-01,5.092703822173301198e-01,5.544750740119990251e-01
7.827746073730090792e-01,4.178969048863377389e-01,-5.854419704391958801e-01
-6.140793477245178877e-01,-5.332939739483448793e-01,-6.600233115508499226e-01
7.080010730099632887e-01,6.002730555600415130e-01,-1.683243988386450285e-01
1.144383460509549883e-03,3.193024876235445730e-01,7.867058494668732749e-01
2.172406417662797184e-01,-1.608147263664357340e-01,-9.486784082585399958e-01
-9.125605718566437430e-01,-1.292765459117151960e-01,7.609212825188306217e-01
-2.957100083257628298e-01,-7.330556533538875597e-01,-5.055951982051972715e-01
-9.446675309374295004e-01,-3.795790725205412386e-01,-4.381145675156723068e-02
-4.231281928884206844e-01,-4.585752384982997865e-01,-6.251490848445167003e-01
8.314308357495173718e-01,4.101612589975928702e-01,1.907799185980273426e-01
6.627090862788678205e-01,3.044254004950611159e-01,-5.520150459564953094e-01
-1.963442326644821989e-01,-4.947688733633256453e-01,-6.014425616076956027e-01
-1.246409862800304351e-02,-6.855334704300221071e-01,-9.641743522341506001e-01
-9.872349040359893468e-01,-1.264975123948241520e-01,6.617487511787027987e-01
5.997728952589564955e-01,7.403583362174902538e-01,1.877401741323245776e-01
-3.566482242090470156e-01,-4.994835836979296673e-01,-8.854835635600138977e-01
-2.730560841513844372e-01,-8.373164487302932057e-01,-7.143043446113478412e-01
5.642835522918810964e-01,4.757006533994591058e-01,6.184351628916618937e-01
-5.293857882097756651e-01,3.878782734413293021e-01,9.941624818181888923e-01
2.433347208352133750e-01,-3.092094663052966097e-01,-1.086287825513168048e+00
6.511315781157031024e-01,4.599418279417776256e-01,1.655089087768360848e-02
3.253396177484868534e-01,6.294273681755666594e-01,9.497619910319717862e-01
3.874409305140646964e-01,7.862860578177907067e-01,4.476627695870517010e-01
-6.004989925469655931e-01,-7.765592394293781009e-01,-1.864337122690513937e-01
1.896176710467644688e-01,5.907933744841056267e-01,5.687729031586832296e-01
7.015404639118583141e-01,4.241223758753124295e-01,8.950679412318431061e-02
6.036280446653714549e-01,2.211581874575678786e-01,-7.154405251885426198e-01
-6.149066508055019975e-01,2.146748260495935645e-02,5.609942137322936340e-01
1.381930284016309185e-01,5.333435100741668045e-01,5.959849777684803618e-01
-4.265882215072178130e-01,-7.315143756672909392e-01,-8.635909338870085827e-01
-1.675192573352679848e-01,6.360267970164508178e-01,9.547942571513682308e-01
2.448805561730306724e-01,4.285624214036841129e-01,6.566600615231655835e-01
-1.467703165908396667e-01,4.217881195555759355e-01,6.755233875019120982e-01
5.097425994731015209e-01,8.560044229854750497e-02,-8.054505070064166272e-01
5.798729372218923706e-01,-3.202966871909647684e-01,-6.948054131589811444e-01
-1.249413837306209279e-01,-5.537845569344644892e-01,-1.011444030467660848e+00
-6.483824478737325592e-01,-1.424735879199696131e-01,4.412068487529992034e-01
-6.007393007902323001e-01,3.213294801699734249e-01,7.284322041605948428e-01
-4.473531617016041073e-01,-4.182120184693926407e-02,8.604472217122595135e-01
-6.768684421252386674e-01,-4.530873073101826520e-01,-2.981583108184868158e-01
8.161506581934172555e-01,5.947039309551412911e-01,-3.025294131251713425e-01
5.939304827891420668e-01,-5.780485678563516971e-02,-1.007621287824341350e+00
-2.144048334141212542e-01,-7.630902517302960986e-01,-9.075971367664452671e-01
4.217311281546038404e-01,7.083633164256183390e-01,8.677658508885081057e-01
4.408946667817842391e-01,5.745338960200848666e-01,3.728811787244818432e-01
-3.969820057323834028e-01,1.940335908503766638e-01,1.065054386545439158e+00
8.962283731918326002e-02,7.341064823906353620e-01,6.916999558167266082e-01
5.638867468884027900e-01,8.496531540143266170e-01,4.383158839219846170e-01
-5.827945844245381313e-01,-5.506270782359869997e-01,-1.668642701219825719e-01
3.153188605296978198e-01,-5.880636408026471695e-01,-8.765535475437669088e-01
-1.036406499919652280e+00,-2.319720115869162436e-01,4.050533570296098174e-01
3.203365756254613061e-01,-9.916138375267799510e-02,-8.480486643168231309e-01
-5.378225891714224494e-01,8.221880248728115348e-02,1.019353530772330485e+00
-9.155731833610382397e-02,2.919820492957161950e-01,7.807971962068104288e-01
5.985848123359233108e-01,5.928078084393337277e-02,-5.230670118163623927e-01
7.584059466327656152e-01,-2.179222654505279244e-01,-7.580669796045974573e-01
5.248366479879733593e-01,-1.924191036411715960e-01,-1.022938847398733975e+00
-8.467179220282655683e-01,9.127159079586155688e-02,8.023795753354807658e-01
7.434677893098728951e-02,-3.090379916211629108e-01,-7.363265721487954885e-01
3.504941973667281552e-01,8.334330616348968324e-01,7.468906868313520686e-01
-9.277809850985034856e-01,-6.505309203795743844e-01,1.785345887122657682e-01
1.111270961306083938e-01,-5.623296562198433213e-01,-6.966921927167988304e-01
6.895221961697121926e-02,6.518741934472132016e-01,6.494712427937352484e-01
-6.264482782636326963e-01,-8.192959921205155149e-01,-6.423996340135693650e-01
2.187302947315154511e-01,-4.805002141739343480e-01,-6.987374413355712521e-01
1.060045140062951363e+00,3.352971664377386585e-01,-3.741703428877304893e-01
2.598475687874818862e-01,-4.243374360279281166e-01,-1.095149573508903851e+00
1.757616117792547283e-01,7.034305633448389994e-01,5.620853839277172304e-01
5.318780681094360530e-01,8.176380403462589763e-01,3.196960977787322022e-01
2.504551071940775975e-01,4.684159975805431975e-01,6.203481350245798609e-01
-6.836029724104354388e-01,7.977167527255242530e-02,9.824977748666317012e-01
-1.785058700286600297e-01,4.037218238754725075e-01,6.985719821131515239e-01
-1.983013352827661113e-01,3.763339937686019931e-01,1.087413173005073785e+00
-8.557154111582012668e-01,-5.701543327744900136e-01,3.583126552008252808e-01
-5.888006725165617627e-01,3.905301842212579033e-01,8.986033006283109525e-01
-1.016899268593559613e+00,-4.176589503678668769e-01,2.358405850531557907e-02
-2.347036075400690258e-01,-7.328052243930442966e-01,-9.196486386372346722e-01
-1.145091181738242814e-01,-3.229544680292283365e-01,-8.586254276317242251e-01
6.087433192453340913e-01,6.239339903763184703e-01,7.422365338396011425e-02
1.402551309241979738e-01,-2.555243891356906993e-01,-9.947043350022199970e-01
-5.332022712984390012e-01,-6.885730390648088228e-01,-7.893199379425509532e-01
-8.333927105462420049e-02,-4.720408546433718100e-01,-1.047396341704260436e+00
9.559093406017259431e-01,6.385965403705684551e-01,2.353967968754747953e-01
2.499708805156858338e-02,6.349840282051856244e-01,1.033274328211850612e+00
3.268509163088755831e-01,6.856949578270250534e-01,9.241349982289480680e-01
-6.152844012613126190e-02,5.105448294421472966e-01,6.603198101866446512e-01
1.333640628656854454e-01,-6.559233351164162062e-01,-9.806388567883930207e-01
4.668812401048844651e-01,-8.273590709880489225e-02,-6.692717407538429919e-01
-6.743955848396769870e-01,-6.650141749321145657e-01,-6.765889321254890953e-01
1.402186986240374911e-01,-3.745024142980687420e-01,-7.060172571712620693e-01
-9.329320911320200249e-01,-5.171330864556284573e-02,6.838847173614639452e-01
-4.265362826303537580e-01,2.730381624460617718e-01,6.658268340194792856e-01
3.996453247188643254e-01,6.238202791610160114e-01,8.989513933320700811e-01
8.901056141121962417e-01,6.323568235201268983e-01,-3.051123964866077065e-01
-8.097506357347408201e-01,-7.276861673454410040e-01,-5.005153444170581389e-01
-6.986914756570947738e-01,-6.268255352191071106e-01,-6.219923007331633613e-01
-6.501934473926144209e-01,2.045020450875060791e-01,6.322737111564259438e-01
-3.002831868566841478e-01,1.110645036150292447e-01,7.824356318432227342e-01
-8.540029242145651400e-01,-6.759268957652069254e-01,1.770422013255515958e-01
-6.516252356459111272e-01,-5.004605627814244784e-01,-6.036904430713383451e-01
-9.947204982341115720e-01,-5.750599495885804213e-01,-1.715836478823588584e-01
-7.969429326344201758e-01,-2.644609220756169998e-01,7.598922933155376480e-01
-6.649946110612062755e-01,-4.341245237051845618e-01,9.141739680844024329e-02
1.378075186485469283e-01,-3.636933134215533658e-01,-7.030568700359889345e-01
-4.429382163639576930e-01,1.224948179664978459e-01,6.703998314958894422e-01
9.627303896460978061e-01,8.442109654210169789e-02,-4.322717246463173568e-01
-7.080575740201846546e-01,-3.965382846384425397e-01,-4.136726425111277722e-02
2.058618730385840534e-01,5.103014939023083896e-01,5.775668914842891910e-01
-4.975179354980117652e-01,3.166469877167336633e-01,1.047127891128935007e+00
-6.860402183239744378e-01,-3.984765212960676428e-01,4.424565348928771180e-01
-1.065184733851340493e+00,-4.683651066967746690e-01,8.875475513008750095e-02
-2.971616516600568692e-01,5.588508418405239153e-01,7.843741374340479355e-01
5.654994907533641424e-01,4.736336800974241257e-01,6.293376858237450522e-01
-6.601363937611053334e-01,-4.600708069707874492e-01,-9.176759171835855919e-03
-3.619688574658670444e-01,5.668146461486609500e-01,9.184947067404343191e-01
1.923862999717877720e-01,4.120082977314847295e-01,6.951116933914924800e-01
5.441375155573966449e-01,-1.773245155220666558e-02,-5.810026113801001202e-01
-4.359724452132413552e-01,-4.618542187441209146e-01,-4.987439939313378923e-01
-5.110541230530162710e-02,-6.957876263167307451e-01,-9.639423000827954668e-01
-4.137564713355113000e-01,-6.797987809850583041e-01,-3.654694846646964757e-01
-8.357634398837686662e-01,-7.277993149051168453e-01,9.751052532388335137e-02
-9.889102811935339687e-01,-6.843914788814993155e-01,-7.866926760083929604e-03
6.415117659940510197e-01,7.975076827379359301e-01,1.820027362932981896e-01
7.076998585121797580e-01,2.741114038268889774e-01,-7.179350545395460914e-01
-1.045201467035750564e+00,-3.003918231185211396e-01,2.258580616049520873e-01
9.394119333284091100e-01,7.210171339125611700e-01,6.020846433514061985e-02
6.589909910717608454e-01,-3.105775373884959167e-01,-7.350685365136460092e-01
4.011520896365318167e-01,-4.937849542664162761e-01,-9.897120239102584760e-01
8.172744035688072062e-01,5.071466284381349610e-01,-4.943944404793521041e-01
-7.166363041081724727e-01,-1.906634163734343412e-01,3.270651741376552901e-01
4.126913085686979010e-01,7.433075809125287980e-01,3.780160729722692459e-01
-6.094946752044239080e-01,-1.511547805778615805e-01,8.246746836894658372e-01
-7.975179700771372060e-01,-5.898770328503000204e-01,3.284848358684618330e-01
8.818292750510950961e-01,7.739872026671009708e-01,1.049661300080091814e-01
-3.906888107399812404e-01,-8.201253329347002463e-01,-5.129096985678948117e-01
8.137669271781374780e-01,2.891384891437531190e-01,-1.007956831285330285e-01
-4.927001460442788083e-01,1.926002188032469864e-01,1.039738279441263957e+00
7.653330596974363687e-01,4.961412587778326055e-01,-4.175802327644930756e-01
1.031492016280989299e+00,2.281600638786815682e-01,-4.543336800599842573e-01
8.828026018555857890e-01,6.007124840831200574e-01,3.917210835320724671e-01
-8.425026877963028848e-01,-3.286115187926123005e-01,8.313802144994159385e-03
-7.274656060141174718e-01,-6.193384591314718968e-01,-6.014764994095681550e-01
-1.009704610260662827e+00,-3.701983857324961935e-01,4.705250543407647756e-02
3.894779557612862986e-01,7.058464893734107681e-01,4.076661114338296366e-01
-6.695904991598319311e-01,-6.787833097295151719e-01,4.412697973003271157e-02
9.641101311038011712e-01,2.469733091593006025e-01,-1.664094459335051235e-01
1.014955280808083060e+00,3.623814824682377034e-01,-5.433893965247516000e-01
-7.176899293081753228e-01,-2.731559193790453755e-01,7.732245161175022030e-01
8.418841979552019739e-01,7.468009167855966385e-03,-4.529864136877178038e-01
-8.610416165945451450e-01,-2.255281736797666928e-02,8.451426328520171838e-01
-8.331448184453014161e-01,-2.390908168757476249e-01,7.493104045091726340e-01
-5.982783827805387977e-01,-8.577320744608703251e-02,5.208991965041699368e-01
-4.432846341755645736e-01,1.455903688106246208e-01,1.053666235407509699e+00
-7.632424569009631510e-01,-3.534007791745827354e-01,6.502628960775598266e-01
9.928714158272261558e-01,6.102563968089734781e-01,-1.835009274887200170e-01
7.406191337009970788e-01,-6.938169045148423475e-02,-9.360491857281095784e-01
4.077277069578850166e-01,7.565526346598243634e-01,8.629963087335700278e-01
1.038616206507922746e+00,2.101995597584299103e-01,-3.701346394229286241e-01
6.510692396827649775e-01,2.675400937770107124e-01,-4.399526264795259878e-01
5.887128335941509416e-01,7.929378094020984591e-01,2.462605523033487287e-01
2.161573256999876624e-01,-2.145234899947024987e-01,-9.944051207613708865e-01
-6.342607681459154767e-01,-6.699786040439487111e-01,-7.324776692075730677e-01
1.058376352229510431e+00,4.261768707235643050e-01,-3.219976148905370206e-01
5.082215323647408800e-01,6.897195848840507182e-01,2.661018912037645956e-01
-5.353552903439918499e-04,-6.776140813118708417e-01,-6.858315596409806369e-01
