6.579907450332671548e-01,7.650470613296431188e-02,-5.582959339719127945e-01
-2.062197093494739231e-01,4.495085121676912765e-01,6.377377710687963663e-01
7.724226115122833081e-01,5.641515116366172533e-01,-1.421737484451087996e-01
8.059609490432796397e-01,5.730540351014130201e-04,-8.254919258984755315e-01
6.243460345077488372e-01,-3.022117095515127194e-01,-7.495873962756024467e-01
-8.693339205601156028e-01,-7.448191549371351305e-01,2.784718844624227141e-01
-5.788523824865383638e-01,-6.779232538372533812e-01,-1.725744916493090197e-01
3.129705993838725053e-01,-3.886124519109039888e-01,-6.429760565626601032e-01
-5.368184421662666184e-01,-2.032879053074550524e-01,5.774575823282060982e-01
5.148561363841600569e-01,9.980401652558046344e-02,-6.187059982399716329e-01
3.041744125707829260e-01,-7.186878341547161542e-01,-8.269006078623275524e-01
4.107725750648530405e-01,7.188903248955361702e-01,5.521318329929609803e-01
-5.537525891319089455e-01,-4.156054277674267605e-01,3.976728640273863857e-01
-4.208317676710310318e-01,-8.420656144414663258e-01,1.608847232877395339e-01
2.458989174493836638e-01,-2.110308288269388544e-01,-7.508642147082256191e-01
-2.305146562965861845e-01,-7.601838427002908238e-01,-7.535886030118317258e-01
6.863903918531452097e-01,3.389544891428480922e-01,-8.822251454127540971e-01
-9.163136417535547862e-01,-5.276739644342688385e-01,4.346124252288584011e-01
7.239685779143900657e-01,9.673022943094311543e-01,-1.495935982078148707e-01
-7.576817649924874054e-01,9.050652173792804456e-02,7.881904043100059765e-01
8.878494322572377806e-01,4.071791809106740656e-01,-5.137076010489357580e-01
5.418673351548602968e-01,7.956954134202872675e-01,-3.583981240884828723e-01
-6.909371942604907169e-01,-1.387017950207070360e-01,5.416285096313158132e-01
-3.261958626618940895e-03,-8.987894980828137204e-01,-7.830104447031449588e-01
-6.206140850459804792e-01,-1.187955485318976517e-01,5.518716218663680673e-01
1.254180982858595084e-01,8.452414126168420472e-01,8.269060451430944036e-01
-5.115039622845566347e-01,4.386696875704703125e-01,9.636323160117175046e-01
6.704844366062887584e-01,9.675250564056673275e-01,-2.030143226319741367e-01
2.568572996174302986e-02,-9.303573989990342463e-01,-6.270173924835990009e-01
3.497524320734071157e-01,9.861503971193192886e-01,7.065002570987649611e-02
-4.530370613090917709e-01,-6.763813541081162839e-01,-2.441947960880931079e-01
-5.246947865846437464e-01,2.682771867425033374e-01,1.043087532677277718e+00
1.670991014365330596e-01,9.642186491416325778e-01,6.742438748726542475e-01
1.170026594540543446e-01,5.532441249483058821e-01,7.419400476345378026e-01
-7.400179823370909293e-01,-1.608414182991209918e-01,5.198613062636581184e-01
1.350742016039796489e-01,-3.243488239110571825e-01,-7.905981321721390342e-01
4.410393048428084550e-01,6.502594831432727540e-01,1.211905182076357806e-01
-4.886856995986462171e-01,-1.047863059424223975e+00,-1.434489038822032436e-01
-6.406011939495029894e-01,-4.547369945238101396e-02,5.940789505581959284e-01
-6.439365922048861934e-01,-3.833227160171024384e-01,3.555855483953295204e-01
-4.029403763412949813e-01,-6.996771709810453155e-01,-1.645732760604639439e-02
-1.901379563927011740e-01,5.060682705319315966e-01,1.008851493719636228e+00
-7.778075642628330399e-01,-1.140959133837770728e-01,9.165399284883342101e-01
6.013146992439286631e-01,1.472869945708528416e-02,-1.009882567877795623e+00
-4.016819335464443808e-01,-6.759203872528652957e-01,-6.863344661623725640e-02
1.212242411278196402e-02,7.797718601793417470e-01,4.563765313473362450e-01
3.839824306498809681e-01,7.075489383452978620e-01,4.815831899712503805e-01
-2.739658796612879366e-01,2.351080645493026089e-01,7.205991391640970134e-01
-1.617054231577541856e-01,-6.289431784475159048e-01,-5.087321229047905291e-01
-3.065384425106050803e-01,-1.010382721588775068e+00,-1.719331962098728239e-01
3.832533449229552081e-01,-2.623668907629726488e-01,-6.625788502262381918e-01
-6.322877095656115332e-02,4.581421307737172932e-01,6.772795389051141646e-01
8.838043344798452994e-01,2.534393651939284564e-01,-7.347373241765504659e-01
3.546411639774805225e-01,-6.829761220759128504e-01,-7.829987603829182685e-01
-5.724157910578864250e-01,-4.622279183290032289e-01,3.494820056769877836e-01
-4.901299875029285769e-01,1.777869064104228569e-01,6.529904966351882667e-01
-4.907478487851997806e-01,-6.927923754801214029e-01,3.933946114885151779e-01
-8.766533590475068527e-01,-3.189334280331054261e-01,5.496222834245952926e-01
-6.598885440948690784e-01,-2.483585283053267312e-01,9.141069076811566552e-01
-6.336267608633980863e-01,3.352297575574846866e-01,8.770278353739424659e-01
4.813750847058995141e-01,6.255132545696878710e-01,-2.909608471977286892e-01
2.711005136041183886e-02,-6.962571506089215712e-01,-9.513339534603230119e-01
3.417943315740500365e-01,-5.344092158237541135e-01,-6.634641487859099795e-01
-4.845197153735169016e-01,-6.210456127906568424e-01,2.192297989886470011e-01
-5.706205729968552021e-01,-6.764023861909068680e-01,-1.824180132843190583e-01
-5.024283859364345739e-01,2.575197795189066441e-01,1.034730903246172451e+00
-2.587757760524629358e-01,5.837704128887355459e-01,6.166042002497105212e-01
-2.030500071886744695e-01,-9.776500091732307496e-01,-6.411172397496728292e-01
7.266851094359324525e-01,8.329320944226820123e-01,-3.782342095959194128e-01
5.826150542865943943e-02,-5.338930129844897676e-01,-5.982630426905538590e-01
-4.001079098288930491e-01,-8.489662288888846220e-01,-6.073177716097735157e-01
-3.933042278552000837e-01,5.098022783153325355e-01,6.878745703379501863e-01
4.812832522910551747e-01,1.754704763747974294e-01,-8.735854466925858652e-01
-7.068263536892004373e-01,-8.107014744063621992e-01,4.388600536848890621e-01
-8.453256336851894259e-01,-1.890147266664737591e-01,7.965923865863913100e-01
2.385381653188052287e-01,6.355554134669975097e-01,6.865438061871571573e-01
-5.765154682313644585e-01,3.947994341720206246e-01,7.735867905078298579e-01
1.506217275634003649e-01,5.917629538004283152e-01,6.243995780099982351e-01
1.083364209227091410e-02,-7.607307972783226013e-01,-4.341342570817154911e-01
6.054290586366232185e-01,-2.464904622967844794e-01,-7.156270385938181544e-01
-2.645588564715735669e-01,7.324932637382702838e-01,6.414974375674247220e-01
-2.151362323209971839e-01,7.967334724421357706e-01,6.624666723936907253e-01
8.885301997003096641e-01,4.981106070786340823e-01,-6.047635811589362476e-01
1.965859221793194445e-01,9.785382433471674357e-01,6.513885292258095872e-01
-3.931750578788234529e-01,-4.690039073659844904e-02,8.724972205840341166e-01
-1.844433737000521212e-01,4.140449640695205158e-01,1.000585354225493218e+00
3.760440469476500347e-01,-1.064328089055248672e-01,-9.918809216718043054e-01
5.291962336921465226e-01,6.636877213794808439e-01,-4.914594302231370948e-01
4.038782779892733377e-01,6.811804861663953714e-01,3.855286316496012861e-02
1.656401050828402999e-01,7.945693358136846074e-01,2.678202433746258437e-01
-7.623279311532182856e-01,-7.271656405597363149e-01,-5.665473602369230921e-02
-3.359498102631075511e-01,5.560638983495473642e-02,8.331211837638352602e-01
4.867779239286242898e-01,6.561111629469212891e-01,4.455369601819926528e-02
-8.213334532264686683e-01,-4.017852675053413258e-01,3.539280264463633419e-01
-3.632390769901471250e-01,-6.825959809493004071e-01,-2.753017002040965555e-01
6.001466692650824220e-01,4.276541256060644725e-01,-3.281068633982232030e-01
1.366664191585055255e-01,9.842614875060827773e-01,6.968394138574467434e-01
-4.493728403404596006e-01,5.724230831949320697e-01,8.090153953669686482e-01
-7.311411773731593122e-01,-7.558654754923707086e-01,5.131727290799519281e-01
-1.902513395619647441e-01,-7.920782955574128259e-01,-2.561336453197130547e-01
6.746616576459651959e-01,3.094667297111622362e-01,-9.021837328293913494e-01
-4.479317215395433593e-01,-8.263105699505380874e-01,2.003786544698711036e-01
-9.832473092689424099e-02,-5.948895217701704041e-01,-8.323657665273641593e-01
-6.082271680887212373e-01,-7.487113298522022342e-01,-2.536203643618726855e-01
-6.605513558203329749e-01,-6.068807380765469661e-01,2.105088777285784099e-02
-1.165579210588019443e-01,-5.693378398114892214e-01,-6.863648108222104582e-01
-4.834516657116933458e-01,5.403432148699349735e-01,8.688342607661351247e-01
-3.838716922693063971e-02,7.099713725050142976e-01,4.801981200673849370e-01
-5.084178795460487787e-01,-6.067593911052572286e-01,6.913351759592530066e-02
-6.712717563893807471e-01,7.319327815469690857e-02,1.008800358222323945e+00
-5.087101154386473034e-01,-8.409401088611528907e-01,-4.388766585629013117e-01
5.949916775274662895e-01,-2.398284848242033807e-01,-1.013034868830421598e+00
5.763955505092161619e-02,5.666542226117805559e-01,8.522435947337776430e-01
5.654905458923018546e-01,5.986636743328246357e-01,-4.835604355414169220e-02
7.722740657432068945e-01,2.634117016981150639e-01,-4.649046415644543240e-01
-1.945552960417815808e-02,7.120948616152092958e-01,9.340994459775729952e-01
-2.020507442153765820e-01,-6.791411700162506282e-01,-3.384057801355300210e-01
4.290808572475209304e-01,-5.301621726209602148e-01,-7.325818609869154674e-01
-7.669990148860814094e-02,6.644137983207546450e-01,5.237649965603951019e-01
2.719959276263466535e-02,-4.508749528818615238e-01,-9.001170187582827609e-01
6.101073715923375218e-01,8.649352866138891871e-01,-3.749614910525461697e-01
-7.739431361263768849e-01,-6.947053367652304967e-01,5.543408887564982290e-01
-5.982911220714542955e-01,-1.038412899185994664e+00,-5.135260007005942873e-02
-2.384137511733084025e-01,2.102710732123363735e-01,8.940815697902914083e-01
-5.107658256963071297e-01,-5.196434369656970365e-01,3.782779429506147317e-01
4.574517403301613938e-01,2.176208522955808133e-01,-6.208063413111744033e-01
2.695876974504667345e-01,-7.365052951647337309e-01,-8.100628678636229152e-01
7.392756880557584953e-01,7.892047437406809474e-01,-4.664877604050242654e-01
-4.272075918169453423e-01,-8.085235880384071816e-01,1.746510449010107990e-01
-6.308588152358585166e-01,-6.373336755039374912e-01,6.102918900095674060e-01
-4.662391329018724523e-02,5.149310466517598162e-01,9.504126796108591790e-01
4.658407612200713421e-01,6.440723735129696426e-01,8.962590793377278250e-03
-3.179824579870309531e-01,-9.166462148396787857e-01,-6.792334503554446901e-01
3.987354000093331075e-01,-4.459981269875707977e-01,-6.606550383925083869e-01
-4.736020854599652385e-01,-1.072560476263531459e+00,-3.091106261346003858e-01
-5.160052114411642910e-01,-5.743908725099943213e-01,2.982272576602573166e-01
-5.377612929740370751e-01,-7.797713470553966353e-01,3.936190134136230423e-01
-3.891369569739626666e-01,-1.079316884723924952e+00,-3.659184085264458597e-01
-1.102713883275311946e-01,-5.672545001873452453e-01,-8.185336293189215962e-01
-8.730278237513147133e-01,-4.051415796741548725e-01,4.382084994322550386e-01
-3.046925424099579671e-01,-1.049525049811995236e+00,-4.548979478257900722e-01
7.955489617573452410e-01,2.823507671286229828e-02,-8.576416870379133250e-01
6.095157811596626507e-01,-2.194356862170397937e-01,-7.062731052788837616e-01
-7.817431892361548229e-01,-1.676804793208149999e-02,7.035572829361347313e-01
4.668147983285114710e-01,8.784369471050976763e-01,-1.889305417747420279e-01
7.531017892388638391e-01,5.273797197453879981e-01,-7.342601470808730602e-01
4.559946606683937254e-02,-4.279280063733088002e-01,-8.401162653241439626e-01
1.303697636348158662e-01,5.561677611963455892e-01,7.277499336708076472e-01
-7.427184326822753313e-01,-5.692684895439129589e-01,6.857192222383560187e-01
-5.793868663268040287e-01,-4.141106353152321229e-01,3.687596845784816835e-01
-3.314977876299715076e-01,6.432001084807806857e-01,6.540800808659580357e-01
-2.058989461012531164e-01,-7.825114513877720057e-01,-2.351758022949763105e-01
-8.620570511671404867e-01,-2.159652013938599679e-01,7.616955194740688828e-01
7.968721883291554064e-01,1.373224721317674313e-02,-7.372726820764657907e-01
4.912805810740103474e-01,-2.279467286835416828e-02,-6.344338692012360115e-01
6.182936721387847223e-01,9.158854335711692496e-01,-2.689016839091090127e-01
1.518547970433263838e-01,1.008142180913741415e+00,5.981481109195617707e-01
4.822061020643479967e-01,2.608323974244755039e-01,-7.967997775533175453e-01
-4.602676331145507671e-01,1.170378602148116481e-01,6.504096590553061219e-01
1.086465414053311568e-01,9.710858425491381007e-01,6.928808156204443458e-01
4.224398424713269873e-01,-5.703804973812999224e-01,-9.151844209040091993e-01
1.192232299208164370e-01,-5.008882699315934106e-01,-1.000983729739218120e+00
-3.914893566043080309e-02,-5.141708868367570462e-01,-7.786898692467068006e-01
6.004584891615603048e-01,2.783674279310985877e-01,-4.511059170336764179e-01
-2.215596204250143697e-01,7.864516224281011825e-01,7.785865430146348132e-01
-4.596893294552524822e-01,5.371300946020117761e-01,8.726775256550378668e-01
3.000242103835267793e-01,-7.481406527790057659e-01,-8.503025454328612120e-01
6.678854410786922990e-01,-1.854760344070040257e-01,-7.271880505444626719e-01
-4.332239005478152327e-01,4.429416194044848987e-01,1.026591746946757366e+00
7.695329253815716974e-01,5.512513833876463432e-01,-1.833223908122569856e-01
-4.966833022842045975e-01,-4.034816420787079028e-01,6.157478862987896262e-01
-4.669365415453125001e-01,-7.522890308832178574e-01,-4.167597950632966897e-01
-6.053630334382595901e-01,-1.007423224940947160e+00,-2.552386905060859412e-01
4.459536380233304342e-01,6.844710912536725589e-01,-7.613729044099303012e-02
8.031563293860257691e-01,8.480992666660484014e-01,-5.440915012456376369e-03
1.278089953922487421e-01,8.124755951601422277e-01,8.210648516590647317e-01
5.361796797677044202e-01,-3.913243041258436805e-01,-7.383711395840996117e-01
-7.574735235295102509e-01,1.208241092620943313e-01,8.276398072688200269e-01
5.553780784785314895e-01,4.164025531356860821e-01,-3.677674547335025301e-01
-3.749891493572365953e-01,4.620015941411851346e-01,6.781549917574102304e-01
2.254691816407820848e-01,6.192467143146973552e-01,5.886908133974891877e-01
8.151371770432321862e-01,4.913463835313085504e-01,-6.886922072104145753e-01
8.204660028975135910e-01,8.247557420635707182e-01,-2.442226458171860293e-01
1.498462454106616604e-01,6.563822387722019203e-01,4.462166548924256793e-01
-7.207369153638361059e-01,-3.785855088209836850e-01,3.245672969728899404e-01
-5.015735273686249274e-01,-3.493524815029618869e-01,6.473949073762471640e-01
-3.011661277766491951e-01,-7.354654139320370154e-01,-6.801888292058441143e-01
5.130577134238314407e-01,-2.161203432410989944e-01,-1.049291247620035117e+00
6.205729774719624947e-01,1.026940658799234463e+00,4.917223207926713080e-02
6.820211125323669688e-01,5.055770722606594408e-02,-5.812385244929515471e-01
3.818599618652365191e-01,1.016441793184412967e+00,1.230997355873494209e-01
-1.181961491391389646e-01,3.712901901962715745e-01,7.798390657200874321e-01
4.772280165952145770e-01,-4.292780771351168562e-02,-6.383838272453334906e-01
3.394530904639709301e-01,1.038722433686689595e+00,4.501605705742073305e-01
-2.211115777612824573e-01,7.485617399982938958e-01,6.388091767435826185e-01
5.499136010120524443e-01,6.277736021801214594e-01,-5.302341538998400772e-01
1.011379503575623590e-01,8.312645498104931363e-01,3.350821107271441113e-01
5.883735260155843749e-02,-8.661930274754896519e-01,-8.133146171248697431e-01
2.482461450420742066e-01,-3.234165861552015797e-01,-1.029095557962555363e+00
-6.341166111974806396e-01,-7.799914353526111732e-01,4.497373192400282993e-01
-8.039462617255593857e-01,-4.139187396121684070e-01,3.542750647481426318e-01
7.523951205167025980e-02,7.518807989363813782e-01,8.885106971571917756e-01
5.663299810819841795e-01,6.413154632295434698e-01,1.124445646670051563e-01
2.246860783641074222e-01,6.868745437473242621e-01,3.072458615167844020e-01
-4.520679359616328052e-01,3.287761502732362562e-01,6.676517052961391530e-01
-6.137129253724998845e-01,-9.551099489545061827e-01,1.770776982751207373e-01
2.841762583466583281e-01,-1.034585897761303164e-01,-9.035690386090337034e-01
-2.017507120760317629e-01,-6.139496953489069764e-01,-7.202981553737458631e-01
6.360121390919510898e-01,7.031696411712893280e-01,1.913672377641081890e-01
7.400813507131666080e-01,-1.295925564101503003e-01,-8.919021369833803892e-01
-4.328418032900742118e-01,-6.802257056041873806e-01,-1.530224453632710035e-01
5.449637747536143495e-01,8.225835577141031862e-01,4.091307816087765281e-01
-5.762292996469988715e-01,-5.042156921403406766e-01,2.222501177894156410e-01
2.634893516817494313e-02,6.862297499861194083e-01,9.168381624494472693e-01
-8.329087825806468226e-01,-7.343351044179260434e-01,1.414626967587351569e-01
5.356247611571649525e-01,-2.733967490760753211e-02,-1.019082049919463717e+00
2.387166122526994672e-01,7.027330786115940642e-01,2.764906339156659731e-01
8.976823965152305185e-01,3.139626024963311779e-01,-6.022087479019846423e-01
-7.749897893057575704e-01,-3.607991085978033419e-01,8.262981851345775341e-01
-3.248293657790073397e-01,5.898436997298285300e-01,1.001633764643063973e+00
6.700672153092378514e-01,9.704115473528061031e-01,-1.766255669714876797e-01
-5.743753155143758171e-01,-1.723162010408829659e-01,9.668130300365790353e-01
-6.310972800370019398e-01,-4.332473616586544896e-02,5.719456981933540574e-01
-6.393362235035537910e-02,-5.258947422417503681e-01,-7.314898003305305707e-01
-9.947680930557686874e-02,-6.399510614270450537e-01,-4.957422938601178664e-01
2.306220714733080157e-01,-3.504153212466604717e-01,-7.107281355273226131e-01
-7.711353628829971107e-01,-5.326148754881391278e-01,1.824923390590292294e-01
5.386270243087398768e-01,4.962440617992506242e-01,-6.463337556487814828e-01
4.829940415094367834e-02,9.443880830053518194e-01,4.611296865032522563e-01
5.438356153734749121e-01,4.907492275959072781e-01,-6.650819834783553430e-01
-4.346405752608459294e-01,9.712638818502747351e-03,6.685587423933571083e-01
4.111505288958778315e-01,-1.044199368742722844e-01,-6.646969695030222613e-01
-1.250686060373602804e-01,-5.567410852215403105e-01,-7.181940259554351336e-01
-1.671002855134193568e-02,-4.939882056788583720e-01,-7.753480138515642661e-01
4.802163325032207664e-01,6.616472788536056360e-01,-3.003609946766011563e-01
-5.493616708586785968e-01,-6.562953819197013816e-01,-1.773585269850804225e-01
-3.178121035460041988e-01,-1.070806517501020627e+00,-3.250041721265523043e-01
-1.805711240729037936e-01,8.288378634955285706e-01,6.435288622359087718e-01
7.008417435184464139e-01,4.895056346875461539e-01,-7.778878419306577419e-01
6.208801781670305608e-01,7.036231817681940504e-01,1.757859419677181012e-01
-1.125734400533678764e-01,-9.889465912320765106e-01,-4.584700154345417999e-01
7.006084349786801946e-01,7.164989252921871721e-01,1.476967600161109007e-01
-3.626464180970240814e-01,4.367184701130227831e-02,7.548345156399353106e-01
1.030650475048450199e-01,-6.155099496398268588e-01,-5.554423240835428821e-01
-3.074204389296549267e-01,-8.260661369720196934e-01,-6.859009712277346349e-01
2.582157604635986203e-01,1.026917735848438706e+00,2.830225103366620920e-01
4.171019393133912900e-01,7.434785665010557043e-01,-1.053609118212365525e-01
-4.781463301952270650e-01,-1.058408619853055344e+00,-2.056723189415007313e-01
-4.243215645387558022e-01,1.786352974787657200e-01,6.638298904448455273e-01
-7.411106539048039066e-01,-7.603421572193284073e-01,5.085885142862375252e-01
-5.048198087519008004e-01,-6.525480210128705716e-01,-3.973340082688611719e-02
-2.786225105325929041e-01,1.397049574411286521e-01,8.488452298967129606e-01
8.974941613242594096e-01,6.420164324448675019e-01,-3.110585134550999387e-01
7.374925329846322430e-01,6.816071702678518918e-01,-6.320131694225412655e-01
6.417493574970778436e-01,5.530281775476645345e-01,-7.008541544017684588e-01
-2.417328102015282587e-01,2.984884211302976653e-01,9.964847151506901479e-01
8.010509507068397372e-01,5.244285376612336513e-01,-2.402066518076214630e-01
4.522022602090681742e-01,-3.108741755512937632e-01,-6.550769407393145505e-01
-8.666675365187493929e-01,-5.203329616698608717e-01,3.594241429872352400e-01
3.961418216604805087e-01,9.985102207492644322e-01,5.185981156690474547e-01
-3.983555529648535876e-01,-7.006537588127795813e-01,-6.270374961059466123e-02
2.882499275636087877e-01,-4.130298062064109432e-01,-6.476978963352866270e-01
-3.997508083798635425e-01,-3.962534984622460149e-02,9.192056851560471697e-01
-5.570908331471109420e-01,-7.611117040443141635e-01,-3.639288616937670362e-01
4.024578728180090437e-01,7.806175816925693400e-01,-1.200594896434645370e-01
-1.812848549473619342e-01,5.916247129799032667e-01,1.011111208826215302e+00
-7.485683976028895126e-01,-2.846453929762580159e-01,4.039474482978988590e-01
-4.395021117258652854e-01,5.896701287297806404e-01,7.764216540145237877e-01
-7.501558505214045436e-01,-5.383483009561631505e-01,7.369647297662711427e-01
-8.387410359759682743e-01,-1.530898592970285910e-01,7.854282431241583762e-01
-7.934062343255863237e-01,-7.961698187694749018e-01,-2.043460910620933588e-02
5.825909342736553809e-01,2.361247547902776966e-01,-9.234550600256664632e-01
4.362526115396297977e-01,6.931290532066689547e-01,3.832502285392629382e-01
-1.330480617827980647e-02,8.752391556220625590e-01,4.779068518492174955e-01
2.236163346068342772e-01,-3.731048490048527455e-01,-6.900921652479263813e-01
8.566689581533506459e-01,3.509376271388700008e-01,-4.708628635433142473e-01
7.262439609045848732e-01,3.795320262125334576e-01,-3.408515056153333389e-01
4.326771893367899469e-01,-6.268470769859204594e-01,-8.198316123072382222e-01
-4.355636261850888147e-01,-9.884137121403618886e-01,-5.243882184968196025e-01
5.216870172913420367e-01,3.064715776023941851e-01,-5.293657475483142250e-01
-3.683458767942366929e-01,3.474288695769860991e-01,6.558975473811758938e-01
-3.854755837012773245e-01,-7.516661103294154378e-01,7.653818579467262795e-02
8.687730158426381077e-01,6.304165423213368147e-01,-4.757425304279854217e-01
4.557910454884109286e-01,1.511139748889603063e-01,-6.488429972615668007e-01
-4.945443109112506591e-02,8.871235670500089432e-01,7.784071516164795534e-01
-4.889339830320660329e-01,-2.513131342439548499e-01,8.330158009567872890e-01
-2.601773797578123271e-02,-6.939702101046756333e-01,-9.185652796082024452e-01
-2.932830134923407051e-01,-7.754752813922951571e-01,-1.209774480475620806e-01
8.443929168241595118e-01,5.022912962656050917e-01,-3.032447851237567438e-01
-8.215487913131700459e-01,-1.691117807049649924e-01,5.909156477057529999e-01
-4.278431015500477885e-01,-6.944357194374679576e-01,-3.171749937943337816e-01
4.157352679876209489e-01,7.331479102346439847e-01,5.141772311347677649e-01
7.912571914996529010e-01,8.474662839473777742e-01,-3.313259943204837077e-01
1.186045674390461512e-02,4.955769596089658058e-01,6.609876135886393334e-01
-6.442842889917071991e-01,-3.965390562464563007e-01,8.086477255185013924e-01
8.079469740267927746e-02,-7.865081729598978333e-01,-9.029781829325864706e-01
5.369918395382812237e-01,7.022411583217029740e-01,-4.835488112907726510e-01
3.852940525216985157e-01,-5.348851731023015477e-01,-6.676641286684340537e-01
-4.956707299917726406e-01,-5.896637844975287646e-01,4.415858518108697339e-01
-7.192778689365471045e-01,-1.244484895860420853e-01,9.396133883127504305e-01
2.254821880016092406e-01,7.558782373414743017e-01,2.443434088517764669e-01
8.273828547565215130e-01,7.490290224730742352e-01,-4.773992620544643684e-01
-8.949685241945974923e-01,-4.078945679231553156e-01,6.133393890573192175e-01
8.047987143600185966e-01,4.199259669055583344e-01,-3.598270693363073147e-01
8.936902950200239504e-01,4.229387040790077434e-01,-5.447171709210442136e-01
-6.665826018176158607e-01,-7.558043559347518148e-01,5.058616952545580414e-01
1.802108034061644382e-01,7.821993695834968952e-01,2.626350737545969372e-01
2.228276846559320845e-01,-4.069350007161747218e-01,-6.543684712356110378e-01
5.371978536930228226e-02,-4.684998470195991804e-01,-7.042562998050283518e-01
5.531448520051599482e-01,6.246979074785682373e-01,-5.670078436194908589e-01
-2.977767718161127286e-01,1.282466019850824757e-01,9.594046432020020276e-01
-4.259332559970491761e-01,5.981075973586628125e-01,7.643834642173640281e-01
8.481212938266874390e-01,4.032348588599805606e-01,-7.239626084044541443e-01
-2.484281658593296971e-01,7.303675902627360106e-01,8.323634092732103973e-01
3.646620141978466068e-01,6.725432692105814958e-01,2.489885353982728422e-01
-6.068972435850646940e-01,1.140529663012663092e-01,1.033698849623304827e+00
7.696548526626579845e-01,3.603632612171659422e-01,-8.511856299626365807e-01
-3.246157623489865918e-01,-9.940910219054017727e-01,-5.608819586514455224e-01
4.827795029458094300e-02,-7.996818593745667059e-01,-9.109577048310547598e-01
5.450685247461620753e-01,3.166298281379166246e-01,-8.470832806781458668e-01
3.305809660591672583e-01,1.058110328214254103e+00,5.022657101571458282e-01
-7.653757559604560390e-01,-7.010420925834378592e-01,3.843250110742386493e-03
6.689799641415935527e-01,8.890093131295485618e-01,2.379887046273578832e-01
-8.385457350652122388e-01,-2.222990035101511108e-01,5.503001041956986361e-01
2.810109897144106444e-02,7.155699611165375895e-01,4.566130951513786007e-01
-8.635485503302597898e-01,-4.888167216985708219e-01,3.494321659363837651e-01
-4.309352136959523905e-02,5.820504227374340145e-01,9.450619421555838118e-01
-8.851030092094990254e-01,-3.280316991760024448e-01,5.072386208211716596e-01
-4.265721898323073247e-01,-6.269969843436790091e-02,7.398887119858539307e-01
-1.098749233054125418e-01,-8.740059395784747220e-01,-8.214278885886122650e-01
2.853115160522206040e-01,-2.082778659091743256e-01,-9.414326356501598880e-01
-7.145449638643005530e-01,-5.323870071559946293e-01,7.172114680909199569e-01
-1.147093695651708739e-01,8.777225982440389762e-01,7.061379040981003996e-01
-5.902459316748959184e-01,-7.581770575104860299e-01,4.565118707797329312e-01
4.561708972996458833e-01,6.681842636795907175e-01,2.049307533668043024e-01
7.284353885122959449e-01,9.296796547571144487e-01,2.709128807542729445e-02
-5.662405179288065860e-01,2.730563424494554872e-02,6.236527935469904360e-01
1.513728742459607979e-01,-6.052556837102014420e-01,-9.979416111770819109e-01
1.192990280130854092e-01,7.630007163733257824e-01,3.391616614214538750e-01
5.340835940544726990e-01,4.795805660291955208e-01,-3.566535123542547425e-01
7.772739045961647719e-02,-6.691266813693957927e-01,-5.173885406510009277e-01
-8.462540677669078137e-01,-7.956504011175571378e-01,3.096639319268618129e-01
-5.337542271693335172e-01,-4.322553020711384919e-01,7.277492639107815409e-01
4.765417626357187908e-01,2.851642588236801834e-01,-6.674100793460614467e-01
8.257109544450437211e-01,6.695481669838875272e-01,-1.358797268854383400e-01
8.117813262008980457e-01,9.193065651789100734e-02,-6.259000875871800762e-01
3.131872083153639519e-01,-9.086026636875904616e-02,-8.333508606906820937e-01
8.544019851855473302e-01,6.677314572506768409e-01,-4.619363677368928944e-01
5.026411591391443112e-01,3.550649610998034000e-01,-7.326467868961007435e-01
5.446764648046326096e-01,9.305411719920404501e-01,-1.991723079172024458e-01
-7.549074372589482662e-01,7.602206277220820325e-03,6.789646542033501708e-01
6.925422182819966910e-01,1.917097002908988712e-01,-9.308580416808607261e-01
-4.999661673800720463e-01,-4.013834178670475650e-01,5.872620021976220350e-01
2.165554388128227981e-01,-2.598466033412378806e-01,-7.900549594745627235e-01
-7.536763423801126072e-01,-5.985931980137385588e-01,9.502775675548748302e-02
2.619088076686394012e-02,-9.262148708915223239e-01,-5.318219631208165321e-01
-1.835804921471670126e-01,-1.030256292679181396e+00,-4.017101194245741858e-01
3.782522846814641571e-01,-2.163041515194932818e-03,-7.863965277653445218e-01
3.695801691204925188e-01,7.688743715284843683e-01,-3.156773901262926313e-02
-1.723718457955683916e-02,5.531732477364830203e-01,5.817634674886923429e-01
-9.030193301529950700e-01,-4.672845568232330549e-01,6.268174288005677885e-01
4.828679050307915777e-01,6.676109414756712379e-01,-3.320014583109668904e-01
-7.622547186566506205e-01,-7.884887446074061515e-03,6.224472215903044114e-01
5.690611124982350999e-01,8.621829923957983199e-01,-3.232099412365263547e-01
-1.503872398180208236e-01,-1.030387724142162842e+00,-4.491388455439898619e-01
-3.638352554571514519e-01,-1.074082189685003685e+00,-2.461433676324281117e-01
8.097279484579618103e-01,6.520120939657497727e-01,-5.674854182314637008e-01
-4.331353887603771047e-01,-1.299588961956644195e-01,8.496198199210548418e-01
-2.404668460970866006e-01,6.923787179363042332e-01,6.632071658035461059e-01
-1.678578796753911195e-01,-9.790046544894154268e-01,-6.357377818881407849e-01
-3.182381020826934026e-02,-4.893801970293489845e-01,-8.152410686006256180e-01
6.385056235585840900e-01,8.251559717753754741e-01,-4.253422990277920812e-01
-6.517707886867923905e-01,-7.245929708049971829e-01,5.669080865627292853e-01
8.151730999972877090e-01,4.163116772828762135e-01,-3.526533498894297569e-01
3.447230700995246311e-01,-6.622276165603986353e-01,-9.069175731365709536e-01
8.069274151366415682e-01,3.374298626310795468e-01,-4.278265734445030333e-01
-4.736138119297169657e-01,-1.622217814848434247e-01,6.397232398918401008e-01
-4.068774172524891597e-01,3.022683552443879984e-01,6.638499713172584249e-01
-4.281615871174139776e-01,-9.007510812738760142e-02,7.387860098482030846e-01
1.708833287058543204e-01,7.258821492314372348e-01,3.217263078301093593e-01
1.446730545798149137e-01,7.032080859400816619e-01,4.196273096121863055e-01
-8.507888607267600767e-01,-6.215842283514610989e-01,1.727496717682649729e-01
-4.811906210531755046e-01,2.801072115442210797e-01,6.645702095229150119e-01
-8.183647747152041907e-01,-7.962741724716448921e-01,3.418304345229806196e-01
-5.656338644809213445e-01,-2.791181282524050067e-01,8.655168248720888080e-01
6.775798049644082832e-01,3.127979817013068486e-01,-8.836689851638104276e-01
-7.048823587215314879e-01,1.966116079482909951e-01,8.995852885282364930e-01
4.066997338694410269e-01,-2.464386119013662890e-01,-6.828543029725691049e-01
4.323366778012305844e-01,-1.969455402621980017e-02,-6.658323656482363351e-01
3.206713449005419991e-01,-7.412823502361611805e-01,-7.947636726725685330e-01
1.090868624631204237e-01,7.429041079777045642e-01,3.603307958197129457e-01
-6.444841567712074060e-01,-8.020888571203056427e-01,4.272914964983728914e-01
-8.045744439104798307e-01,-2.170959650804411278e-01,8.885500058940996038e-01
3.923902626780990666e-01,7.643358178144515902e-01,-1.145245108684521534e-01
-5.745663841653229076e-01,-4.283683828746114863e-01,4.296017723788649878e-01
-6.396844858217886065e-01,-7.434767450477355322e-01,5.218594226576002137e-01
2.627678717836814393e-01,-5.059887782445897653e-01,-1.044977707018134749e+00
-3.134140165190523741e-01,6.868889364102609418e-01,9.022755929989436652e-01
-2.758095738783545303e-01,1.275351668181941844e-01,8.623924965288627398e-01
-6.374820486485983234e-03,-8.648108744646515467e-01,-8.494774945088009455e-01
-6.420432985921484814e-01,-8.967004897303567645e-01,3.262507314236511302e-01
-3.272475681831205074e-01,6.883107542994004735e-02,8.354025022249701449e-01
-2.238912940573171140e-01,-6.083298353801793734e-01,-6.208576500528578679e-01
7.507856083694557370e-01,6.272235681845315103e-01,-6.390377667283674290e-01
2.853877557846487001e-01,7.257007368860773910e-01,6.917514795077475132e-01
-8.156498719471735326e-01,-1.347760591655370044e-01,6.225563096872991364e-01
2.547616105077171178e-01,6.361096767065673729e-01,6.555862104215347541e-01
-5.787748690951914909e-01,-9.284460979255375612e-01,2.198924637223839129e-01
1.069606685064537072e-01,-8.487526706289655332e-01,-8.071416994367579534e-01
-4.200808308069365338e-01,-7.095559637598268798e-01,3.461186533637244933e-02
-7.440725301411497961e-02,-5.084815480953357447e-01,-7.619172397388670470e-01
1.977019471264835904e-01,-4.604733777615228063e-01,-6.196761494405043091e-01
2.582555691976063383e-01,-7.611372780492626777e-01,-7.969020325987254960e-01
3.790341651913662346e-01,8.486168047725536345e-01,6.169398742524818680e-01
-2.739707778858113674e-01,-7.182077185369371009e-01,-2.799531022898709698e-01
-4.965306757365586243e-01,-3.443257569159973164e-01,5.334452922466647040e-01
-3.437611091564846122e-01,-6.519536008025516027e-01,-4.091420726951672249e-01
3.769534621504746497e-01,-3.803741135258056349e-01,-6.570803527023384438e-01
-3.453980613120817278e-01,8.744063464094239957e-02,7.804464973428598684e-01
-1.173979037191581233e-02,5.213007870280261802e-01,6.099736248258412763e-01
3.793733045538167370e-01,-2.616371626117038329e-01,-1.072965617733861787e+00
-7.015576648864879639e-02,4.345366194370298696e-01,9.117605723525887829e-01
-1.908147483012395673e-01,-1.038557357490561994e+00,-5.018626709862704649e-01
-8.026675505586451376e-01,-7.238782293478049357e-02,8.550596220647781465e-01
3.343884620593600698e-01,-2.281245003392160242e-01,-6.751042954033652510e-01
4.913430519395819429e-01,-5.357711751580060966e-01,-8.143534653740343021e-01
3.125899633386766130e-01,1.063165497358533607e+00,3.427969523833628851e-01
-7.450448191154007693e-01,-7.413926669888347420e-02,6.032207094587894725e-01
-4.553186655028861052e-02,5.326945289909780223e-01,9.410152863711389593e-01
2.941110061423902189e-01,9.969399583791183073e-01,2.070621775878475346e-01
-3.233116844848997473e-02,-9.634409120435912799e-01,-6.521376361074032735e-01
-8.425874414771236109e-01,-5.731655041174992249e-01,2.576705768149047948e-01
-3.249811884275671803e-01,-7.440308270112665490e-01,-9.468129106322846489e-02
-6.706479968049137153e-01,-5.009551592645143936e-01,2.054152606810618620e-01
-9.692652532687169586e-02,-8.672317319678432002e-01,-8.010248560745809598e-01
-4.722803269099195012e-01,5.214183524810868109e-01,9.105729841709278016e-01
-4.963041914039439950e-01,-2.449047370833367654e-01,6.168842911226715131e-01
1.276825138639821888e-01,-7.484844724658167303e-01,-5.776185772110711270e-01
7.053347977745466624e-01,3.808665932135406051e-01,-3.336482821488598871e-01
-8.796647696056365540e-01,-5.593407990156109566e-01,6.547297225828294653e-01
5.076237750107183144e-01,5.360783884069606486e-01,-2.642016094953197336e-01
-3.016527947378410193e-02,6.248420442281478193e-01,9.626842971044010655e-01
-6.293461461079663533e-01,1.643719266974949522e-01,7.029069795548475996e-01
1.081127319538080778e-01,-3.598454244971520666e-01,-9.053749876887283721e-01
7.315771229523786445e-01,3.693905363883479009e-01,-3.395513532982327720e-01
8.617908324873138071e-01,2.710093671060334053e-01,-5.904605190839729012e-01
3.206759954742065544e-01,-6.724424218856313029e-01,-7.265633461772877943e-01
-2.750416116299754798e-01,2.612113563679951955e-01,6.949213200681167990e-01
5.217869696509351840e-01,4.826998817585148593e-01,-3.630714310146279100e-01
7.024102722362114415e-01,-2.017921957359699314e-01,-8.251323808098255386e-01
8.806384557261143220e-01,3.243598410145144828e-01,-5.427734896002858189e-01
-3.006302792513856903e-01,2.848280851247327883e-01,6.834788775892413071e-01
6.124056732293136074e-01,-1.473858276594762207e-01,-6.445186007726955157e-01
-2.609971145713098073e-01,3.062553221428113703e-01,7.170794918848306665e-01
4.864404380212339341e-01,2.713711903229538702e-01,-5.935798003152367164e-01
8.585294848392380218e-02,-8.007907924302970493e-01,-8.912153483718281421e-01
-8.123761445455611740e-01,-1.437172266389721148e-02,8.273228043436671175e-01
-8.646831481163907984e-01,-1.990930529711908981e-01,6.100211614413375560e-01
5.622272498576237343e-01,6.483860301763383349e-01,4.799751048235362944e-02
-9.177491444432542833e-01,-4.891481010510575489e-01,5.564889872724479991e-01
4.688264483069712329e-01,1.027873515709576413e+00,3.540457020772009300e-01
5.079018156177936838e-01,5.238592570964698547e-01,-4.132204551619811372e-01
-5.637538138792885789e-01,-7.469973999074106530e-01,4.101157424980560462e-01
-1.174811743153206106e-01,-6.794423632033192995e-01,-8.655443614997292423e-01
5.493029572108689695e-01,7.187318626401707489e-01,-4.353003179070543127e-01
4.227438240662747537e-01,9.051973328101755589e-01,-1.251645478192290606e-01
-8.816646152527586322e-01,-3.100024029730151232e-01,5.664291212815900645e-01
7.853913893441756278e-01,6.309843338053539030e-02,-6.395581594399692982e-01
3.107584290655980852e-01,7.279133501840804321e-01,1.938162203937858763e-01
-3.775309677140725739e-01,-1.080971479698546123e+00,-2.959049859950612094e-01
-6.862839869310987106e-01,-8.183383346194805785e-01,4.043605481142709679e-01
2.779164399713349165e-01,8.146518051488431666e-01,7.261147277722558302e-01
-3.966604776900534146e-01,-9.912679916450028994e-01,-5.526724757843586300e-01
-6.425229813944680624e-01,7.242377194954957575e-02,6.310585425154294770e-01
-5.084155135931912595e-01,-2.789043523232636046e-01,8.472315144166706613e-01
-8.546109391811832490e-01,-1.390688411850189987e-01,6.847748220645472061e-01
4.977305412291938708e-02,-7.681635219974961570e-01,-4.680154722295308267e-01
5.644869522168239895e-01,1.154428626947018449e-01,-5.674709193077892566e-01
1.836534875779146370e-01,1.001622604156992447e+00,6.443937094052831771e-01
1.979777092732190201e-04,-5.398491345533457109e-01,-5.953139166933918425e-01
-7.004643461814596961e-01,-7.692825827152862672e-01,4.878956477373778688e-01
1.706009942320079464e-01,-3.418568156113981904e-01,-7.126171277900297252e-01
-7.891358729870504574e-01,-4.359116865471320823e-01,3.018170706396488545e-01
2.457024904109436081e-01,-2.396942942550470135e-01,-9.468670928002898002e-01
7.917771011207820342e-01,2.371259904405081942e-01,-4.964190542311323062e-01
-3.446668565177282706e-01,1.849521401581575852e-01,6.778191618282073394e-01
-1.544669422081066945e-01,-6.579707518230226704e-01,-4.122513428711331862e-01
-3.263455310136501031e-01,-6.753700813954914839e-01,-3.462509212010751458e-01
-5.963336040548763428e-01,-3.193789092990059753e-01,8.643709765577659576e-01
-8.434771162896035346e-01,-4.832079690018982188e-01,3.146959637092255346e-01
-8.801195014802820626e-01,-6.889030688113948475e-01,2.949278692190427931e-01
3.902774033056964353e-01,-3.218775868752150049e-01,-6.644734578065587538e-01
-7.283900755130369165e-01,9.528166156082858163e-02,9.230005571522625907e-01
-3.896758302045673084e-01,-1.058452236322012796e+00,-3.813316379738124207e-01
5.776236465785753588e-02,-4.279472148302755907e-01,-8.697245964357475101e-01
4.846176346947590474e-01,2.693952671197719084e-01,-7.996511870031599578e-01
5.630456224233115758e-01,6.347507302884298763e-01,2.442502408350053639e-02
-5.399860972131674819e-01,-3.602704444378452275e-01,8.206935587030032009e-01
-6.402969894702295051e-01,-5.448328596391772694e-01,1.139174222138363002e-01
-5.359111823378526207e-01,-1.035703716580285594e+00,1.237020870955750362e-02
