6.778910494200131032e-01,-2.244965953498642142e-01,-4.904733879549922904e-01
-4.453393035007539164e-02,4.650765881390246381e-01,6.580383209933355904e-01
9.580352127225351122e-01,1.297321827133001426e-01,-2.133273438636363109e-02
8.034011151712394661e-01,-3.504204473566940869e-01,-7.501749514034632416e-01
4.926643021084527452e-01,-5.318469507195503487e-01,-7.193343167742961564e-01
-1.144404329925129638e+00,-2.474475907002532393e-01,1.309658311888919069e-01
-8.048569188133010144e-01,-3.086288904742724992e-01,-2.852814788496216836e-01
1.671380945387014871e-01,-4.627321906080780201e-01,-6.483303327014674489e-01
-6.342829939680919571e-01,5.441399363758044061e-02,5.076233569702343074e-01
5.711935461589833229e-01,-1.327479456910438949e-01,-5.603130472212082269e-01
2.569609800940820046e-02,-7.397117190840287737e-01,-8.631136510939368955e-01
6.317419433298510079e-01,4.086782459198745610e-01,6.513610189500632641e-01
-7.277065283954131658e-01,-1.156613843840121753e-01,3.075372514620827169e-01
-7.845698523080647524e-01,-5.428146719677947596e-01,4.312944051315996397e-02
2.054470255984214566e-01,-2.702461405122369986e-01,-7.440133738438885480e-01
-4.695951888647347250e-01,-5.226123886845068789e-01,-8.398029017858927858e-01
8.656639762445104136e-01,5.929039171457088642e-03,-7.841771800199274223e-01
-1.101659392483903543e+00,-4.143448239013795831e-02,3.026354731187470004e-01
1.107048478263417346e+00,5.065493800112955691e-01,5.819569851682463400e-03
-7.137331238641072551e-01,4.086733838841268285e-01,7.260084669819489855e-01
1.029415371545679303e+00,-4.703574510293196537e-02,-3.950425680988350341e-01
8.921339393818444874e-01,4.526872825834975522e-01,-2.331777724961264231e-01
-7.340296603107655526e-01,1.865399605388444182e-01,4.651850574837871344e-01
-3.330970824598468161e-01,-7.518569828045721382e-01,-8.629576871533146676e-01
-6.644580597852612902e-01,1.697807959742511918e-01,4.832250821662978923e-01
4.091780708544390244e-01,6.443932136211831807e-01,9.117384740402004750e-01
-3.554567809875884277e-01,5.879280255671358590e-01,9.542776075601652197e-01
1.066887219041792401e+00,5.347423729538621773e-01,-5.168351875312431759e-02
-3.415175720954284899e-01,-8.002021329395951899e-01,-7.088143279179772716e-01
7.626832187941692265e-01,6.930986230877289600e-01,1.942663173489435902e-01
-6.856485993740456530e-01,-3.645510170201986533e-01,-3.454764358203906149e-01
-4.570269771676855330e-01,4.415045559302890332e-01,1.015632284863037249e+00
5.201542819991296085e-01,7.352789151116225774e-01,7.752734716001496995e-01
2.741377825104849286e-01,3.962865559028820317e-01,7.987797945641491593e-01
-7.847207550366245288e-01,1.916476932610246264e-01,4.373063594956823064e-01
5.994010564357372256e-02,-3.146088635006247247e-01,-8.036921381025173838e-01
6.776466687330802152e-01,3.527769804447384305e-01,2.199627240253924920e-01
-9.043756324487683962e-01,-6.773138580435447142e-01,-2.841811842085568141e-01
-6.523590702152931575e-01,2.417809448889930990e-01,5.304122592136850667e-01
-7.861335347089632997e-01,-4.225536076208313840e-02,2.612283899495511097e-01
-6.803352405644690348e-01,-4.189229816346449753e-01,-1.175900931816158818e-01
-4.846676092418258225e-02,4.907586534739682982e-01,1.032882273256081174e+00
-8.434055246929197391e-01,2.334757755274752544e-01,8.319880456761773457e-01
6.536059458851535275e-01,-2.317606900013347293e-01,-9.490760523222797618e-01
-6.617318004674203058e-01,-3.964401943901287861e-01,-1.669535628795044968e-01
3.239499538509109655e-01,6.575414494437076263e-01,5.283619167975752706e-01
6.114887661813732667e-01,4.146714492089453308e-01,5.780306688309618801e-01
-2.149362021432479897e-01,3.061319541861881599e-01,7.139200797239998453e-01
-3.770096133037602604e-01,-4.513083613509692449e-01,-5.785421790334385195e-01
-7.242003469836214569e-01,-7.306641277559103864e-01,-2.933664510819313787e-01
2.904976774318454025e-01,-3.849993239390275268e-01,-6.497052135419435492e-01
7.963457815927646455e-02,4.022846548351152185e-01,7.102288741889261070e-01
9.798817340449743618e-01,-1.701771410240240090e-01,-6.293266854117062215e-01
8.134257652466160560e-02,-7.345565849635362632e-01,-8.118644012428293255e-01
-7.602210077728570603e-01,-1.454553222491017650e-01,2.536906131441037382e-01
-4.226132237139536008e-01,3.626091390723024110e-01,6.230127228554989127e-01
-8.031074676385279165e-01,-3.885854608717804748e-01,2.820882521148079247e-01
-9.822818249488248776e-01,1.174181611246302853e-01,4.400678239730865804e-01
-8.035704642757276472e-01,5.934144274888169396e-02,8.267281233853200906e-01
-5.005184437490352023e-01,5.596838329701313564e-01,8.481008082969270223e-01
7.508092131829299243e-01,3.296758396331005425e-01,-1.877402050223526964e-01
-1.906422648262159347e-01,-5.816511161766999560e-01,-1.007910100940355047e+00
1.259059510753587074e-01,-6.034211454152957899e-01,-6.801704672559852893e-01
-7.428066298956866875e-01,-3.211292392082256142e-01,1.167605876369135626e-01
-7.957655770658399463e-01,-3.108190465109028078e-01,-2.941989541547253006e-01
-4.416600369844481122e-01,4.217550148966611734e-01,1.008205277268081845e+00
-2.445989196092452841e-02,6.088621982021871215e-01,6.454781749115029443e-01
-5.618781800918394298e-01,-7.312331091471033773e-01,-7.467604781881009846e-01
1.073484450736355234e+00,3.974651981592706718e-01,-2.335825117242212590e-01
-1.292678332336745783e-01,-4.697123387248510751e-01,-6.395427794280311717e-01
-6.772255188519811231e-01,-5.253659418272846882e-01,-7.176497034055790980e-01
-1.854442683873019082e-01,6.055227457735430363e-01,6.976464941609510362e-01
6.083135460160871144e-01,-3.923918269810452997e-02,-8.086964238591989318e-01
-1.052944967168076174e+00,-3.901583535853596074e-01,2.975262624332586925e-01
-9.233020818062374069e-01,2.054629006467494634e-01,7.001140524368609785e-01
4.258066688032270952e-01,4.124817139080251271e-01,7.620505588273087660e-01
-4.100576574419208531e-01,5.889680170456382813e-01,7.560704948953868021e-01
3.358409678883657601e-01,4.190162065132210789e-01,6.887535076432862446e-01
-2.975903969924487136e-01,-6.528449983431591219e-01,-5.025282386660339107e-01
4.983771960272747603e-01,-4.754229034793445163e-01,-6.819216851946634517e-01
3.774178671268763052e-02,7.408637427370198258e-01,6.839248530346668797e-01
1.087135538136194263e-01,7.725147492590968001e-01,7.150749904686327652e-01
1.083926198378493355e+00,3.627459329670416205e-02,-4.765786735784602324e-01
5.554167426092220250e-01,7.346669696129354277e-01,7.564831923368321442e-01
-4.705213064360571074e-01,1.096466094802569513e-01,8.274206873986875710e-01
-8.596609992950780821e-02,4.077552883079697543e-01,1.016350872476399214e+00
3.975133379509657172e-01,-2.305755161169853740e-01,-9.619682470597776813e-01
8.347402698901463802e-01,3.488982442525018768e-01,-3.788682010941774037e-01
6.697565053708245397e-01,4.013043038278079622e-01,1.378111775815836493e-01
4.876894727531035922e-01,6.050272697872018934e-01,3.558170001112120340e-01
-1.002276967023913556e+00,-2.687531773068869700e-01,-1.906203388983179203e-01
-3.673946537851913718e-01,1.737081662023121642e-01,8.030516134141306717e-01
7.295760438728260411e-01,3.392860066940065478e-01,1.484029617804709378e-01
-9.495482692167205307e-01,2.679008477576701533e-02,2.427456822740826914e-01
-6.064312213325671053e-01,-4.117447926902952915e-01,-3.692943621036946511e-01
7.655292588288673539e-01,1.009208651193105183e-01,-2.334483292880353278e-01
5.003282401745285934e-01,7.664641764849368100e-01,7.970181132619332809e-01
-2.194097254888749682e-01,6.820295382558350106e-01,8.190269391529474419e-01
-1.057222660214919951e+00,-3.336756684939373163e-01,3.744156555841314238e-01
-5.094093990732817545e-01,-5.915400818227933843e-01,-3.460786594054937049e-01
8.438980563997717788e-01,-1.340919846694262930e-02,-8.077931422578800147e-01
-8.055462059334577152e-01,-5.177216718054480360e-01,8.150565004772059030e-02
-2.666110092611014837e-01,-4.378046301655773576e-01,-8.908646028756745938e-01
-8.541822606886739777e-01,-3.530246398950850906e-01,-3.749379973023000967e-01
-8.659522522638810615e-01,-2.155960761444329632e-01,-9.338357752129440581e-02
-2.880437933027122366e-01,-4.130205411327846909e-01,-7.451662794839402082e-01
-2.715219418572448196e-01,6.676751280840077518e-01,8.723846823761285396e-01
2.440088971942162843e-01,6.195904371970765157e-01,5.410087866921935440e-01
-7.388502229100601948e-01,-2.906065738131075049e-01,-3.276140342034361552e-02
-6.730287167079057609e-01,3.424232800102229302e-01,9.504839995687218712e-01
-7.885442227761186862e-01,-4.735375907761875114e-01,-5.590519908922942927e-01
5.282251775584227982e-01,-4.516287025220227513e-01,-9.771295312178106540e-01
2.153562463555789563e-01,4.317285832317727667e-01,9.044172646800272553e-01
7.823570036210745204e-01,2.552139682449054425e-01,5.744047967421778145e-02
8.547158670590057072e-01,-1.196519806761427440e-01,-3.702343488617198530e-01
2.068821150763149319e-01,5.926040749437165855e-01,9.929851888967046181e-01
-4.564590368272072318e-01,-4.833405288243906583e-01,-4.178549807920239889e-01
2.124493545460734989e-01,-6.385882904085483647e-01,-7.408972678364665887e-01
1.837908003781555111e-01,5.961667709231838197e-01,5.765973160297109823e-01
-8.082608691189756278e-02,-3.689224866714998496e-01,-9.335962890583917595e-01
9.864174274755427296e-01,4.813205551507806490e-01,-2.371736845339014466e-01
-1.070663810174768971e+00,-2.613351796931361881e-01,4.174688410784336279e-01
-1.006704020384033393e+00,-6.204326979191371327e-01,-2.012485730998917477e-01
-2.165168285093211631e-01,2.597528730515772932e-01,8.866147992960550228e-01
-7.369792582502667777e-01,-2.266075693606772190e-01,2.819854868978789453e-01
5.769744652931652062e-01,-1.872719780271573818e-03,-5.559841749703001712e-01
-1.494687549609853387e-02,-7.394546664341201669e-01,-8.510598178245061263e-01
1.074451087081339296e+00,3.569502869426636193e-01,-3.242296334730721541e-01
-7.759511687085484111e-01,-5.109644241220898664e-01,5.945458322928205697e-02
-9.253685133384899064e-01,-2.821825336812629481e-01,4.906112329640806013e-01
8.806580049304420232e-02,4.321818318399460179e-01,9.879652385951893656e-01
7.098942926807260134e-01,3.403369229411254970e-01,1.101727610290021420e-01
-6.288261067911391500e-01,-6.209556732174152938e-01,-7.884814431336683027e-01
2.170463693259684912e-01,-5.534101347951365657e-01,-6.640763694929032734e-01
-8.829217843081238470e-01,-6.989817643736357944e-01,-4.495641285192626957e-01
-7.577739265974771099e-01,-2.685769272061957480e-01,1.969031747085608353e-01
-8.852684532197923062e-01,-4.422389552057809925e-01,2.699832621899838081e-01
-8.055217211670927524e-01,-7.429716447310212857e-01,-4.993762934754978344e-01
-2.656545684728996992e-01,-4.084589179805142578e-01,-8.755133990774479624e-01
-1.006419679546731727e+00,4.499346315854631240e-02,3.216193192169108372e-01
-7.070020710281876841e-01,-7.535278618770524517e-01,-5.775953180697377398e-01
8.112475566489711909e-01,-3.197859719359718023e-01,-7.802941544311666755e-01
5.135983387261671140e-01,-4.540866210951639004e-01,-6.697053785871759368e-01
-7.752214366893269704e-01,3.299143267201483098e-01,6.297497065050292608e-01
8.452770675648993981e-01,5.538320486138398335e-01,-6.355325774649682458e-02
9.950967296865342870e-01,1.325625282189779597e-01,-6.137094687424048400e-01
-6.114679269133378725e-02,-3.602605329355793584e-01,-8.703277815621757174e-01
2.888990147635968619e-01,3.930497855147764841e-01,7.861221566637269786e-01
-9.999711667658384151e-01,-1.721358548482150030e-01,5.624367060331691981e-01
-7.459011715036557577e-01,-1.007885994839684413e-01,2.768276804929999391e-01
-6.439839361140661800e-02,6.942087666751547426e-01,6.821619676517467479e-01
-5.210769854796725165e-01,-5.765592733296165395e-01,-3.257059795041100658e-01
-9.464386966941040757e-01,1.913993902380318468e-01,6.615009137434532116e-01
7.910574207384627465e-01,-3.383683968000541498e-01,-6.621932135138640652e-01
4.945934187629708600e-01,-2.281667186883876985e-01,-5.896607833666523968e-01
1.004859464290020821e+00,5.174159968198076553e-01,-1.264098544639747912e-01
5.367545677118870096e-01,7.843941617245883124e-01,7.027176047403612680e-01
6.401930990864200810e-01,3.176832053190497412e-02,-7.242856616115048718e-01
-4.249228569204256400e-01,2.951599853487820169e-01,6.171693674547225061e-01
4.701159797759414394e-01,7.685416083120023556e-01,7.894494100739257725e-01
2.096431963101279550e-01,-6.626902009899036106e-01,-9.264142077485532090e-01
-1.195293923971186764e-02,-4.525236393663633061e-01,-1.030607174324245534e+00
-1.832783604887812112e-01,-3.978207250613475798e-01,-8.248696659409310294e-01
7.100981764217751957e-01,-2.467765988849193737e-02,-3.697120007071049708e-01
8.426494219380022133e-02,7.615340325890469497e-01,8.287081280595047783e-01
-2.527544458587565601e-01,6.532866643333975487e-01,8.779070601312879418e-01
1.097851417407024605e-02,-7.625071150188222902e-01,-8.894974725645155011e-01
5.831230376492215761e-01,-4.514383096198401613e-01,-6.822358523041789358e-01
-2.926706469534768318e-01,5.513560144091996795e-01,1.023777944132594264e+00
9.543739688332507631e-01,1.216076045784411364e-01,-6.362411514825336289e-02
-6.984111248759701240e-01,-1.419252639053420473e-01,5.298266866238254824e-01
-7.128589910629776760e-01,-4.168764805550613795e-01,-5.250745712938388321e-01
-9.736884801041509885e-01,-5.810095527593269749e-01,-4.010877570434259742e-01
7.218600744654587453e-01,3.889842835018835210e-01,2.795476891662427785e-02
1.102526580436467230e+00,3.578196375812425223e-01,1.440913095949746259e-01
3.964922356662318181e-01,6.147908183909668312e-01,9.030090693578241012e-01
3.722392843515776595e-01,-5.680951365389305119e-01,-7.242383107736948267e-01
-7.039814565165799509e-01,4.334200121145435625e-01,7.680556339111010988e-01
7.259010570833843712e-01,1.142777066844529177e-01,-2.776635700875248469e-01
-1.908605837550905460e-01,5.552722395767824004e-01,6.849828505110210353e-01
4.184758462151543235e-01,4.087251415034565682e-01,6.623303131183108095e-01
1.026755104011027209e+00,6.922997824759556662e-02,-5.666992224970845982e-01
1.135368905851369625e+00,3.394526480969896620e-01,-9.349087673781876495e-02
3.871438419195983305e-01,4.837640452583473749e-01,5.181629453383161943e-01
-8.472186303986248834e-01,1.095871987898561510e-04,2.243951853713286315e-01
-6.809242512411670667e-01,-9.352827844761046894e-02,5.659840554187582917e-01
-5.284476274887440761e-01,-4.702371976405868015e-01,-7.706408618437422531e-01
4.722493183544138051e-01,-3.899494597856955624e-01,-1.017776175062565569e+00
1.021003044551492156e+00,5.997805366467028332e-01,1.998798047513976883e-01
6.893799045172158690e-01,-2.577668180867956349e-01,-5.136717987157077836e-01
7.987097644306556665e-01,7.019447910824382353e-01,2.519141059660987558e-01
-2.173480922106527449e-02,3.481053463567225781e-01,7.989530457645643846e-01
4.732892874703216179e-01,-2.388900107953498830e-01,-5.967010143236922692e-01
7.328210492124983544e-01,7.275839969621357151e-01,5.748148148446871053e-01
8.359129401032192042e-02,7.342052305473578677e-01,6.864891460931860090e-01
8.405349879951738989e-01,3.091743925945891203e-01,-4.190048341652483077e-01
4.406026399640537994e-01,6.652119405494980597e-01,4.205615834935546027e-01
-2.598290697268075267e-01,-7.517845541141091603e-01,-8.846138705998453089e-01
1.879166758451908947e-01,-3.577316781003235802e-01,-1.030522912685408743e+00
-9.762627061688130548e-01,-3.986245347886976376e-01,3.174331125538900622e-01
-9.401396954643510551e-01,7.797957551787746029e-03,2.434043572271171463e-01
3.138475361207731518e-01,5.839953689532856318e-01,9.596281113315611178e-01
7.838724135571959462e-01,2.851819055771420697e-01,2.210752608687894527e-01
4.836282126045521879e-01,4.806080264544586034e-01,3.896154116027807368e-01
-3.198255934511529675e-01,4.759963705874545870e-01,6.552534015624273955e-01
-1.008329727818344068e+00,-5.499854433305052526e-01,3.197268693584452703e-02
3.080693526418745720e-01,-1.877177706381030764e-01,-8.819025715399080312e-01
-3.794156131073521676e-01,-4.097394489129101980e-01,-7.903318210801961730e-01
8.644278071110139683e-01,3.024948775270996371e-01,3.111941843766566351e-01
6.923924013876463501e-01,-4.299570897448216633e-01,-8.341065410273890146e-01
-6.808102327414239374e-01,-3.815820922210536037e-01,-2.537073903453440082e-01
8.151104100979619238e-01,4.413470617019570885e-01,5.308719357360009994e-01
-7.680620042666452818e-01,-1.748752662370412492e-01,1.231591802914843437e-01
2.367374875619055186e-01,5.487067716784583826e-01,9.772788716488597371e-01
-1.091148718156424557e+00,-2.497810806068337663e-01,-8.166340609803557490e-04
5.774858844548392822e-01,-2.366890854864561189e-01,-9.678108788000768792e-01
5.070732954727492636e-01,4.891073647168924232e-01,3.618247230103603385e-01
1.004627907959019018e+00,-1.295781613013925193e-01,-4.909112378963310097e-01
-9.466076931506298697e-01,1.989307629142550438e-02,7.190910942527065641e-01
-1.256319166418056466e-01,6.291274824148173073e-01,1.022308729224054469e+00
1.064708551052920615e+00,5.363229615667175487e-01,-2.527088021891764347e-02
-6.993334151182358793e-01,8.262834324925324991e-02,8.935505820337540372e-01
-6.403803547756828918e-01,2.400655252460354161e-01,5.094744705297242771e-01
-2.161407261962926818e-01,-3.982512371408321594e-01,-7.812869220504656820e-01
-3.294386777020198442e-01,-4.913883938877580682e-01,-5.614276645475045902e-01
1.214368875779468920e-01,-3.867877508265462616e-01,-7.188603744755351910e-01
-9.468702683029446288e-01,-1.044731960380003988e-01,6.445039649752745681e-02
7.825334960565329956e-01,2.044013393144807067e-01,-5.477097624780405960e-01
4.327214604779514584e-01,7.842046525705079763e-01,5.519216176841098553e-01
7.867436002199121869e-01,1.979028875970684498e-01,-5.663876590073995132e-01
-4.554270156276823411e-01,1.880317752816214605e-01,6.270628692303424900e-01
3.897169455291207285e-01,-2.599062556315600570e-01,-6.343025954114670517e-01
-2.856918772506569781e-01,-3.965126660214154941e-01,-7.762495140516662007e-01
-1.545550841267161468e-01,-3.910529684021500363e-01,-8.177153642081215201e-01
7.679972563392343243e-01,3.623015009852125767e-01,-1.936992807927086502e-01
-7.683152060460188837e-01,-3.036259722597879906e-01,-2.854486538063288892e-01
-7.441517577444023424e-01,-7.715318050961319507e-01,-4.519244164168226274e-01
1.563389524858702362e-01,7.848775456298883180e-01,7.023054190628540416e-01
9.368300354277264708e-01,1.263615873864964989e-01,-6.650463475773842337e-01
8.533059425079608795e-01,3.108338669492493045e-01,2.944991521104524668e-01
-5.102095476352973558e-01,-7.925107732761115242e-01,-5.590132257027798923e-01
9.323848516884682969e-01,2.850689376629746974e-01,2.746477947280253629e-01
-3.869145035160032053e-01,1.794736165698103125e-01,7.219980531176475314e-01
-1.338558711995635475e-01,-5.645939190850777223e-01,-6.010885041187230549e-01
-5.760157163592121154e-01,-5.463698600072764977e-01,-7.855180467930318322e-01
6.764401487572370142e-01,7.635105958339751808e-01,4.010205128265629804e-01
7.280595037534253189e-01,4.558069317267494647e-01,2.174476815587470663e-03
-8.926612818759477319e-01,-6.889038429868157287e-01,-3.460074470221320420e-01
-3.660573453209368666e-01,3.312927641933672840e-01,6.394345997955275251e-01
-1.067489989055421473e+00,-3.326132033861921022e-01,3.685933456258563834e-01
-7.442266983383840628e-01,-3.277138108717406184e-01,-1.448136106229605258e-01
-2.795092557059724592e-01,2.191929727018430418e-01,8.315739411022560201e-01
1.124357923808302351e+00,1.452747166550230618e-01,-1.707418630668943726e-01
1.042003664599960855e+00,2.707362185866357684e-01,-4.988531647667723279e-01
9.059618025045609313e-01,2.070300034181767335e-01,-5.875804105304889280e-01
-1.900772528203951706e-01,3.341831620848703666e-01,9.963453862717219778e-01
9.760742881191105669e-01,8.545351213432250681e-02,-1.199326212968787470e-01
3.268845469272040893e-01,-4.609227482087896455e-01,-6.410554957373963969e-01
-1.045789164996922649e+00,-5.555916901280221615e-02,2.329869642949184416e-01
7.550831083190331361e-01,6.621607509802470704e-01,6.436518070954651005e-01
-6.712241947808363918e-01,-4.199661013745841776e-01,-1.631598926473335487e-01
1.345884452896042582e-01,-4.720550067881241207e-01,-6.574528328582044390e-01
-4.784513067700378874e-01,1.171438912448849873e-01,8.738830725949769951e-01
-8.021063699526119750e-01,-3.836329174140373777e-01,-4.811824962956786633e-01
7.345856355740103538e-01,4.960167249997802230e-01,-1.008869778617146364e-02
-5.964487182661084479e-04,5.613744549321122435e-01,1.044072910219611794e+00
-8.367063910605437860e-01,9.232226221472990269e-02,3.097582955737342991e-01
-1.987195076463507404e-01,6.938222056322460585e-01,7.891925341782808356e-01
-9.980311654314798497e-01,-1.437048627787268495e-01,6.155911072900436265e-01
-8.992393232551583182e-01,2.342653080102571894e-01,6.930432602090512706e-01
-1.066368572119164915e+00,-3.158731834564930119e-01,-1.639500125191933888e-01
7.314253971466895266e-01,-3.255096016463581571e-02,-8.437379141716901954e-01
6.621586369869613131e-01,3.812281208706861935e-01,4.835659442833963317e-01
3.442492382049121002e-01,7.524565811559147388e-01,5.567019956102030598e-01
1.021174711543808428e-01,-4.042036895977960675e-01,-7.011633828082179942e-01
9.704651978153198133e-01,-8.321262581562459404e-02,-3.605880156130523706e-01
8.544351622698720394e-01,-1.214719829330726227e-03,-2.399868256471687777e-01
1.804274409733945539e-01,-7.212305286256097681e-01,-8.363869581471713444e-01
-7.840378331821150626e-01,-6.341398847125372384e-01,-6.517757476745557055e-01
6.640182415822863948e-01,4.116387847529971722e-02,-4.513264633507124701e-01
-2.364978702643196762e-01,4.526650349923469485e-01,6.524953796643450099e-01
-7.008414974061618619e-01,-4.769065811065668070e-01,-2.885774320815404081e-02
1.113632608709443028e+00,1.560663173661148151e-01,-3.376214485922144348e-01
5.474863208099888245e-01,-5.812767643371455351e-02,-5.903033520215628105e-01
2.821118736224462187e-01,7.671395294287094435e-01,8.527962774349396868e-01
-6.459323533156688946e-01,-2.177488281939475578e-02,7.605440850266880215e-01
-2.398965067980529942e-01,-5.555726664452590446e-01,-9.797052752888472105e-01
-6.078046819813212043e-01,-5.334215859405786464e-01,-2.191968549134119260e-01
1.011052947797877355e+00,4.799733690866604674e-02,-1.808909516549848107e-01
-8.683721881666817133e-01,2.204426140310371540e-01,5.000573070385201380e-01
-6.633900390181365347e-01,-3.892860191487297339e-01,-4.174454648093377518e-01
6.473802268923308789e-01,4.204407989903079512e-01,6.155065172041694899e-01
1.131081777402316302e+00,3.771634194197389656e-01,-1.801824850532925126e-01
1.648426989088779826e-01,3.997512800254930387e-01,7.040366591175929445e-01
-8.472386956460734586e-01,-7.339176060959588799e-02,7.092650098737349751e-01
-1.922206237764049197e-01,-6.886016528167806516e-01,-9.640391504738540229e-01
8.588049852568536702e-01,3.785921089284851049e-01,-3.666665316435234190e-01
1.641685714876122415e-01,-6.245350748677840347e-01,-6.806861717557217695e-01
-7.644966454411635803e-01,-2.979602491571110567e-01,3.393456716528093220e-01
-7.999690531577509089e-01,1.953064124899290821e-01,8.588517439167953071e-01
5.244919235219365206e-01,5.434245417569261161e-01,3.339098947594809630e-01
1.133718714370487213e+00,2.799325802464019963e-01,-3.314159734606781371e-01
-1.047967204756127035e+00,4.548877666482183807e-02,4.931808521857339311e-01
9.443900970306373654e-01,-2.701967306410886678e-03,-2.482626676473951577e-01
1.045693525441573790e+00,-3.468106913465167362e-02,-4.237907047240233593e-01
-9.999442292023794643e-01,-3.642917716491881341e-01,3.726549178734364642e-01
4.951933276990063693e-01,5.874206725864464795e-01,3.507270890987309597e-01
8.114734098071116342e-02,-4.350219251768465689e-01,-6.690421523875887955e-01
-8.958115678284050976e-02,-4.056213026703962554e-01,-7.387837525162559427e-01
8.463319279978628318e-01,3.065293897354107178e-01,-4.554959917647946610e-01
-3.149599107958674926e-01,2.135342615982913916e-01,9.384981831983680856e-01
-1.814368117083132725e-01,6.952260755850154794e-01,7.792145430721365562e-01
1.018183189274891154e+00,-2.226923893517466710e-02,-6.073195311243688721e-01
2.783764853312651472e-02,7.229495460829674647e-01,8.743862045674815064e-01
6.060939782673729903e-01,4.033992068518184593e-01,3.423555078254431616e-01
-6.005186487092636360e-01,3.462406087067917970e-01,9.845610435826522844e-01
9.447406435048906204e-01,-1.663077516957481988e-02,-7.442686227057834225e-01
-6.854509976106033520e-01,-6.907802430469140997e-01,-6.790879988850462290e-01
-2.258741790353011869e-01,-6.841889767611044615e-01,-9.759774976976646199e-01
7.274922960874203870e-01,5.267265592102564342e-02,-7.634689120008311125e-01
7.279575711782840797e-01,7.465617490578252413e-01,6.275949448504861694e-01
-9.998840916526944289e-01,-2.470347328348721505e-01,-1.283763139768714368e-01
9.753802060730771828e-01,4.474715597272583278e-01,3.780383996636631494e-01
-9.034448515403110669e-01,1.837671508842227963e-01,4.532361811645895244e-01
3.075475979691031925e-01,5.936084182079929272e-01,5.238025205127282424e-01
-1.026975955180705169e+00,-2.900709846654159901e-02,2.263618795200602607e-01
1.234963705198098977e-01,4.895294664884513036e-01,9.893893918026953616e-01
-9.888532148115927178e-01,1.153472604544107660e-01,3.964435396005472900e-01
-4.911756428989810797e-01,1.176068337307972361e-01,6.915529711661759782e-01
-4.098531341312952603e-01,-6.772955445087588400e-01,-9.077410485222680014e-01
2.641091058829504457e-01,-2.784558903495827908e-01,-9.294011165294738808e-01
-9.617430757577409839e-01,-1.547148391422298042e-01,5.995967774385703164e-01
2.293970146910125352e-01,7.933707988416169865e-01,7.746778193124090883e-01
-9.284689806125051570e-01,-4.008637279594988168e-01,3.299688200476293964e-01
6.892412977722277567e-01,3.575738742820243621e-01,3.060164527012970148e-01
1.071900872794476767e+00,4.637490999360251998e-01,1.778246462302633113e-01
-5.566154633299361665e-01,2.685690619895218512e-01,5.730328207256856210e-01
-3.354558793703284192e-02,-5.595334171104106025e-01,-1.034858781528379845e+00
4.237244168194982397e-01,5.965050411990351353e-01,4.196097451970696723e-01
7.358114419536349038e-01,1.793710683425856767e-01,-2.623967880089331239e-01
-1.858876381393116672e-01,-6.010669281930776098e-01,-5.706376247362077159e-01
-1.152018452594041564e+00,-3.044215374689127618e-01,1.589914184944122288e-01
-7.578581526601469998e-01,-1.542182860803459898e-01,6.349999629900917597e-01
6.311589630596080580e-01,5.017374640659433283e-02,-5.941109985349368738e-01
1.053589691486372049e+00,1.962273525768949978e-01,-4.652685294980412429e-04
8.276003544046800497e-01,-2.818565453034188040e-01,-5.429784784655915519e-01
3.308951266457164642e-01,-1.936612533204477571e-01,-8.085908771408086837e-01
1.117047615657462911e+00,1.950582711502775735e-01,-3.215744926745788268e-01
6.948209681630247436e-01,1.017323246769262640e-01,-6.498960933315058863e-01
9.391064131416999583e-01,5.625576955196668338e-01,-6.210407662295461262e-02
-7.373171378007802312e-01,3.394567966311582974e-01,6.099742253184202712e-01
8.073412143493602366e-01,-1.239209753427139987e-01,-8.459951433273791288e-01
-6.968561184180818158e-01,-1.372709729879134921e-01,5.014974636892464144e-01
1.614872829544295452e-01,-2.972271128355592484e-01,-7.900514256535327018e-01
-9.522579650644257265e-01,-1.668553544589433113e-01,-2.713261847848162656e-02
-3.505834567658351331e-01,-8.009591334196524137e-01,-6.139627482082116172e-01
-5.985568668377977408e-01,-7.970936557803256495e-01,-5.127106658011194584e-01
4.239480798257205807e-01,-1.492208194477961658e-01,-7.479974205518002961e-01
6.896752852112133514e-01,4.976563172356990306e-01,7.375644806426062683e-02
1.761819999296268535e-01,4.676321992768849856e-01,6.285113553057618541e-01
-1.084672515455609165e+00,-3.270474272454269860e-03,5.001736647773838973e-01
7.769396136056896385e-01,3.676314639242359572e-01,-2.242826224891963371e-01
-7.442417181461358222e-01,3.318742335531705834e-01,5.518140350736285837e-01
9.430459068872382167e-01,4.963581954105811267e-01,-1.895987542163674600e-01
-5.639248639062600654e-01,-8.110767517730655962e-01,-5.569417717689127967e-01
-7.953806186723486604e-01,-7.557440033899677223e-01,-3.779363352762367678e-01
1.083326074600426514e+00,2.073234366836079201e-01,-4.315558246500793005e-01
-5.418900864907818526e-01,5.704840860802713742e-02,7.933788699845671921e-01
3.721531752903863705e-02,6.932066175530506857e-01,7.036589681216633974e-01
-5.324379384179769303e-01,-7.495463391693562016e-01,-7.385655257132857088e-01
-1.607710409985627087e-01,-3.780242342798154631e-01,-8.581224171102536102e-01
9.984906074469436232e-01,4.350285090141723376e-01,-2.885387038161223994e-01
-9.796200716521776819e-01,-3.467118670148921500e-01,4.374474933324681292e-01
9.508773866466116997e-01,-1.116073952583118527e-02,-2.406129968369389582e-01
9.740573288862380830e-02,-7.062217196955625775e-01,-9.336176420187806135e-01
9.154706068923600393e-01,-7.304569850030594169e-02,-3.234257817279447833e-01
-5.671967428031525760e-01,5.734702438666193502e-02,5.786803492809449168e-01
-2.924306883961779180e-01,4.312447091523924358e-01,6.527820991589264876e-01
-5.053613368059718391e-01,9.443170368826547811e-02,6.877013964902974896e-01
4.533318581747358689e-01,5.399808543091307866e-01,4.031435564359925339e-01
4.079469099571750856e-01,5.284329879945643960e-01,4.958395705072943249e-01
-1.057270722488679038e+00,-1.437696110976929287e-01,3.949690951387960225e-02
-3.678715581474663598e-01,4.474661202856044517e-01,6.450601638891175771e-01
-1.131835196958817402e+00,-3.197551718759241157e-01,1.932025496468224857e-01
-7.299501234611748268e-01,-1.073647595713032171e-02,7.835978034977172380e-01
8.457899458834367001e-01,-1.269710093142978335e-02,-7.888637371960290912e-01
-6.309274385261536278e-01,4.714485772962234700e-01,8.511379216281378390e-01
3.209351321657309408e-01,-3.814146786599809102e-01,-6.662958396222866675e-01
4.483721240957647680e-01,-1.957906463299270983e-01,-6.255110540340474978e-01
2.555787866358646965e-02,-7.688262971608800234e-01,-8.320047170804180103e-01
4.027658697247040176e-01,5.828768566352041658e-01,4.378115619901223332e-01
-9.930497813298985177e-01,-4.120325269366177379e-01,2.921741168761146645e-01
-9.120581546480229784e-01,1.572947522725600678e-01,7.920859109149885890e-01
7.174379424742006739e-01,4.863422860143261084e-01,-7.014539263372504552e-03
-7.557535459075236384e-01,-1.182435573885694535e-01,3.362123184459277492e-01
-9.725617805034603158e-01,-3.670979021002462317e-01,3.919870944583794814e-01
1.162713341819095886e-01,-5.239784593399071655e-01,-1.062533555851951528e+00
-5.786060480593083200e-02,7.130035294718019001e-01,9.340364659943769521e-01
-2.844329128526303374e-01,2.065899744633439006e-01,8.440826135071090031e-01
-3.117612258548531079e-01,-7.176975846165485340e-01,-9.258863945941486762e-01
-1.023440541263942904e+00,-4.917031946454943347e-01,1.831074334291164230e-01
-3.538243892249400835e-01,1.810191297146482026e-01,8.073205093500962493e-01
-4.080679476816844176e-01,-3.985169431672044293e-01,-6.930523197284735870e-01
1.028768439531477119e+00,2.170110558799345224e-01,-5.099013639674386811e-01
5.086660603771293587e-01,4.687517050825348308e-01,7.798323653661590749e-01
-8.508134171717416372e-01,2.463183193549353389e-01,5.352284308347279307e-01
4.439619217570839882e-01,4.065278322197766192e-01,7.327791017377162097e-01
-9.703849135097378786e-01,-5.452568952456008367e-01,7.995773427905035480e-02
-2.103157736168413949e-01,-7.598712795832918143e-01,-8.727326723053325797e-01
-7.061174839937990333e-01,-4.215745145023985230e-01,-6.934391726013137969e-02
-2.133965231159295761e-01,-3.766420650057464292e-01,-8.106851935591703473e-01
2.974241714583240534e-02,-4.713816660881661735e-01,-6.418995522730850389e-01
-3.806120865284951665e-02,-7.561704911944194807e-01,-8.413300643983162574e-01
6.575012678022871260e-01,5.347562347652715653e-01,7.253688995162512754e-01
-5.447478247813606345e-01,-4.855934486178600240e-01,-3.697362081788873045e-01
-6.604246441882622998e-01,-8.658387113322552064e-02,4.538825192180236945e-01
-5.588328463028306992e-01,-3.884191268557423138e-01,-4.974423234937960792e-01
2.285943936436437840e-01,-4.856114289509011472e-01,-6.560938286877571191e-01
-3.542643277843579575e-01,2.084292244067337818e-01,7.530580754709415015e-01
1.625300215546805482e-01,4.358390774428793635e-01,6.539024750560032961e-01
3.368743029329574479e-01,-3.646320582132089871e-01,-1.056973269318210562e+00
3.419950180957498365e-02,3.747189707536119907e-01,9.399294300815475012e-01
-5.967338080922252042e-01,-7.965345698083856618e-01,-6.134486407813118936e-01
-8.380076336725248431e-01,2.846291169379158714e-01,7.728981967971793043e-01
2.655140869921031044e-01,-3.309962333760322895e-01,-6.629977405580990135e-01
2.740111644228334087e-01,-6.698287255188483114e-01,-8.172439498874435326e-01
7.338401927325827190e-01,7.665688594338708750e-01,4.683949890781020642e-01
-7.581947257025176690e-01,2.663991482448146431e-01,5.278597251246159860e-01
9.854151174633023202e-02,4.476309245263259129e-01,9.804399559091236949e-01
7.027693899042392056e-01,7.233215767541708585e-01,3.258625341305012579e-01
-4.047767452616840567e-01,-8.002480432523052523e-01,-7.418261572946844851e-01
-1.037465597232659187e+00,-1.089791862843442483e-01,1.290545982010786463e-01
-6.237957982196672413e-01,-4.918000181068733490e-01,-1.927971357822260701e-01
-8.469360391198785809e-01,-1.259648456798989624e-01,9.875444205511949014e-02
-3.978044784320375893e-01,-6.784634605688082409e-01,-8.857569519374942635e-01
-2.757331083585631282e-01,6.439141333983176008e-01,9.129155529165874361e-01
-6.233135511393851358e-01,-3.213324151660737829e-03,5.461797330538797901e-01
-1.725008586190203697e-01,-6.919556772421627810e-01,-6.337316822729005539e-01
8.359413314992137911e-01,9.677371136633597382e-03,-2.344912658028862340e-01
-1.111124345063146501e+00,-9.635440089903186955e-02,5.210199278314900928e-01
7.282614395201310042e-01,2.375497569948415988e-01,-1.675404864288396745e-01
1.528750180184937080e-01,5.200503490005727869e-01,1.012064940397880086e+00
-5.565170404906788493e-01,4.155054016131863315e-01,6.594065276351730454e-01
3.345375212798942788e-02,-3.277725653677893702e-01,-9.232155504188573891e-01
8.541449237384052262e-01,-1.271708660332512841e-02,-2.392160146968633216e-01
9.515856807026027431e-01,-1.504969178176954470e-01,-4.864242085098592350e-01
4.986545493887530739e-02,-7.114807057417302794e-01,-7.577696500877508790e-01
-2.004534639931913609e-01,3.306375661301098057e-01,6.908633081482353777e-01
7.273209395985108516e-01,1.882859162883024906e-01,-2.695075993644959200e-01
6.173561022948433896e-01,-4.780423368985386445e-01,-7.780043018876480199e-01
9.874998054085536436e-01,-1.148745814836184403e-01,-4.324169539073835500e-01
-2.102629114323083526e-01,3.641109035854087073e-01,6.796041031037582947e-01
5.427175802023590512e-01,-3.950328230871314461e-01,-6.013104143147844916e-01
-1.695824863611053446e-01,3.623986703744492832e-01,7.183479643373191781e-01
6.243960195180855433e-01,3.012299889292216828e-02,-5.213691760830617694e-01
-1.959668942864032926e-01,-7.040559512679207543e-01,-9.533119180027124218e-01
-8.157407714351333494e-01,3.413297729802867164e-01,7.501236892151504909e-01
-9.224971488849835755e-01,2.140459852887009462e-01,5.124686666177413752e-01
7.913907625216521913e-01,2.961519505254951445e-01,1.574876783057792828e-01
-1.099391879375579695e+00,-1.229518218542153055e-02,4.270780653484250733e-01
8.522329831315594850e-01,6.601636500358672999e-01,4.894419881075142142e-01
7.406777510550724974e-01,2.331973040483065751e-01,-3.164797096093099338e-01
-8.944696389541969550e-01,-4.017645962901429391e-01,2.872763034668441295e-01
-3.192802808676034054e-01,-5.012495130657222964e-01,-9.334986989055059636e-01
8.715335450580317112e-01,3.850313718161915144e-01,-3.161893712646253740e-01
8.117579561902589225e-01,5.956572089343648013e-01,-1.492028807177447555e-03
-9.844627636134258841e-01,1.269171613080931071e-01,4.571663092330671141e-01
7.925839617362884226e-01,-2.938573564458423215e-01,-5.615284531689951342e-01
5.918261111951825804e-01,4.801892733761825016e-01,2.883634681115207488e-01
-8.046007153805546652e-01,-7.530401373926430830e-01,-4.291118415125531604e-01
-1.034461190398007879e+00,-4.052080886757273293e-01,2.643241266498453368e-01
5.400202073523450164e-01,5.487799423623533901e-01,8.218007420526516338e-01
-7.480118042026440150e-01,-6.540828658375842375e-01,-6.767958161085434465e-01
-6.028016730490292074e-01,3.443940546414715476e-01,5.782203269879336860e-01
-6.776871337779787341e-01,-3.721779058777582166e-02,7.703442061853942313e-01
-8.943523610335428753e-01,2.585496535934721507e-01,5.932136949115750513e-01
-2.630213222239068949e-01,-6.765733165758849310e-01,-5.335347852236502764e-01
6.157456761315656113e-01,-1.450984342758902534e-01,-5.037851970097777521e-01
5.558709950258969856e-01,7.614052773578243727e-01,7.506591356131226966e-01
-1.831343481848362320e-01,-4.471890890820911513e-01,-6.421211068037252501e-01
-1.033730875006173999e+00,-3.590559897709648118e-01,3.506671209140647116e-01
7.329970930626183989e-02,-3.503967033218783889e-01,-7.250125897868282543e-01
-9.312792360632197175e-01,-1.629730223455030241e-02,1.905291343870531007e-01
2.153395501734295947e-01,-2.867338310090044029e-01,-9.411657389677134944e-01
8.631239441964737580e-01,-1.506727138384610920e-01,-4.023510666875739217e-01
-2.952079265897467608e-01,2.979844869038503763e-01,6.606806171786941961e-01
-3.960189078762381132e-01,-4.844165833935552556e-01,-4.850219732409606910e-01
-5.622607039851877930e-01,-4.200336803208494785e-01,-4.358330655647078000e-01
-7.756346123680264437e-01,-3.122687217526499970e-02,7.759959218297333150e-01
-1.002618336478532823e+00,-3.221481908011003537e-02,1.941540969814912754e-01
-1.129391578692058751e+00,-1.939938510982480990e-01,1.517276206274669748e-01
2.687491408278478433e-01,-4.404310067223009550e-01,-6.566894518834054395e-01
-7.021358090196064827e-01,3.929286576702215594e-01,8.626546825427469090e-01
-7.942807735097953126e-01,-7.237606177392479356e-01,-5.127093020249027244e-01
-4.697035489832249860e-02,-3.648265717077739945e-01,-8.986609713534127186e-01
6.466867461450233057e-01,3.823761763583978512e-02,-7.260883001654387936e-01
7.885033796768594616e-01,2.848382179571472550e-01,1.328723227854322342e-01
-7.404902080525754826e-01,-9.220081541648977863e-02,7.335468335630237480e-01
-8.301422638352904393e-01,-1.749952114079610099e-01,6.384084099569266833e-03
-9.586311241208922418e-01,-6.507751931665057832e-01,-1.324915913645134113e-01
