1.132452147624991717e-01,-2.457928926887549825e-01,7.618037858401139895e-01
1.259315689581576303e-01,-4.906451787644109525e-02,9.539656869609689505e-01
-3.294146761366610332e-01,3.287144515855521254e-01,-7.607187685748110217e-01
-2.806655019748686142e-01,-7.553737184406097982e-02,-7.533764668527037633e-01
6.107986770105476859e-01,8.469598155066693224e-01,7.863155934516832118e-03
-6.201559762302407686e-01,-8.981712170505090631e-01,-4.597075506612289253e-01
-1.192405265225469496e-01,7.766107642100358310e-01,-6.299233996919340051e-01
-3.137876035138895681e-01,-6.979610281582455666e-01,2.292452090204123716e-01
6.586078004545716791e-01,7.161070428450887482e-01,6.966618246616109733e-01
1.102996412645368962e-01,-4.711984217616623227e-01,6.564564410550245421e-01
5.383508041781153164e-01,9.604989442090967611e-01,4.336052921269222815e-01
3.534392617691244354e-01,7.683002119851083389e-01,-5.934246827069576957e-01
1.753592470186800950e-03,-9.539121596093379507e-01,5.436590199922387567e-01
-3.432488266770306606e-01,-1.108459296932386762e+00,1.712241863589604451e-01
5.062251473641634636e-01,2.346883495204934306e-02,7.581645495878837071e-01
5.739598428217008129e-03,5.929200512236405540e-01,-5.499195498991714670e-01
5.611262166940773621e-01,1.045600986651937570e+00,2.184219497288045209e-01
-8.773510983887292114e-02,-1.002063460489174274e+00,3.422495681313805216e-01
-4.323712414295735051e-01,-3.874906316616927304e-01,-1.014971019309901523e+00
-1.197935924184142797e-01,-6.476516999897447002e-01,4.612272170414190020e-01
-6.822339987449923537e-01,-8.712898617763912279e-01,-2.664832512132394027e-01
6.717331005044051562e-01,6.932704822619872864e-01,3.906532308339577542e-01
5.153825534629691285e-01,9.590955508993112000e-01,4.636502991568997589e-01
3.908663995993931217e-01,7.477918962290548421e-01,-2.518083420532488126e-01
-6.574310556047051612e-01,-9.089734861304568092e-01,-1.977755834771818266e-01
-2.102266202237617482e-02,8.872038083012278031e-01,-7.535017599499583829e-01
6.182905035818252459e-01,1.242561184833629873e-01,8.566200990421722894e-01
-5.255586857852648786e-01,-2.559607072843527731e-01,-6.485409648693419848e-01
-4.417998643394024372e-01,-9.874316826570652683e-01,-3.855762012581585019e-01
-1.491299390969286764e-01,4.562595004433366852e-01,-1.086321934619946639e+00
-6.366224627904699673e-01,-5.669731768253114534e-01,-8.166952576392086938e-01
-7.184057778057620913e-01,-6.305962701042652219e-01,-5.990579907273134719e-01
-9.296448253540466611e-02,-8.419086323103724956e-01,8.424836298964932801e-01
-8.043979598519948593e-02,-6.085445212363956857e-01,9.489529190590511032e-01
-4.895985593552245052e-01,-4.405425742885225038e-01,-5.169234916535615509e-01
-3.498945707271634009e-01,-7.161292014330962186e-01,5.135879116786982168e-01
-3.335986550914207815e-01,-5.111468374251225688e-01,-5.126380292856665966e-01
4.333143607259409280e-01,-2.988019300689138680e-01,9.412041742537067268e-01
1.979069381924891402e-01,-6.620431711299059607e-01,6.714569610885359197e-01
-4.240633281668601540e-02,-9.786068754957548688e-01,5.176828994703736031e-01
3.474587920870389479e-01,7.459135892496528975e-01,-3.512954317370108048e-02
1.607439685464358975e-02,-4.778052648588567153e-01,1.046528174971800507e+00
3.284934031087175521e-01,4.260887059704874802e-01,6.353300280475639994e-01
2.638702228301605945e-01,8.368304890798530238e-01,1.701313894364320511e-01
-2.750225101332721689e-01,-3.720553152991880608e-01,-9.217025209659388540e-01
-4.375983147884516256e-01,-7.788150462776568528e-01,-7.258078593039096749e-01
2.548376180807635505e-01,-3.307081698464241493e-01,7.359259724167794836e-01
-5.585146449580319361e-01,4.505486605533734479e-02,-9.608822432996204643e-01
-5.492117073641303859e-01,-2.019502638135416139e-01,-6.921812974906493832e-01
4.655786288138030193e-01,9.299638160490628636e-01,-4.284295504729283000e-01
2.134610051012733045e-01,-6.530747081606813609e-01,7.152482360696330588e-01
2.181589162716564001e-01,7.561937979613364558e-01,-1.433688524573053791e-01
5.945176530843748752e-01,3.933898462167031290e-02,8.740774690924297818e-01
1.779684947155967534e-01,1.000809929601676140e+00,-1.050807656393925871e-01
-3.845702720409047148e-01,-3.212807271663076225e-01,-1.070448966144806446e+00
1.201175749293331846e-01,-7.054283661873296529e-02,9.033590153015897961e-01
6.676401307236704552e-01,8.258690180137763237e-01,1.576300319462015098e-01
-2.916823613454442854e-01,-7.696981275137881884e-01,-2.990166924876338506e-01
5.250592562144218434e-01,7.799647361173895899e-01,-8.691251853219671142e-02
-4.396242494583064708e-01,1.412064195710072134e-01,-1.092813726085895443e+00
-5.493103749603496233e-01,-6.523238240960891332e-01,-2.211464037643934843e-01
5.180931538017750082e-01,1.004845574762820437e+00,3.834800608503226571e-01
8.604771920320869460e-02,-2.710656160281647020e-01,7.664504647214512856e-01
-5.070337515380038962e-01,-5.999038785610864011e-01,-3.044346066478533230e-01
-2.978985569420566915e-01,5.377173095168321648e-01,-9.308059348337531791e-01
3.631885275157594184e-01,9.669905576340844799e-01,3.854244679323904355e-01
5.536466160539624815e-01,3.815556070933130428e-01,5.599646810498135618e-01
3.264443090325331448e-02,9.510377184283703711e-01,-6.769825431965244000e-01
-6.138862753180831522e-01,-2.054783639128632544e-01,-9.373826768700480594e-01
9.448701098059722470e-02,-7.579070497471491752e-01,5.905503877997630990e-01
-4.095023751960507608e-01,-1.080174621222615983e+00,3.101044963687184519e-01
1.258229646181860395e-01,7.205899860998693507e-01,-9.246197329588001779e-01
-5.085240460890289027e-01,-9.431419107825016468e-01,2.811050920270851683e-01
6.570259460776178839e-01,9.291666060800888305e-01,1.188365704582632770e-01
-1.807268160181498343e-02,-6.768787768358577317e-01,9.809543129389690641e-01
-5.674521057353177911e-01,-4.028031147157016267e-01,-9.825252081123867498e-01
-2.088696349495685889e-01,-6.883358981070860638e-01,3.696352642617005135e-01
-3.193440810366709459e-01,-3.592190912782526890e-01,-6.670858842560632995e-01
-6.613110119704449508e-01,-8.272141681795784907e-01,-1.211022168711778924e-01
-3.671129046940828089e-01,-7.124315134330995170e-01,8.914934886466875652e-02
7.948290673867744460e-02,-2.799052185660477754e-01,7.461066768569238894e-01
-4.179716730721105278e-01,-6.044901859704304714e-01,-3.588459325489710694e-01
-5.617952820790425017e-01,-7.837222078693626415e-01,2.564765480120859836e-02
-8.538602295057531877e-02,-8.048097772308399067e-01,3.134073396294949632e-01
-6.871896137574381447e-01,-8.619030970500796140e-01,-3.437519422825309201e-01
1.217753435972354220e-01,-2.878401452376718739e-01,7.531671244134529042e-01
-5.592034114091102293e-01,-9.912219617924490356e-01,9.879140174519282502e-02
-1.665349673552981302e-01,-5.650712641998334451e-01,8.544064160096715987e-01
4.041294889194683992e-02,-4.006216515566286551e-01,7.201085564574909448e-01
3.084068471089878583e-01,8.258504205379827434e-01,3.389303952952885113e-01
5.820508102309933651e-01,9.490255815362599878e-02,9.827249081977426082e-01
-6.755296250958070514e-01,-4.102015307681901590e-01,-6.542893995038029376e-01
-5.429315117316992900e-01,-2.195259736198181266e-01,-6.796613748816759948e-01
4.192613766013494336e-01,4.935066940878619635e-01,9.676653700154557169e-01
-5.302676681447097140e-01,7.979437795712106263e-02,-9.753328897009613252e-01
4.181320811682524008e-01,1.849186497010557040e-01,1.105232255948041420e+00
-2.549699617932980611e-01,-8.330272935875686624e-01,7.686355973921525919e-01
-5.771959537079819347e-01,-4.172250801371067963e-01,-9.227553944461970303e-01
3.527061945180346436e-01,1.028461824294530924e+00,-4.683279580589921332e-01
3.329487958835281036e-01,-4.509179372903057703e-01,1.011415874729440167e+00
-5.058770137367437636e-01,-7.593929740693564634e-01,-7.381212931075359363e-01
-2.402294914303569340e-01,-1.012123171598575455e+00,-3.473141023908766362e-02
-3.875969429763255203e-01,-1.128100360379341360e+00,9.656730417718467629e-02
-2.554388436590631084e-01,-1.049736652873925591e+00,-6.952822424127357015e-02
5.015017591011914355e-01,-8.612549184747250730e-02,8.008878229373308510e-01
1.957784280727457582e-01,-5.674225467077927965e-01,6.831439617342172088e-01
2.543407378219281201e-01,1.002839016694461627e+00,1.479250345812158085e-01
-4.771639243149339848e-01,-1.019132690223639282e+00,-3.530489820351860319e-01
1.101050859775234980e-01,-7.860911774898015070e-01,7.794415689459142094e-01
-3.769657438278362638e-01,-7.394875119395761809e-01,3.764830208443523674e-01
-1.592687456988181594e-01,-9.587628963190762965e-01,1.178741787009831704e-01
1.120965135102449522e-02,2.791613353790390328e-01,-9.294704956578635491e-01
-3.187935754285260437e-01,-1.327363201323404351e-01,-1.098571116721498875e+00
8.137810973442058393e-02,-4.366274658401265163e-01,6.622846302412261910e-01
6.531977557538231061e-01,5.918796881331456206e-01,7.960968236207386362e-01
1.593430219755281527e-02,7.239125688921300705e-01,-4.263743549221228335e-01
3.248133077040494809e-01,7.204532204612975610e-01,-1.319317011306507248e-01
4.990945505287630590e-02,-2.977665178520851330e-01,7.466126347709062250e-01
-3.249228191469759053e-01,-7.065275269176682915e-01,-2.067591228135837733e-01
1.297108511705160130e-02,8.555878656468934862e-01,-8.227903388857049638e-01
2.832163180011838532e-01,8.024575708482288849e-01,2.595108661746867162e-01
-6.518798276646274592e-02,-1.005537545540147404e+00,5.393643431042526304e-01
-6.097606066359299026e-01,-5.355506584950506799e-01,-4.428070058016139177e-01
2.616124499949835092e-01,-3.833627536267794622e-01,7.468880101362177504e-01
5.591539660786638555e-01,1.063431762495744337e+00,1.768657052203359559e-01
-6.376620957476184515e-01,-2.254344445159436605e-01,-8.132410613437278668e-01
-4.403752168262427547e-01,-1.076316599169504062e+00,-2.245558328504822232e-01
-6.126024695253647068e-02,-9.112616043082383266e-01,7.746978104634095752e-01
-5.366115020717946438e-01,2.519623349693360728e-02,-8.808852274226199874e-01
3.321828119815295466e-02,-3.327123226189212524e-01,7.744994456388540893e-01
1.878432390588398448e-01,-1.521566130824964641e-02,8.175732749134938526e-01
2.393645092546995146e-01,1.523108920203430916e-01,8.043650855991074655e-01
-5.506486459158744795e-01,-8.419639585082464572e-01,1.252792905664908141e-01
-3.063530044246133843e-01,-3.482449528420202833e-01,-7.217456344230253062e-01
-5.182474337682382304e-01,-1.064110007358048282e+00,-2.271002216602892032e-01
-1.118267124872514701e-01,-6.748744298003855890e-01,9.229870914245368319e-01
6.186205189346239974e-01,3.309916645902848953e-01,6.847656999848724668e-01
-3.490220011723826898e-01,-7.215711532585364907e-01,-5.453481014534659888e-02
-5.404468845553406231e-01,-7.464599993623296514e-01,-7.684469591505500574e-01
-3.152890975146334651e-01,-7.234180058257679846e-01,4.272771267191342870e-02
-1.718489212604966399e-01,-4.076538308213257383e-02,-8.780051675200740702e-01
1.033934558068307918e-01,4.914622512772939267e-01,-8.758268622575559048e-01
5.321009288259582748e-01,-5.698398132711571945e-02,9.031574344195144599e-01
5.953290961160351280e-01,1.047980623946855594e-01,8.627449830879873049e-01
-1.908152486972116424e-01,-7.607346808935060434e-01,8.151795357194931979e-01
2.650331597837268238e-01,6.806012132088609112e-01,-6.160722226528408951e-01
6.707923534789600462e-01,7.261987659962215735e-01,3.327026395964146066e-01
-4.792280358710475641e-01,-1.672232971104661015e-01,-6.749604640509004883e-01
-1.120696014530733337e-01,1.052984386448675563e-01,-1.040403894018085973e+00
-3.574237746672056515e-01,-7.169848716643427711e-01,4.599193614538697461e-01
1.767210365124459726e-01,-6.886796920852916726e-01,9.343883118867851723e-01
-6.268950974820433064e-01,-7.823658346782512707e-01,-7.833682548037192162e-02
5.952592802508933634e-01,9.024081165931882031e-01,-7.439776659738717157e-02
5.783291965232463250e-01,8.478939925683224299e-01,6.087259762794470230e-01
-1.256065447948559732e-01,5.910085434036906060e-02,-8.712700346015044284e-01
3.940262275917486012e-01,5.012342219362705409e-01,4.597522297866599161e-01
3.136109998953827138e-01,4.462916902381461881e-01,6.512870456100967598e-01
6.561379633959176783e-01,8.577558871063970525e-01,1.850274673643500511e-01
-5.473064747917265604e-01,-1.792061125659933640e-01,-1.030069922068290511e+00
-4.536507307945754630e-01,-5.392626195228731323e-01,-9.266096147486303503e-01
3.394790160976597360e-01,-3.173797975998404186e-01,7.757688255437333869e-01
8.375928127269934020e-02,4.525374692321730841e-01,-7.018276476312669265e-01
5.821755486834147980e-02,-5.083942643185004329e-01,6.116076726400401231e-01
1.599227313231037229e-01,6.712519353110769915e-03,8.752658685847782838e-01
1.816309010072820473e-01,1.080851690956473377e+00,-3.649490221209422125e-01
2.535196312162690258e-01,8.582616918372338866e-01,-7.648688307545049581e-01
2.052241315761818286e-01,6.019801576801956378e-01,-5.232897412122253789e-01
2.939767238632203308e-02,-6.316811742388012130e-01,5.502965448507318724e-01
-4.142929740745154299e-01,-1.121583378477541526e+00,2.102326908421372209e-01
-7.086888681687764091e-01,-6.710270349254534583e-01,-6.445843448957921940e-01
3.453019214321500496e-01,-3.047300763159207504e-01,1.104442537270376334e+00
-2.943173759887737218e-01,-7.300931886797110693e-01,1.658117764245434500e-01
2.838979121715043408e-01,-2.643251468403625126e-01,7.540973419509642284e-01
-3.459392764843328971e-02,3.614141073364253165e-01,-7.228002449276754726e-01
-1.721435161352083409e-01,3.174694499420115390e-01,-7.155878826346856458e-01
3.073860156073034422e-01,7.683690793077727621e-01,8.009188194981869957e-02
1.053560715824404005e-02,-7.601564553595293594e-01,9.392752028401734066e-01
1.794415618651921673e-01,-7.533908546967028608e-01,7.821599268930620186e-01
-3.382950647047686110e-01,-1.095664956621953401e+00,2.855391715167560074e-01
4.793300816765637129e-01,3.586800151190424057e-01,1.046872739909743055e+00
-4.381175763404854817e-01,-1.099503068236186570e-01,-7.076349571069415756e-01
-2.025275209428015200e-01,-7.792271424191627993e-01,1.491292713227553302e-01
-3.383258000612806571e-01,-7.327132157499938181e-01,5.220286369163107398e-01
-1.173169668412250427e-01,7.828157274515084030e-01,-8.660043464782081202e-01
5.661912023191337795e-01,1.016723957123229827e+00,-3.917409277149130897e-02
-2.360345049838266651e-01,-2.280408541789730459e-01,-9.794827467973068469e-01
3.798923038821926390e-01,4.819718767535348392e-02,1.121196112410064671e+00
1.847972457049054107e-01,5.810285591087687579e-03,1.068259681917118398e+00
5.738336675038400170e-01,8.653624707538968286e-01,5.984483493595129655e-01
-1.841797243811775162e-02,5.763216524625617287e-01,-5.510034781576816920e-01
2.592715505684576316e-01,3.140781866632298969e-01,7.478687546516444851e-01
-3.083005218763721911e-01,-7.244889006228604211e-01,-5.574154591728206487e-01
6.551815061410005692e-01,6.496462343542385165e-01,7.325038284007601153e-01
2.952751674208334842e-01,4.999271431724345294e-01,7.499871486079812133e-01
-4.248608816783416287e-01,-6.107722937865196072e-02,-1.122796724664044232e+00
1.512720191215417842e-01,8.092235487959660301e-01,-1.900808901795531525e-01
-6.698708675955525882e-01,-5.427479188337596128e-01,-5.382464322503092147e-01
-4.330587385546031953e-01,-6.595074929814367382e-01,-1.609075990038898729e-01
-9.383978001064585683e-02,-9.819705992819655060e-01,6.252539726520349728e-01
6.233795562351079900e-01,9.801386771393943986e-01,1.157293266828049866e-01
-1.010823331271115538e-01,4.744160973632916001e-01,-6.500631738686174499e-01
-8.419458396256827848e-02,8.079454541576310822e-01,-5.519401366127658637e-01
-3.193265206900104403e-01,-3.509429146051452619e-01,-9.836436576035042512e-01
3.254020594394557014e-02,-5.976737443270686567e-01,1.020529877520951700e+00
-8.445672205336596239e-02,-9.992981162297176478e-01,3.070196116330375924e-01
-2.195633308941127571e-01,-9.187053181435167470e-01,-4.716787469750801515e-02
4.740698308072496259e-01,4.773221404078879515e-01,4.963144641542790447e-01
5.512713067174994652e-01,5.287416741959791722e-01,4.231156622877236262e-01
-1.028761793242670558e-01,6.001524636243401600e-01,-5.905286233210411684e-01
-5.160367839897079811e-01,-4.005329664531734890e-01,-1.009493687339442891e+00
1.995471603621867540e-01,7.445128225448907067e-01,-2.239803753982427814e-01
-1.974490844615359175e-01,4.373847587308645757e-01,-1.091863242320155747e+00
3.282321631145888041e-01,6.229736322746339816e-01,4.390335945074957946e-01
-5.117608278371090780e-01,1.154967473407966377e-01,-9.327671349991750738e-01
2.594613074153987453e-01,-3.334224235130833769e-01,7.174971078930342250e-01
-1.694355436426678296e-01,-9.228885397357511344e-01,7.870745306290766186e-01
6.129831351438203013e-01,5.279323582849111407e-01,4.515428516990406815e-01
-3.568224153771863971e-01,-6.972683086066393532e-01,-1.545932639060956792e-01
6.120865126708685544e-01,4.906721819318309308e-01,4.902115878590346809e-01
-3.932169862747411648e-01,-1.084467033259314261e+00,2.898160874900448380e-01
9.786402838507624047e-02,7.940931443365796261e-01,-8.786651483112060124e-01
4.850451650885998639e-02,9.171807666223460442e-01,-3.464264119158311228e-01
3.484105494138422521e-01,6.355070846283220609e-01,7.719268153719944792e-01
4.588564377943535333e-01,3.791091596323316049e-01,5.764872981732638291e-01
2.989107073181496710e-01,-5.556884401492144798e-01,8.412669346431009831e-01
4.163376430810304951e-01,6.181483453995952893e-01,2.876733143577820950e-01
2.420332700997226971e-01,4.236367893528419221e-02,1.087504348601448179e+00
-2.704320315429697974e-01,-7.771293955304782175e-01,-9.849742773330050216e-02
9.268419058674608191e-02,-7.016516385567364011e-01,5.580897425205806339e-01
-7.746249797918312863e-02,2.418432189936338128e-01,-1.063723132083531420e+00
6.889928759124308577e-01,6.464116438002236453e-01,6.869025358066030984e-01
2.030872442296584590e-01,8.471665574518545405e-01,-9.327884591369063616e-02
-2.185063021472465894e-01,3.357836839689626318e-02,-7.783243900519472014e-01
-3.015822497675830771e-01,3.700902568958632215e-03,-1.128033602801472357e+00
1.352256596422654611e-01,-7.701641563688125247e-01,6.595158782690710986e-01
-1.644064112777562370e-01,-1.050484504427279031e+00,2.637936740987072426e-01
-4.898718568988315036e-01,-9.736646488663677212e-01,-4.328809983367221115e-01
-5.202139599915885926e-01,-9.683528459440322589e-01,-4.639478959013814685e-01
-2.103117157463743614e-01,4.787888119905759909e-01,-7.107232085766540530e-01
-1.705040655196165544e-01,-5.426446420193322684e-01,6.584704273732554514e-01
-2.725391945922162051e-01,-7.920864269528471446e-01,-1.928746129132279385e-01
-1.715971935465430975e-02,7.748096517746027034e-01,-4.593748234566114030e-01
1.287049786375244753e-01,5.587057269136563864e-01,-8.866817402975472051e-01
1.559968705112488585e-01,-2.338571640547492947e-01,7.575598368978332386e-01
-5.962309737044471092e-01,-9.316843949210278364e-01,1.092266856233224392e-01
-3.359944224138588509e-01,-8.437166670905896781e-01,6.452670527604594808e-01
-2.375928762026742191e-01,4.827250447086670754e-02,-1.116204898227864506e+00
-3.802535497182144009e-01,-1.138499030475760954e+00,1.104762801190642685e-01
-3.425255765589620416e-01,-7.055539723983854650e-01,-6.851009874185940429e-01
-3.984551689245921513e-01,-7.133854776878524317e-01,8.656908008410715838e-02
4.343244009108934017e-02,-8.146854046437375096e-01,4.822561584305621873e-01
6.937164657380703314e-01,4.626004395300036820e-01,7.626055253872798811e-01
4.368253606762269037e-01,1.072466878795353962e+00,2.238037870340645052e-01
3.675374235262951483e-01,1.851542326667272587e-01,6.815180197779167059e-01
6.638751307558372616e-01,5.415643933720882819e-01,8.627797600894709928e-01
-3.045294096848110699e-01,-3.897823650569051113e-01,-6.709696204958892629e-01
-6.092438187265370592e-02,-5.836759144461188820e-01,5.294266407766443638e-01
-1.758822074949978678e-02,-4.910945569517520815e-01,6.424208198233228861e-01
-3.684540730468155445e-01,-5.799712713479197035e-01,-8.597920922750862394e-01
5.957546411014245924e-02,-5.001494418884658844e-01,6.384575566611737640e-01
5.403199048448115160e-01,9.251438040851388545e-01,5.176110518730543397e-01
-4.036292257055728583e-01,3.515370811454530120e-01,-9.900566413560384360e-01
5.893798134178228620e-01,1.139301903433889290e-01,8.842494253905509582e-01
-9.868275449372929109e-02,7.589628691667453519e-02,-9.156308771171131067e-01
3.298183293817001926e-01,7.064387367771282067e-01,-4.214069004576452837e-01
-3.791773761723071234e-01,-8.518599510802720154e-01,-5.850879151728326510e-01
-1.805659761934193296e-03,-4.997112808655932437e-01,6.135051113428203751e-01
4.731849484351534629e-01,1.615885938709574754e-01,6.813040539642215565e-01
-2.825433826352028999e-01,-4.136315183600621226e-01,-7.370674485186027303e-01
2.626748992593913590e-01,6.968046304351772635e-01,-7.900231471087869606e-01
5.054826600601294295e-01,7.715713297092666734e-01,-9.486100072524407401e-02
-4.885180296357343743e-01,-7.550785995171142018e-01,-7.320076329682887462e-01
-3.128492545192773644e-01,-5.910424640557085940e-01,-7.274715385131270695e-01
-2.461471766642947812e-01,-2.339830739747094102e-01,-8.646058820245561272e-01
-6.640447662996202816e-01,-4.496105454976314642e-01,-8.075241963769487219e-01
-6.823079745296431464e-02,-6.017197264165735637e-01,9.775359351114806250e-01
-2.561696069408005427e-01,-8.485190474968942187e-01,-1.586515647497324655e-01
3.176488237198833442e-01,9.191451699581294488e-01,-6.202253000989489395e-01
-4.404896175735640851e-01,-5.959403146962629627e-01,-3.413268438545953298e-01
-1.839372505756941001e-01,-6.014947843889730805e-01,8.313040491091391315e-01
-3.761338211155235145e-01,-6.102304614429198137e-01,-3.491316225443121812e-01
-3.334015749711283227e-01,-1.077532077013479833e-01,-1.125580714914775404e+00
-2.760755145351201367e-01,-8.291849709210293851e-01,-2.115502402064103060e-01
5.579160710915911370e-01,-2.621682067613132286e-03,8.400743339609803018e-01
3.017331977816781197e-01,5.611881244898403454e-01,6.466924034448814362e-01
3.895797505050276888e-01,1.000530114267963011e+00,-4.797792535727832819e-01
6.282225376634921199e-01,9.716904539603775648e-01,2.750577808275561087e-01
3.995875779564412866e-01,7.535876222537373215e-01,-3.698121916224931804e-01
6.219748177229909025e-01,5.524468184383748426e-01,4.212922795543042054e-01
1.683834342630727843e-01,-4.554214786017523608e-01,7.000906338141201779e-01
-4.168597576150732675e-01,-8.889341708621291138e-01,4.967500243692840045e-01
1.994314939003367648e-01,6.274476112692116692e-01,-4.980833142045281714e-01
4.852044519541911516e-01,5.318060269109858157e-02,1.106567440435322069e+00
-3.571255196894030370e-01,-9.013926121298209138e-01,-4.591018785625464727e-01
-6.241730465382145931e-01,-7.035799397431260482e-01,-2.495299619635988064e-01
4.471600573965537340e-01,-4.687344494477178186e-02,7.715146450058613103e-01
2.108908463827460500e-01,8.201467225514524895e-01,-3.055991145007681126e-02
4.605204993971881988e-01,1.079217959801675342e+00,1.384407420168791425e-01
-3.083493638311303187e-01,-1.970139368873057573e-01,-7.134348558869020307e-01
-3.044777875444720783e-01,5.228091419852755051e-01,-9.910913945653696544e-01
2.105366508820788463e-01,1.995680697394254799e-01,8.708225338076640565e-01
4.834150185378397468e-01,-2.323613819454716997e-02,7.578076825821274953e-01
4.146257878468939118e-01,-7.264297959785655234e-02,7.721906282130117649e-01
-1.564787198073568086e-01,-5.372186347237470905e-01,6.851279489229363806e-01
-2.557626610690014179e-01,5.849348935990685838e-01,-7.056520883289115753e-01
5.668140029057582296e-01,6.366000469788093974e-02,8.323065253456655155e-01
7.964894007337622317e-02,9.978638604747056551e-01,-3.784589987694020330e-01
3.376055354195881542e-01,-5.204739903467688888e-01,9.323437835438467269e-01
5.127088073934531476e-01,9.670513882564912844e-01,4.622952541227849932e-01
-4.793302805251562493e-01,-6.926075010773043994e-01,-1.035556684613336415e-01
3.955491033025085312e-02,3.994219969662961556e-01,-7.440011947423138539e-01
8.370433166926262436e-02,-7.648866519165440359e-01,9.195632505471680318e-01
-3.159849648398134394e-03,6.856920954198355567e-01,-9.848757853512776217e-01
6.035540479116111579e-01,1.403272907299190353e-01,8.309260570542217339e-01
3.666318226495358656e-01,-1.165637871444345774e-01,1.144718519610492757e+00
-7.035657919686747475e-01,-7.652425581793615983e-01,-4.021631059733293267e-01
-1.869317347619541270e-01,-7.052126297680773315e-02,-8.552803396095879362e-01
1.686277080432863062e-01,-7.241448546841987577e-01,8.973316579619754485e-01
4.541007719763114348e-01,-2.457056916955560610e-01,8.619183947380164579e-01
4.665110162605324851e-01,7.682343778216161878e-01,7.318584077156318202e-01
3.164908705349009366e-01,7.196782778144359405e-01,2.152981509253050207e-01
3.458177385837281625e-01,7.083066691161605810e-01,9.925840436939130373e-02
3.998753617055710863e-01,7.901016335178779881e-01,-4.588323235414364931e-01
-1.063154816037356898e-01,-1.051722104064579888e+00,3.993857111734937515e-01
-2.807071133044448663e-01,-1.079599876636467393e+00,-1.369322771853223770e-02
-5.958014058065371765e-01,-7.402631147834128900e-01,-7.634750300007906443e-01
4.782899567397148055e-01,2.187630160823561820e-01,1.081346227736826870e+00
1.668384937841675131e-01,-6.282509177315502846e-01,6.372788149338595165e-01
4.470670696137388767e-01,-1.549707540305456377e-01,1.089255071795228513e+00
7.043240192765861524e-03,8.556577790155840413e-01,-8.304283927556783684e-01
4.323044778286822543e-01,6.213620910303783162e-01,8.663900875853793870e-01
-5.630555955092774179e-01,-3.317905025210290959e-01,-5.935907053375931719e-01
-6.860799574553955171e-02,8.545686256824398530e-01,-5.880337220848630420e-01
4.759366827799296207e-01,9.508528067001902340e-01,4.706207450098063294e-01
-1.492407364423538885e-01,3.095677607347664326e-02,-9.718246131280255939e-01
-6.886585272064090768e-01,-7.469305799780370236e-01,-3.129861840606552037e-01
1.122689741111802531e-01,-1.127313065060340236e-01,1.035284506658630255e+00
-6.162790073381528844e-01,-3.911367219554942598e-01,-5.976107543470504657e-01
1.533300708568582083e-01,5.563565235756073868e-01,-6.227509854246547905e-01
-3.800510281947429014e-01,-7.481461509435747281e-01,5.185404012646714911e-01
5.432218334474153698e-01,1.049596490893773160e+00,1.781506856281969142e-01
3.547137721568487390e-01,-3.385200138233692702e-01,8.000149026546664599e-01
3.229055266356694043e-01,5.322721042677118763e-01,8.067309885781203116e-01
6.266563285837997710e-02,-2.066460943305304387e-01,8.564522785416160966e-01
-2.665805806501519437e-01,-3.552485917791365910e-01,-8.358466979159931975e-01
-5.716829982370231766e-01,-6.823056318787413810e-01,-2.102768239696924668e-01
9.956560529431106310e-02,-3.752464471010231728e-01,7.031054293941144673e-01
6.041609655454993622e-02,-7.848960268971909571e-01,8.831940877172456128e-01
4.897018210506808300e-01,1.050964996656903017e+00,2.901904346066623286e-01
-5.401024460154136841e-01,-6.041266577298942675e-02,-8.048254608917670971e-01
-4.453573231809612037e-02,-4.158204787050514550e-01,9.929112979448503351e-01
3.298764296038896315e-01,-5.105244299531103147e-01,9.573063797708059042e-01
-8.465918173600206487e-02,1.047858830280048031e-01,-9.534263639099165299e-01
2.217905114407040246e-01,1.090560305260655394e+00,-4.249059868322284106e-01
-3.295891500116274742e-01,-8.999384966076497960e-01,6.452326826758393308e-01
-3.970831562493691846e-01,-2.994743440970880077e-01,-6.232437992867420062e-01
-2.961215397267916161e-02,5.238156308778939563e-01,-1.062456033668810029e+00
-4.332725567801052335e-01,2.585215595544584910e-01,-8.451033601976489784e-01
5.713435346100808054e-01,4.798876171339503532e-02,8.183302913078243090e-01
-1.978777838115222398e-01,3.984106377714775604e-01,-7.145681452873738904e-01
-3.291107764285585713e-01,-3.098973111372364531e-01,-6.897101070786896271e-01
-5.876093606628091104e-01,-7.606747326977135737e-01,-3.495848344566292176e-02
3.004252372925694803e-01,7.750750470294377470e-01,4.784243017830909495e-02
-1.333899380327694117e-01,4.298985312555022031e-01,-6.753851373984467443e-01
1.647929709992088376e-01,-4.395679479120224720e-01,1.114676360880637151e+00
-1.868141052314982106e-02,8.943595275907617603e-01,-7.375614563539051316e-01
-1.545067068499323543e-02,3.448808160842826709e-01,-7.454214725261357755e-01
1.135151440230258192e-02,6.430370954066171318e-01,-4.920904670324940944e-01
-5.190461082365475098e-01,-7.922878026803160667e-01,1.370643933510306833e-01
-1.193894869308396028e-01,-9.363347557826402490e-01,1.749872247529174474e-01
-7.289609375634523158e-02,-6.779538887426957983e-01,9.382810857573610219e-01
3.752327554090226225e-01,6.714401355647058312e-01,2.091184567968040753e-01
1.371640370504974282e-01,9.708461725159304168e-01,-1.827499785217032435e-01
5.099317278685833177e-01,7.931166431814912210e-01,-2.306055263478617723e-01
2.407699812685961671e-01,1.648971855735206771e-01,8.168084895559206693e-01
-6.866933848317299249e-01,-5.478517735016934509e-01,-5.827601030169250462e-01
-5.090928511855800087e-01,-1.021067069357719514e+00,2.638976852416669572e-01
1.618392123853705511e-01,-6.331705336567645670e-01,1.012379312405722764e+00
-1.428972338703958511e-01,4.367308979892040588e-01,-1.105214824264515894e+00
-2.964174346411650451e-01,9.735711703710171749e-02,-7.524466589217949641e-01
4.195825209476437556e-01,9.584796105019118828e-01,-4.846152473051197895e-01
-2.498737438726622850e-01,5.949033095158228202e-01,-7.804143603138878893e-01
-4.966517208045633236e-01,1.465299242507311916e-01,-9.817665756492885976e-01
3.908877202183991817e-01,1.311462591824900381e-01,7.075951105325088974e-01
1.613441837502077245e-02,-9.423498355799040382e-01,5.703572731872561530e-01
4.421235719338050818e-01,9.051075848743026508e-01,5.266162513822010283e-01
-3.808631467362991185e-01,-7.454087081346578714e-01,3.618620732487520253e-01
4.932422341063575355e-01,9.952253807338106162e-01,-3.183288074311249605e-01
1.757829065933615986e-01,6.114499849448485902e-01,-5.463605100268273951e-01
-3.476719228186014865e-01,-7.114067092411573423e-01,-9.187935305323639834e-02
-2.446702688864003661e-01,-1.065038385567016466e+00,5.625776413730438491e-02
-4.019005620392516187e-01,-1.029255364686634255e+00,3.714725245978376944e-01
3.777147302960723318e-01,1.107187670540121793e+00,2.327596200206678845e-02
-1.370366551268044075e-01,-5.804704894035568330e-01,5.361750747081618362e-01
-3.112669636037802001e-01,4.697466100112192011e-01,-1.028471462142301895e+00
6.702827685418792925e-01,5.406785024455431632e-01,7.577799160943642365e-01
9.675894824439656983e-02,-6.815029767496919577e-01,5.832111828208002002e-01
-2.026512022665928892e-01,5.557023509423728580e-01,-7.082617138216810160e-01
3.631940513094596423e-01,-2.019185822477567449e-01,1.141787907214582010e+00
2.366335551877053398e-02,-7.314441053788325320e-01,4.810270012076919843e-01
-5.133053481087036518e-01,-8.664262674767798655e-01,-6.016198774294601037e-01
-2.377527099395870813e-01,-9.606205187265426382e-01,6.838256173134976690e-01
-2.960404185002503685e-01,4.475549119187592351e-01,-7.441111152775750082e-01
-5.324778873047097960e-01,9.233421220587363643e-02,-8.726818045999805706e-01
-6.870865520681035399e-02,3.356707106925850836e-01,-7.413348843945313238e-01
4.795889306300903376e-01,1.081889310260231829e+00,-1.961846060316171647e-01
3.984996332907218136e-02,6.725136218360507900e-01,-4.785351395343429015e-01
2.723443197440080232e-01,8.925672086666216476e-01,-7.018336361146890745e-01
6.970658903633619730e-01,6.174046920949410877e-01,5.644673397312932606e-01
1.698914433112126143e-01,1.082576770568094648e+00,-3.253496303362392039e-01
3.932288064332973843e-01,6.087982122320734213e-01,8.269311771109869591e-01
1.304025265608262096e-01,-6.133634122087736618e-01,1.022068199518772147e+00
-1.857078953565164670e-01,-5.136255142064242163e-01,7.458893753762614320e-01
-5.031733606216080013e-01,-1.740600176502108687e-01,-6.941836091487398885e-01
-3.227731673166426840e-01,-7.524364882686173095e-01,6.356553648387733846e-01
1.714665871239256789e-01,-3.031139302289624360e-01,1.122579445509144458e+00
-1.622844054352026721e-01,-6.978265731747278489e-01,9.019473070482485477e-01
-4.386811866101463231e-01,-3.363778971400739337e-01,-1.035079024824701488e+00
1.896315633504647852e-02,7.948343294155835181e-01,-9.161682134371861297e-01
-9.085521467483970159e-02,5.297508648048709912e-01,-1.068711346827502906e+00
-7.402585485214374650e-02,6.049864239918030240e-01,-5.735639660390218220e-01
2.252943396333735582e-02,-8.909088561527134242e-01,7.845048099862020896e-01
-3.027880932172403727e-01,-7.486129766234062011e-01,1.436870470638437758e-01
2.161054787608867045e-01,-1.270229321217586360e-01,1.136657132802728620e+00
-6.741086218526709528e-02,-6.372225831260640572e-01,4.977718999663582888e-01
4.370251946127191034e-01,1.051277304544613767e+00,2.110920837424530294e-01
1.393751347161104048e-01,7.887517322548509568e-01,-2.413580082373156799e-01
-5.425535723131445776e-02,4.384369955438854327e-01,-1.077873411392078928e+00
-7.218933382279931754e-01,-5.898569094706053173e-01,-6.451322078366157342e-01
3.672996956854914785e-01,4.728302360078780880e-02,1.139558734530236039e+00
2.139150290868439830e-01,-6.428743621401911135e-02,1.103658433486441437e+00
1.853910200282103404e-01,9.099753892582972403e-01,-4.379054617031349211e-02
3.350255774176474910e-01,6.986439053085391482e-01,-3.381795237757116990e-01
6.888266813351384688e-01,4.755719809027525447e-01,7.189514573996397262e-01
1.158965556188591428e-01,-4.123766847040401251e-02,1.012119467642317305e+00
4.204777046080689917e-01,4.245677398481829679e-01,9.962652747417689580e-01
6.534006181852969330e-01,9.122309501413978783e-01,1.529582962136313007e-01
4.336969305705450362e-01,3.794125243073104836e-01,5.540687539235295000e-01
-7.486590962392224158e-02,-6.297064574571852313e-01,4.933736656341966564e-01
2.692053944465582771e-01,7.465268214951105152e-01,-1.756739548234935444e-01
-3.302889073125766517e-01,-9.213939127641540550e-01,-4.034576357508012356e-01
3.318947745927168236e-01,3.518650620227826153e-01,6.529442752553407114e-01
-1.257505642942981505e-01,3.608187586706947947e-01,-7.002619927996313054e-01
3.093984188097555488e-01,1.069398340807617753e+00,-4.526875726904295294e-01
5.927801845291347238e-01,6.032517835781118221e-01,3.315138653074192199e-01
4.723315736883901828e-01,6.615696492784709504e-01,8.373113403088744411e-01
-4.152540110657145650e-02,8.667055100920000310e-01,-5.127955713124929815e-01
-7.709477761087023262e-02,1.091522403745535941e-01,-9.603783855591899732e-01
4.014046033242590905e-01,3.101903686807315208e-01,6.246484597846797548e-01
2.561195982966556900e-02,9.921581383652161579e-01,-5.575832486394525223e-01
2.062698295984813010e-02,3.988592590987249387e-01,-7.283058499773353844e-01
-3.123404847626648495e-01,-7.323171519643787430e-01,1.091423943880075187e-02
1.336830527840624505e-01,-1.282345168450098050e-01,7.860099324610331228e-01
7.026675252733784183e-02,-7.600071759712963004e-01,9.128902551526509868e-01
3.883821663246392331e-01,-1.531556409300415533e-01,7.697995758339649663e-01
6.893297635071969909e-01,3.983167659397088278e-01,7.770900230257046237e-01
6.004209003260538857e-01,4.697594368072016691e-01,9.301709214626956435e-01
-5.925316263371722680e-01,-7.292145092197975520e-02,-8.510402926646569721e-01
-6.365034413440898708e-01,-8.191655782174546152e-01,-1.234423695641086866e-01
4.038028648262006470e-01,7.863356333462993009e-01,6.725419958412469645e-01
-6.017996877090743268e-01,-3.901885609701757351e-01,-9.442327942907847715e-01
-1.514229149997296797e-01,-1.013633273734294793e+00,1.437775142643612225e-01
-1.265275186927726780e-01,-1.033098630533505258e+00,5.486114079705497470e-01
-7.159629065683240645e-01,-6.882394408204192127e-01,-4.281175127920403556e-01
3.564621114975556337e-01,6.404748637720140136e-01,3.458590331126681350e-01
-4.351543275660497700e-01,1.849176275488094157e-01,-8.013504911446767132e-01
5.874283380037959024e-01,8.520950481046284386e-01,-5.728732336282783139e-02
6.960436573920404379e-01,5.502687464467967970e-01,5.519235885192301794e-01
-6.208047474191390469e-01,-3.026546146196135156e-01,-9.543052962808885598e-01
4.268466345908120685e-01,-3.051090379736512981e-01,9.016818135733764006e-01
-3.206671503355087993e-01,-5.496871332974000435e-01,-5.924475348869455704e-01
4.098717838643727296e-01,1.014828251805883763e+00,-4.037730898153598091e-01
-6.639735904367974895e-01,-6.112884445898904007e-01,-4.378693874164768518e-01
-4.652414464137232253e-01,-9.302485495826540163e-01,-4.905506291664782914e-01
-3.207338130540577370e-01,-2.097895671364310988e-01,-1.070868567259474213e+00
3.050757491939792843e-01,5.047480825381863712e-01,6.855826638422565233e-01
2.194275289768318760e-01,-2.874962596954974692e-02,1.107061575870355030e+00
3.656211861769353977e-01,6.344310287659019609e-01,7.890390364271065993e-01
-3.869979185678100175e-01,2.044081991476021654e-01,-7.902872276215499037e-01
6.146840910283882797e-01,2.640799162907477293e-01,6.807868054839475436e-01
-3.245688565515930102e-01,-7.134520611543502255e-01,-6.354820830057925640e-01
-6.257665174643506356e-01,-9.166568143297959548e-01,-4.742184596732975654e-01
6.656740958050598733e-01,8.576063134439978475e-01,9.464963054572324286e-02
-2.731583679252320707e-01,-8.724225070923274927e-01,-2.797944603890978321e-01
4.970433882229009503e-01,1.098494029627240298e+00,4.925547726118015973e-02
6.273417988182748983e-01,9.427809741127097798e-01,1.742615615355476988e-01
3.688333434141626843e-01,6.999605819135705786e-01,1.031852115853920532e-01
4.556013805309046538e-01,9.681605367274584983e-01,-4.277884000371497963e-01
6.685548027329587528e-01,7.928042289229643158e-01,2.340276118263713567e-01
-6.408183416109813901e-01,-6.068993602164265422e-01,-7.828819376036825206e-01
-4.649955481164330107e-01,-1.094444879510979574e+00,1.244513729143766761e-01
-1.856930079199345940e-01,4.626820135390818933e-01,-1.111224487705653408e+00
-4.050749536926113725e-01,-8.956032351383371726e-01,-5.419559555397098771e-01
-4.800711944873930492e-01,-6.254501891617746390e-01,-2.595590092570217444e-01
-5.526879235966821735e-01,1.316660665056458080e-04,-8.547008081270535129e-01
-3.593020732204303958e-01,-7.930197926154581856e-01,5.688650895505457106e-01
1.891491453017335178e-01,-1.896520774530997822e-01,1.147142658139270299e+00
-5.618519020923793406e-01,-8.018830285416806980e-01,-6.684128520200415258e-01
-4.527607580927274777e-01,3.176721013547020162e-02,-7.738287850199941920e-01
2.029070920634959141e-01,-6.363112545518547769e-01,6.953148619999274249e-01
