-6.287902429270914029e-02,5.289767944241550168e-01,-6.831756141463463106e-01
6.183178774657116517e-01,-4.431817854993930217e-01,2.693823362640105357e-01
5.423188810619903322e-01,2.963477997550378329e-01,-7.437642142697429293e-01
-2.115400776042052067e-01,7.501689165049855168e-01,-8.505925533263195559e-01
-4.849814950157434468e-01,5.835649189983502794e-01,-6.835686415112817160e-01
-6.744500336512976313e-01,-4.818544561186278719e-01,8.372437307380253824e-01
-7.388455524322538048e-01,-4.458542671772473820e-02,5.258815107484997586e-01
-5.546473435684046160e-01,4.648551601276629253e-01,-3.723767548424185003e-01
-4.076480234078443121e-02,-5.935648954047679782e-01,5.558562921436533966e-01
-7.189571988832833827e-02,5.985358636857354142e-01,-5.426054003499160006e-01
-9.266712731908780531e-01,5.279334256050142171e-01,-3.941643579518781526e-01
8.903219879547460414e-01,-2.934372338249847667e-01,-3.340783085257657548e-01
-3.012948548349193567e-01,-4.947101193536960761e-01,5.495423701616095613e-01
-7.706739478823242395e-01,-4.189187110731029118e-01,3.776593034224156598e-01
-4.285058904950729275e-01,6.281560203353248051e-01,-3.009984604197764035e-01
-9.821648963949815014e-01,4.632088464504832137e-01,1.403636167918368427e-01
7.876932085469499911e-02,9.208800996963849572e-01,-7.142257059307127731e-01
-4.220865731624160455e-01,-5.546513739297751489e-01,9.061805786500674031e-01
9.153000739827853449e-01,4.398668810500700466e-01,-6.715097739652228226e-01
2.885146068604241831e-01,-6.862109374929087346e-01,8.058480451169923731e-01
2.803926910496061797e-01,5.897947512231098699e-01,-8.896567255619831638e-01
6.708486917757188195e-01,5.852940492077637336e-01,-5.124388001516294588e-01
-3.646962944108321589e-03,-5.329679133921831902e-01,7.112845701655789998e-01
-1.104937765734261612e+00,4.368081415649441301e-01,-9.617556898200420312e-02
2.382831122334414312e-02,-5.383481897334491117e-01,6.430007388213727637e-01
1.078436539720555754e+00,-5.002208330755031351e-01,-2.626976260176704797e-02
6.928344507938830610e-01,-7.433294429054319030e-01,5.916894470844658027e-01
8.937317867428175022e-01,4.920712934721821474e-01,-6.212714907380394447e-01
-1.080731262397125469e+00,2.783537058242905871e-01,-1.179602051721140993e-01
9.774735549999017392e-01,2.514953943330210384e-01,-2.847916984706422294e-01
-7.515350091665777832e-01,1.909656198275846636e-02,3.964793372404705196e-01
5.579141536238062526e-01,-8.747160209799962338e-01,5.990931051593755274e-01
1.142919959773537775e+00,-3.180629549468955708e-01,-6.938615206514042733e-02
7.750403660276848905e-01,-5.176105676770983433e-01,-4.044069299285854568e-02
-3.542160643757969601e-02,-5.182050608178181417e-01,7.576022561430710844e-01
-5.566871057335958106e-01,6.314353722763906829e-01,-1.997033876869433178e-01
6.852982448502353829e-01,8.841227509597841816e-02,-3.931790822957894060e-01
-1.070222374565331203e+00,-1.988545255079330609e-01,4.153182382076143209e-01
1.052434579539854587e-01,-5.528855706732499486e-01,6.697827310605610762e-01
-2.917556441290942715e-01,-4.412034675605361334e-01,6.389443371328629162e-01
-6.941650495805974375e-01,-2.048759313242317637e-01,3.582466619730479418e-01
7.956995715482763076e-01,-7.743046136107049060e-01,2.781248468939455654e-01
1.370944453804971430e-01,-8.748535652884862346e-01,8.209045482494286006e-01
-2.749248774855531652e-01,9.355220983335680307e-01,-6.564097944783233718e-01
-6.890157413549266030e-01,-1.478332945002141519e-01,3.554292065073312856e-01
8.854584943356034188e-01,-1.693199842307782088e-01,6.135668836860710962e-02
8.542382468414119190e-01,-2.298801744654468959e-01,-3.121257744648469057e-01
4.389810356389281520e-01,-5.906427942025731515e-01,3.286836847254373528e-01
-7.723660440406808769e-01,2.741806671425526809e-01,9.382000984715693770e-02
-1.030527267115887158e+00,-1.656897571792484702e-01,2.344366457648059954e-01
-4.370600778823922061e-01,5.231617289317703756e-01,-4.359019823686803852e-01
6.504396418321651829e-01,-4.823993307304186295e-01,1.296873985018287267e-01
6.226702192314235301e-02,7.466518416561950255e-01,-9.076422171459501698e-01
-8.746932962356224195e-01,4.968187696553600374e-01,-4.397687402634898879e-01
-3.625302563107919429e-01,-4.642892659578429226e-01,5.625472863704513715e-01
3.461942939216725024e-01,-5.387916688022741374e-01,5.367357132908285866e-01
-5.585831984370511760e-01,-5.855640679786511260e-01,4.697377775685261381e-01
-1.846505409886862181e-01,-5.944743806339517489e-01,8.859055741813323115e-01
1.901355841830581692e-02,-9.214964006350452319e-01,6.951324737724244862e-01
5.575513638746572020e-01,-6.922199690848918063e-01,7.021450544557128470e-01
5.285382249870076432e-01,4.669059471211322032e-01,-4.585773650001674917e-01
-9.679283169136311260e-01,6.620551421814687698e-01,-1.238669757969694113e-01
-6.963496560368771515e-01,4.343896133196535336e-01,-4.111010485939534664e-01
-5.483439525414759430e-01,-3.977510195249825409e-01,4.578555980817393678e-01
-7.400493216989053602e-01,-3.508660442984892769e-02,5.172043015919181030e-01
5.467261449683286090e-01,-8.712031624867349056e-01,5.757728146169966976e-01
7.335723202174133650e-01,-3.765701560987114171e-01,3.286641226968001206e-01
-1.147315574407231198e+00,2.835957851909873817e-01,1.063041123592625425e-01
7.133837516434931025e-01,6.101418923386084936e-01,-6.954989098542392334e-01
-6.958749534246804203e-01,3.828102063420629197e-01,-1.247766632603052039e-01
-1.030121160903921806e+00,3.015264484294166714e-01,3.124052940812926393e-01
6.773700813298441092e-01,-4.638576195178002459e-01,4.623460661413468231e-01
-8.774857153203907689e-02,8.650286408845115904e-01,-5.192308044903728437e-01
-6.708757303992194387e-01,-6.604749451087215117e-01,6.805417862552373132e-01
2.174810185129551210e-02,-7.846595000210494497e-01,8.767541920755519413e-01
8.433579925178800174e-01,-4.420390161423381481e-01,-1.597571356119712183e-01
5.836516784129195390e-01,-5.768175954717519316e-01,6.428883111557949226e-01
7.748813012392148369e-01,-3.951732785063370446e-01,-7.837206305967385489e-02
-8.584319762874625948e-01,1.539623287399383977e-01,-8.180104104939947551e-02
-4.227693988919794532e-01,5.708691180380659480e-01,-6.593924755731016552e-01
8.812424704805963405e-01,-3.500585022413182368e-01,3.448586458172129832e-01
9.523712605349855531e-01,-3.499959202735671848e-01,3.007021025836176253e-01
3.357882252248601263e-01,7.059469936142546143e-01,-8.900697679211628799e-01
1.151061422308187643e+00,-2.927516211475805763e-01,-9.921806734830122820e-02
2.150154191481050137e-01,-8.239873384305371751e-01,4.391479344718026145e-01
7.068536551340554031e-01,-7.975019769121229896e-01,2.664059843708934672e-01
-4.000767077494921664e-01,8.857001587456407865e-01,-4.382221897018319101e-01
5.016504978357222422e-01,6.668708898247700523e-01,-5.154535974698229994e-01
6.841629572398713055e-01,1.778469716686050250e-01,-3.590297258344832820e-01
8.486009936926390829e-01,7.979101068720108325e-03,-1.015748199038457172e-01
-7.607322397282353377e-01,-1.639830799320672883e-01,7.124040366779006428e-01
3.027310025457108367e-01,-7.545569989554139489e-01,3.860607826073730320e-01
6.688951382684797942e-01,1.609863223262099075e-01,-4.428118508140654885e-01
-3.231910329065730836e-01,-4.397809288965806029e-01,8.145092886549025746e-01
-7.608408399980914893e-01,4.325573870068649684e-02,3.048295977370217846e-01
3.392126488814971585e-01,4.316477987624092183e-01,-5.910441153156377192e-01
1.166935633477614420e+00,-3.316007895697493657e-01,-3.654720639668604387e-02
7.721250421199755687e-01,-5.550831316703647156e-01,5.289760694181381284e-01
-5.965372331546454632e-01,-7.112852198543015980e-01,7.123643405170564380e-01
-8.442622884150593476e-01,-1.731383540403580792e-02,1.269230563246558918e-01
4.353103257371195717e-02,9.302097545402570056e-01,-7.054703102462351882e-01
-7.448374205257709546e-01,-4.499187199142704041e-01,4.078896331064792991e-01
-8.427427191363142667e-01,5.882004529107431878e-01,1.410679441980222486e-02
-8.345097148769633488e-01,9.056383695018099811e-03,5.462085227819732935e-01
-6.141073206200008405e-01,-2.003836018776751215e-01,6.227311415529921401e-01
-7.717270162161360414e-01,4.598726454939265906e-01,4.222014574026084627e-02
7.591788485169456147e-01,-6.209908209179074712e-01,5.644352504199321441e-01
8.238588787279298442e-01,-2.133878948459287106e-01,1.088361765615752513e-01
-5.864638100839332235e-01,-2.508037141557512562e-01,4.739017183121684296e-01
3.519173696327991818e-01,-9.027055644218686670e-01,7.313808984073424391e-01
-9.750407056210796952e-01,1.492781160872125035e-01,4.308023167437086687e-01
-5.158435994644001710e-01,8.535389188664218585e-01,-6.656944785697432865e-01
8.196743036107975167e-01,-6.149822738772348085e-01,2.587102417610391211e-02
5.900856591923621108e-01,2.265850749010136500e-01,-5.300699746779466981e-01
1.525497920540066499e-01,4.996682029924758295e-01,-7.803778128712802742e-01
9.776955297613005857e-01,-6.407861820487357196e-01,1.162063015793273341e-01
-7.662129692560953886e-01,9.835343075062766283e-02,1.407834950606974556e-01
-7.086030828275475812e-01,4.979313450507957262e-01,-5.018012963362070700e-01
7.925301733114166192e-01,-2.683552854278021815e-01,1.467641205582068675e-01
-7.201873704268277887e-01,6.959156775757781022e-01,-1.061612435067968846e-01
7.356776898197224801e-01,6.217353790223394405e-01,-5.772032829488880079e-01
-5.286428432343248662e-01,-7.281362818540622062e-01,7.610858053987332728e-01
-1.039175413922335256e+00,-2.786940832058860673e-01,5.304100042087368516e-01
4.758158996826822307e-01,-7.635408136792135592e-01,3.017309229633443612e-01
-4.022842407871635717e-01,-5.127160617815412769e-01,4.992943640871819189e-01
3.383025444737007559e-02,6.418858526454558344e-01,-4.783926311668657561e-01
-9.404848855676006814e-01,5.072925278561232210e-01,-3.598081398662554831e-01
6.439791470525079164e-01,6.781967791983395388e-01,-7.157677611818845653e-01
-7.350548444899609457e-01,-4.204440505718889942e-01,3.868344378879557954e-01
-4.452423709795626516e-01,-7.665042295858158772e-01,6.251909682770149246e-01
7.956116644669640747e-01,-7.211894920458330471e-01,1.322869214557572948e-01
6.441846233103821762e-01,1.911893449814941470e-01,-4.247234048489248459e-01
-1.111337168077574766e+00,3.438142620378607517e-01,2.223345652790510718e-01
-6.079339928699869500e-01,4.593855184590501795e-01,-4.623316277237531913e-01
-1.147189238650590637e+00,-5.161805022904016049e-02,3.892643284438440099e-01
-4.806937027360779768e-01,-4.554663293723306139e-01,4.965981643409142499e-01
-6.438901181326760481e-01,-6.132755937402655233e-01,5.113365345093415781e-01
-1.165926888676163120e+00,-3.254650315139448816e-03,3.014177966625201099e-01
-8.130815916090974316e-01,5.848264570049204192e-01,2.847964125424222101e-02
-3.023625827120033360e-01,-5.185158230092014042e-01,8.706676630404467376e-01
-1.160955042775204671e+00,8.763533449640027728e-02,2.139531615138162146e-01
-1.969722863615920583e-01,7.900554444966613188e-01,-8.403921385175370240e-01
-3.939154904140264590e-01,5.709725908556276819e-01,-6.612897201771577027e-01
1.577540440201234961e-01,-6.415789542650296440e-01,8.184659667698658270e-01
7.990911773913719207e-01,4.559345178702988721e-01,-4.228939361385546380e-01
3.100819142191526545e-01,8.423036892750861426e-01,-7.607912583964752118e-01
-6.773240308748068594e-01,6.464606289945068474e-01,-1.196571835116181648e-01
7.741070690977659430e-01,-5.037237968121133225e-01,-5.440038529526414202e-02
-3.647672828862164596e-01,-8.109581405028164491e-01,7.451173457038969827e-01
-3.114234370213155856e-01,-4.661082583792718337e-01,5.735146017915089267e-01
7.963350509129892840e-01,-3.895044709281845763e-01,4.068840974445097070e-01
-8.295140370323774714e-01,-3.331759202439482648e-02,1.443004018415525447e-01
-1.643510334955485680e-02,-7.602424409471174593e-01,8.897891381825283608e-01
-1.706269776759086476e-01,6.717999586860734507e-01,-8.356650745848009931e-01
-1.941992603813014473e-01,5.731323871285325389e-01,-5.274357353582981300e-01
8.193586424767591581e-01,5.386206290243670258e-01,-5.761775256220119656e-01
1.157850970866545426e+00,-2.311849145429839547e-01,-5.591389335734558985e-02
1.804065121013877573e-02,8.212433697470562510e-01,-5.105683230222199942e-01
2.904856694540313700e-01,-5.577024485277285448e-01,5.031529927934360602e-01
1.151097221857042996e+00,-3.313271338119071485e-01,-9.650152669561233229e-03
-8.074355560198311910e-01,6.566686350362070934e-01,-5.081200480203235115e-01
-7.936272971164834988e-01,7.710420989841808570e-01,-2.066917017591809458e-01
-7.445365909277162908e-01,5.626425230962833757e-01,-3.689049301483787041e-02
1.580886006249463682e-01,4.975254841753500856e-01,-6.074633795303900907e-01
9.806876241289695928e-01,-4.625738526799813566e-01,3.131597667057887113e-01
7.592420577906721091e-01,-6.264941183656228540e-01,5.407824879382205907e-01
-9.624398925851922471e-01,5.402595940726994117e-01,-3.931569738659918545e-01
-3.644592410624055145e-01,6.000443401988307945e-01,-7.186035304661734235e-01
7.236805074411980510e-01,-8.038572515125171902e-01,5.175624440066315390e-01
5.163327123318807166e-01,3.308821548352616770e-01,-7.440320152344337412e-01
-2.132854063555725543e-01,-6.979699674698262024e-01,5.059490662999670541e-01
-8.811581517805741059e-01,1.566874209920965932e-01,3.958113316369272217e-01
-1.078126999612891712e+00,-7.607419567965954810e-02,5.276055676285533735e-01
6.524634310720864860e-01,2.855258122603412940e-01,-4.073557298856196329e-01
8.569989695073453317e-01,2.615329634574752316e-01,-7.493432687340263465e-01
1.045869545611050944e+00,-5.057636884053721138e-01,-3.097107873245057846e-02
-5.717900844617072043e-01,5.461887421292013212e-01,-6.004575397550524496e-01
3.301131643221408285e-01,-7.132263939902978578e-01,8.097441969288694530e-01
3.120773183518890659e-01,4.667578822778636338e-01,-5.493938694373647902e-01
6.305927861685604041e-01,-4.713202498189835166e-01,4.406432662743147155e-01
7.946017978760239187e-01,-3.548968994272942989e-01,-1.533489237881805745e-01
2.960229375088072601e-01,7.852224687921672830e-01,-8.221696523542139090e-01
7.572473306583479280e-01,4.780078443400596622e-01,-7.817392005442589387e-01
7.765524061157546010e-01,-2.057223857956908264e-01,-8.393750223247641029e-02
-3.034330210425154051e-01,-4.077926428852360896e-01,7.139791180919756730e-01
-1.522677518483693537e-01,-7.094973024951292118e-01,5.159180509394496461e-01
-9.399846170360010023e-01,4.047591705535818485e-01,2.164860008755286336e-01
-5.118071790108157382e-01,8.984046293160244945e-01,-5.846972515198591847e-01
1.029362788817829388e+00,2.761507226604390519e-01,-5.534337113353124948e-01
-9.305018557620452213e-02,5.410840478882086302e-01,-7.100118436615914241e-01
1.025786808066485589e+00,2.111422096995086706e-01,-3.119373109926424914e-01
5.985537289346191114e-01,-6.061723259949626241e-01,1.851060458407648990e-01
-2.155130419190375013e-01,5.705946952385648752e-01,-5.148777621099038804e-01
1.151876195722444374e+00,-8.797135332660685481e-02,-2.495185461866719911e-01
8.987750733644364054e-01,-3.436297315860262769e-01,3.023807992747516993e-01
4.566075902156214172e-01,6.906662281684841087e-01,-5.405021664703389961e-01
9.004795911281980869e-01,-4.089241731567347382e-02,-3.120855445550672208e-02
-1.079590207236306831e+00,4.741392162676459909e-01,-1.578285442303072050e-01
-6.262071020207757854e-01,8.525013012085433939e-01,-3.261415351703621512e-01
-6.328482261947798726e-01,-6.629190585667609215e-01,6.105699112536501216e-01
-3.331611979422750003e-01,-4.447591038898544569e-01,7.964685128363142574e-01
1.007224706763963029e+00,-5.877649424438452508e-01,2.162733141131832626e-02
6.835404566088902900e-01,8.939155277147195489e-02,-5.190766277196572354e-01
7.648866166237899833e-01,-6.719154111126669771e-02,-1.646640598030787161e-01
4.959479728766127415e-01,-5.033781567218659214e-01,5.087868068580576608e-01
-8.863223120093356444e-01,-4.654240978372239379e-01,5.639576659416888349e-01
-3.750216320170030038e-01,8.066541617928058017e-01,-3.414156878657968464e-01
-8.314192137571509988e-01,4.798037557071528347e-01,1.224641085452138067e-01
7.731722010657301469e-01,3.338820913877398044e-02,-5.802330394043617723e-01
-3.609778914830374386e-01,7.714042015718117762e-01,-7.966395533512504734e-01
-7.234015857713295139e-01,-6.873919673939693498e-02,3.813659326161968344e-01
9.506854063422608414e-01,-1.286403723306687452e-01,-4.697511409774166036e-01
-4.444646018567962598e-01,-3.583858922916793865e-01,5.564885935328942601e-01
9.511437390691378502e-01,-6.347431242804378870e-01,6.800372109286421940e-02
-7.072106176644732400e-01,-3.505574890272390443e-01,7.936997980371841566e-01
-3.225429948444610839e-01,9.323470412974339538e-01,-5.940240551673534597e-01
7.706794974061930148e-01,-3.339943287994490140e-02,-1.794549011435936092e-01
1.641548666223047737e-01,6.416190874806581013e-01,-9.101866309576152059e-01
-1.245977151612361195e-01,-8.725031821179055624e-01,7.979771097096562960e-01
8.618246855967977016e-01,-7.348936772982431753e-01,4.170004793995413239e-01
9.051582077862941889e-01,4.681994581336132999e-01,-6.191632429791339431e-01
1.145084231356209847e-01,-9.486021127278313481e-01,6.175509404261321222e-01
1.006552421151075405e-01,-5.316459808656861519e-01,6.591689954631807513e-01
-7.418120720478253993e-01,5.151127947230760284e-01,-1.018697445999300170e-02
-7.736701896279946089e-01,2.561462592435428398e-01,3.188965489674953219e-02
-5.474525433540677888e-01,5.442438241731936133e-01,-2.919011690104794665e-01
-4.992036442763758131e-01,-3.238106915451666179e-01,7.467088889770899796e-01
2.935847296061928069e-01,7.563821273595663364e-01,-5.438921288553829614e-01
1.044600682958683358e+00,-1.199521615619887210e-01,3.554101345356003305e-02
2.826022413857951499e-01,7.720226793558329081e-01,-5.504933981494188888e-01
1.975214139816207359e-01,-6.115745628521976895e-01,4.721645922105229265e-01
-2.870977782566208614e-01,5.770511238759158390e-01,-4.542655699569837502e-01
-7.710758431634082699e-01,4.943521955054090977e-01,4.963267065838630754e-02
-7.227383873741584086e-01,5.654840059564836263e-01,-5.783750868405931195e-02
5.593166066210855103e-01,4.878873850204406559e-01,-4.557767083080619397e-01
-7.178431193476892958e-01,-3.384786280259936136e-02,4.975273851969944650e-01
-1.138929607035451097e+00,-4.136645764323972768e-02,2.332102257251774391e-01
9.789231861873197715e-01,-3.225965598400771239e-01,2.671111874625263227e-01
2.560245151324728186e-01,8.724977394367642303e-01,-7.135149282259539705e-01
7.672824322784895790e-01,4.872881943729651111e-02,-5.660226552257874300e-01
-1.090523216183091337e+00,1.047273551549093157e-01,2.596518468037626454e-02
7.761619336150983317e-01,7.677586926300344894e-02,-6.463090133466911080e-01
2.635326418159009698e-01,-6.839142438518316380e-01,4.074391421248889089e-01
-7.550258423957887377e-01,3.136518778503012972e-01,-1.718998381082274540e-01
-1.027557354586354776e+00,3.800392568527468651e-01,2.169073017236426426e-01
1.079201961057664860e+00,6.824773784616933181e-02,-1.788925097294880306e-01
6.960731379841829103e-01,3.337715536460897359e-01,-3.767148323583602854e-01
-1.099953458958528696e+00,-1.441422325289346829e-01,4.005985863229301613e-01
3.556004685371867979e-01,-5.509559979259736062e-01,4.718318325542353864e-01
-6.030261673497666619e-01,-7.081264101000452893e-01,7.217644373688023585e-01
-6.653224911821383758e-01,-1.637196016653219011e-01,4.612836187587102121e-01
3.913997590804645932e-01,-7.431797985149642960e-01,3.349271838751329833e-01
5.691211080087447138e-01,4.771898666453985305e-01,-8.734009752245031066e-01
4.878101750817992466e-01,7.981431454644674073e-01,-7.300225815184849809e-01
3.367824470626764044e-01,8.232150131301048113e-01,-6.463540626154505864e-01
5.924552050370393008e-01,-8.303517643021338657e-01,3.162667452493088116e-01
4.746623978231799268e-01,3.744062704813336806e-01,-7.803349953907406933e-01
-4.749357052149252856e-01,4.975206817187878827e-01,-5.071140725964327078e-01
-4.363112399955723086e-01,-4.830762259864567199e-01,8.528274070161694365e-01
1.141057356524939781e+00,-1.678062883519976789e-01,-3.045064335848382542e-01
-7.100573120363593560e-01,-1.618058879300124098e-01,3.509587793267460176e-01
-5.810591365601457392e-01,4.619741636780118621e-01,-3.494915712666992746e-01
2.368322303605177037e-01,-8.653174709354576333e-01,4.488275146760883350e-01
-8.788228748054496275e-01,1.070506128638492593e-01,4.881556716741721202e-01
7.250130204796702005e-01,3.605380981786519001e-01,-3.607198763457138968e-01
8.775827170146043299e-01,-7.481094818219005127e-01,2.746100039351832001e-01
-1.909090129270292757e-01,-4.501724855932188740e-01,7.519638745423882220e-01
7.782974232222448219e-01,-5.189534392144691255e-01,5.183087889312972818e-01
-3.192763345875151426e-01,-8.486207803012031370e-01,7.573474100745910542e-01
5.233560120556822459e-02,-7.623503684922917634e-01,8.717244151983154499e-01
-8.159935240479772034e-01,-2.201224063909237860e-01,7.412813913433154989e-01
-3.950858953187524197e-02,9.288382309748592913e-01,-6.193827221050988152e-01
8.120803175451373201e-01,-1.438782415495230838e-01,-3.707419218460784038e-01
9.804339228476499635e-01,-1.567902922787731135e-01,9.371063772378099288e-02
-5.624868777669307374e-01,5.174570213174217725e-01,-2.851060038298247612e-01
2.393209324133283855e-01,5.316901226975889738e-01,-8.595242073404656402e-01
2.993473321994105651e-01,4.232576114641347642e-01,-7.203462831127692700e-01
-8.281634097971327657e-01,5.476290695371905937e-01,-5.162542489001707979e-01
-1.136486086964983766e+00,1.779790514815103586e-01,3.440685598389122690e-01
1.525827321625728983e-01,5.833113187766416630e-01,-5.317675072799041835e-01
5.159772278757307484e-01,-4.889178619787601376e-01,4.258097246180430617e-01
-7.109121132209687000e-01,-3.104434385927029028e-01,3.430456232671805217e-01
5.014560799379539358e-01,6.293787258257683703e-01,-8.549542353353879465e-01
-3.813086003333643337e-02,6.460948884171574536e-01,-4.823749354225118635e-01
1.088422821702664134e+00,-4.345815698583602171e-01,1.477371923180243185e-01
2.398504184580674183e-03,-8.519361552815215566e-01,5.199318131761262451e-01
-9.589700872472908255e-01,6.337686501948792683e-01,-6.890150868365171877e-02
-7.917199207327971777e-01,-1.355359491192764665e-01,2.383735610358219958e-01
4.362608890770131587e-01,4.248910081182918907e-01,-8.284910451379080554e-01
-2.587135148949062241e-02,-5.851126292718201727e-01,8.424348033073950637e-01
-7.907745749732377760e-01,8.092806110259684327e-02,3.660831670059457310e-01
8.915325710946913063e-01,-2.530920324332048277e-01,-3.403439350770038341e-01
7.475172631467464912e-01,5.686304709780868327e-01,-7.562680006537298993e-01
6.859704226149263562e-01,-4.570877814940263462e-01,5.618859273387501879e-02
-1.540927375123402054e-01,-8.722874567341203367e-01,6.645499478796900172e-01
-1.032687897050872383e+00,5.844931302912635962e-01,-1.800443724205495477e-01
5.411225561325437861e-01,6.720544658945079020e-01,-5.204339604486465376e-01
-6.948727673359753609e-01,4.367050037441576604e-01,-4.547192770748897939e-01
-4.460059020700464782e-01,-5.962771864702003377e-01,4.836560431256100578e-01
1.394657148421051818e-01,-9.020391368001671184e-01,7.632798365364469317e-01
8.089979709389885087e-01,1.510666653391249011e-02,-1.648996661142359821e-01
6.092981012305197508e-01,6.720320169405683552e-01,-8.066261291985540316e-01
-2.485960017828370561e-01,-6.836206023458382131e-01,9.024382216835565851e-01
3.370359253811903155e-01,4.519685563630701508e-01,-7.972738031603631148e-01
2.853838601777005102e-01,6.240720368993583067e-01,-8.963071082099006714e-01
-5.939807029686053896e-01,-7.065771267879913387e-01,6.476143394201915315e-01
8.363606620116562640e-01,8.227665573134220964e-03,-1.171414442707548742e-01
-5.825250048406778181e-01,4.725223198979922601e-01,-2.843125813920569511e-01
-6.698437343295807755e-01,5.046631650267670022e-01,-1.223900292391074812e-01
4.417767973575846274e-01,7.241590467402384546e-01,-5.460233822600286668e-01
4.157967804616701235e-01,-8.504814023988352956e-01,3.596802575662532697e-01
7.832778803617693741e-01,-5.052553624390829778e-01,5.046054873005871855e-01
2.039884905828112105e-01,7.878363630236349113e-01,-8.623992692583298814e-01
9.437149851383181964e-01,-5.310679549651408093e-01,3.396337286399495059e-01
7.427768334598852107e-01,-2.188692606521099385e-02,-3.083693604458560000e-01
4.035002648332006170e-01,-9.146747569799322797e-01,6.711358136242241423e-01
1.155348851008134864e-01,8.959768626714387230e-01,-7.941186314394892420e-01
-1.145459172835344930e+00,2.066711442577573443e-01,2.310654583393596528e-01
-1.050199577018856134e+00,5.887072433041664610e-01,-1.488973028603872706e-01
5.864518563957764330e-02,8.851264609681115392e-01,-5.727269152357168380e-01
1.186697333971133528e+00,-1.302530753664588037e-01,-2.365072077069400036e-01
-7.163518126099356342e-01,-2.121135289296309512e-01,7.205017455722759756e-01
9.659015489975555369e-01,5.053625828828033073e-02,-5.991582921286415786e-01
-9.064335626752800801e-02,-5.640789538330206465e-01,8.538177306911955977e-01
8.263778433366957277e-01,-1.915666898176288935e-01,4.156227946053750455e-02
-4.097455355022082690e-01,-4.632280132680612339e-01,8.510517778844933767e-01
8.572286849977152068e-01,-6.938144694624723829e-01,1.325227689317465263e-01
-2.078944114265053045e-01,-5.573156912400423213e-01,8.913373575834411255e-01
1.536726385543610574e-01,-7.032516104878530072e-01,4.638451077160981595e-01
-1.102487403695570745e+00,4.849089200994811666e-01,9.355278805187760074e-03
-4.860556560110075308e-01,8.072044381911408495e-01,-3.510678457380236317e-01
-3.175005289850131862e-01,-8.292357490327677549e-01,7.210854369308715706e-01
1.050661500268468496e+00,-3.674455791044028974e-01,2.080386906049074836e-01
-6.067443259923062104e-01,-6.634939566572146674e-01,5.685621258159326841e-01
7.310553382020351654e-01,1.503141387358692023e-02,-4.023566335118085036e-01
9.388023573573568425e-01,2.607333799132334762e-01,-6.680752592449775706e-01
1.891548351447172871e-01,-5.589183863126971907e-01,6.017868513749301540e-01
-8.883182838146206350e-01,7.321646245435093903e-01,-2.448698393992323474e-01
8.390187045003688615e-01,-6.819156774454600278e-02,-5.320251343968284558e-02
3.735507356120131295e-01,4.781535684414574550e-01,-5.237113188924575891e-01
-7.947711767372462877e-01,2.607384562961265750e-01,-1.477064622183492104e-01
-7.101583858799153104e-01,-5.290219834758477235e-01,8.129625247886184125e-01
-2.060602089815165017e-01,-8.118128446349759386e-01,5.475913694285093891e-01
8.336336321044560127e-02,7.077233572011096818e-01,-4.960091928637677672e-01
6.475844513669662961e-01,3.238689624630096131e-01,-7.901265100484662351e-01
-5.904819800593322232e-02,5.925694567142743008e-01,-8.393842005300913289e-01
-3.376960326473305574e-01,7.437532569403602078e-01,-3.655242191643852112e-01
5.400270074044459800e-01,6.293503156514351771e-01,-8.375812023871528345e-01
1.294738005963549099e-01,7.916586546215365061e-01,-5.215397255556684097e-01
8.506334623448889021e-01,4.803618547140175443e-01,-4.979198063948774289e-01
1.745696754782758431e-01,-6.111786356026188693e-01,7.917841484981621436e-01
-7.534865027915434166e-02,9.172073754965147652e-01,-7.320636845837983353e-01
-2.210010066956329955e-01,-6.703294637928738364e-01,5.077090120326667178e-01
-4.896359911208263971e-01,6.497307114818315910e-01,-2.769656171696853741e-01
-5.889010878579308272e-01,-2.641090419663261191e-01,7.202874724699399600e-01
-1.045254793997312248e+00,1.900716049922008821e-01,-1.127375286004956428e-01
-1.115978103892416806e+00,3.986947882090181167e-02,9.748918935650578710e-02
-2.337648069641579118e-01,7.269943246902477174e-01,-4.222940153375546180e-01
7.407840386717453596e-01,2.743906892587126278e-01,-3.235777811348147237e-01
7.116670032910928922e-01,-3.622175129033099461e-01,8.411328326038092218e-02
-3.005957961429110425e-01,-7.159096680414593905e-01,9.076422044338734452e-01
5.546433222222634241e-01,5.195899839297432043e-01,-4.598780109133358551e-01
1.407185190884111259e-01,-5.628844137968278538e-01,7.949178613668347326e-01
7.471077235831333763e-01,5.734744202139120395e-01,-5.334902688626723677e-01
-1.129286395860138459e+00,8.336190056691666905e-02,6.167589641526653038e-02
-1.119388748456466853e+00,-1.151634141463233479e-01,2.834103361078456063e-01
4.868656623955142648e-01,7.250132471162298309e-01,-8.000852700700337161e-01
1.262784977323355151e-01,-8.288710203069645788e-01,4.726266928617555152e-01
8.525476544752685903e-01,-3.847449690927865484e-01,3.196719310522609936e-01
-1.144124273260967106e+00,2.768784894197726110e-01,7.146228398812617955e-02
-7.327753004375078261e-01,6.051097020756696088e-01,-4.479218231299715580e-02
6.837398093889283102e-01,6.549061836788889757e-01,-6.108073706584538076e-01
-5.432723355834548906e-01,-7.541297435315732489e-01,6.382541909351879816e-01
3.368047777107271434e-01,4.436502883234109129e-01,-8.074180727301611959e-01
-8.969964215246398753e-01,6.207994903361271355e-01,-4.357571665829846896e-01
2.370856437430997887e-01,4.883343445518969483e-01,-8.082984027582789111e-01
2.330434783917152350e-02,-6.406159523208360129e-01,4.989387556607383090e-01
4.732046933053730142e-01,-5.102048346533964995e-01,4.619312942421162638e-01
1.274415539654233653e-01,-7.113180129601835988e-01,4.637089312227517524e-01
8.022668093106032350e-01,-6.594638822184854809e-02,-1.078557569697373569e-01
8.113841249216460216e-01,-1.648391065516865150e-01,-7.747809110778020036e-02
-5.921731297830917784e-01,-3.416905275896393590e-01,8.201400217563306061e-01
4.469372930887344220e-01,-5.157679576089901907e-01,5.346854188065321978e-01
-6.979608041331523127e-01,-5.604730243674835855e-01,7.869829814274316160e-01
-1.882816347517849570e-02,-8.892360437961764896e-01,5.965506943900792391e-01
5.302099668994949416e-02,9.137885817481830042e-01,-7.071117638457895538e-01
4.292334319872151971e-01,-7.574154833355768446e-01,7.660609648202184596e-01
-4.270114212393466002e-01,5.467872656700902834e-01,-4.594688175335504554e-01
-2.061809380955421378e-01,6.057457594275420520e-01,-4.703159717432697229e-01
-9.360138245422215952e-01,4.895472797581506552e-01,-4.101225557796072674e-01
8.263550424452493770e-01,-9.450382251961578217e-02,-4.302453930904501234e-02
-6.618568055302015418e-01,-6.488207867217004043e-01,6.182730316912281587e-01
2.891576049624372535e-02,-8.820434387534816789e-01,8.397351116687495898e-01
7.107677094325045575e-01,3.502208143840546128e-01,-3.513543348652084508e-01
-3.043047915766376454e-01,-5.283409600515378557e-01,5.713476243459874038e-01
-5.750362542687799117e-01,-7.184342469044009416e-01,6.224762710303283209e-01
-8.020581309423228111e-01,8.058809753110047769e-01,-3.525742681154536151e-01
9.210372748049479030e-01,-6.092427042254745517e-01,4.057827845078266771e-01
3.846581845202719507e-01,-7.601054134117791738e-01,3.321668247601877177e-01
-1.095243992815903233e+00,5.108780649192823375e-01,-9.484039007989698844e-02
-7.841249973984478761e-01,-5.854023058130533030e-01,6.043037597995398746e-01
3.165871366424633515e-01,-7.525770889394579610e-01,3.783204179875662154e-01
-7.948732082920987319e-01,3.887889573462660064e-01,1.505870219591391723e-01
4.353522491053246624e-01,7.861110039905543356e-01,-7.469642629536614731e-01
9.334300140977759286e-01,-4.183782371620944351e-01,-2.006885635020476677e-01
1.735242039054610275e-02,-6.036235210546921914e-01,8.404541610339176794e-01
8.348584569393064925e-01,-4.132513179847426277e-01,-1.776709974753376275e-01
-8.443971760362312118e-01,-4.980135327462424932e-01,5.332177151547550231e-01
-1.057474904970820750e+00,4.725227365171938976e-01,-2.043734138973629655e-01
-6.878406397447234255e-01,-2.556923373111224529e-01,3.776668297542035146e-01
-7.363165684362058538e-01,5.499504670034617293e-01,-4.462676710232824323e-04
-6.232942896052273696e-01,4.227935765038249305e-01,-2.605189857241471674e-01
-9.601525938893530343e-01,4.870428617472615240e-01,-3.492491830862106683e-01
1.031374239921706071e+00,-3.099876806956418096e-01,-2.908728299622058699e-01
-7.890670476908628883e-01,3.268293562261602447e-02,2.134504006804035792e-01
-1.849123187517324185e-01,-6.006744335710949567e-01,5.046429211543637106e-01
-7.748859806753304325e-01,1.788897001794663433e-01,2.795757956972297342e-01
-5.466955233562940109e-01,4.787162955398649999e-01,-4.364489453555566723e-01
3.144951646770017262e-01,-6.939779052614106769e-01,3.943727665078609057e-01
6.914595964716017118e-01,-3.996352879695003746e-01,7.832891722765296383e-02
-5.726478696705571414e-01,9.100221636663846647e-01,-4.555956594441150642e-01
7.054056874407708122e-01,-7.108851523971378983e-01,1.486484534988626038e-01
-1.157520850760743514e+00,1.316577170480343340e-01,9.843535489011340234e-02
1.540516751004792073e-01,-8.021536230251291588e-01,8.446654943710020236e-01
-4.127329672432482055e-01,5.480774622353457026e-01,-3.858559757548951641e-01
-7.362258374218885182e-01,5.709442472360433118e-01,-5.688888259112663270e-01
1.137241182991556743e+00,2.223130693809859115e-02,-2.274453147831459465e-01
7.335259318929494843e-02,-5.675302585729690152e-01,7.726528588918950557e-01
8.092864077969135206e-01,-7.064334910140425139e-01,1.317331173301151404e-01
1.028577657212698337e+00,1.285323146277247974e-01,-2.208455503598499847e-01
-1.124590054814035289e+00,2.929169947985577616e-01,-6.359272483492747763e-02
-5.178758407622809923e-01,-4.057450409292681637e-01,8.197816740556139736e-01
-7.558521735358789684e-01,-1.487011509605632720e-01,2.733763901955581499e-01
-4.541742352457934784e-01,-3.382266879419024708e-01,6.498066698146429676e-01
-1.088369289428717801e+00,4.675199236962309657e-01,-1.964451243142891542e-03
7.560628215276528064e-01,-6.670104713723389311e-01,5.545583882473283932e-01
-6.375011352358471439e-02,-6.459980659074613385e-01,5.152327931667891603e-01
-8.855498001803663310e-01,2.892092804737240730e-01,-2.057537219512302340e-01
3.013951513100575075e-01,4.176321832686539226e-01,-6.990150479236333370e-01
-3.761389862818513286e-01,-7.737904518555011046e-01,8.804039104742036326e-01
4.552988181557842684e-01,4.108895779176495178e-01,-4.886073749726418947e-01
9.042956227638381250e-01,-6.965337256605655947e-01,1.232427518351947304e-01
3.395050273932996854e-01,-5.855501622650067794e-01,6.775251048191603953e-01
-6.301547524561429414e-01,7.285688474712818108e-01,-1.815857459321126022e-01
2.906473692503253048e-01,4.184586101144316950e-01,-7.261997487579954225e-01
1.249170768930126380e-01,6.174060167768893326e-01,-8.763439250451305895e-01
-8.486769937102116579e-01,4.483508046072794406e-01,-4.020387011074016415e-01
4.549391121767586421e-01,-5.576905657064452626e-01,3.298583620930103377e-01
3.734202869925901669e-01,4.856598860487258418e-01,-5.116380028024796189e-01
-4.096244917441650424e-01,6.856498903724025373e-01,-7.596286791975607189e-01
1.923267687156557659e-01,5.897043487352907620e-01,-8.891544591900718553e-01
4.714068364374205400e-01,-5.381421003029976946e-01,3.561287034637598548e-01
-3.054757763565055240e-01,5.368222394674738718e-01,-6.562575339093843496e-01
5.057122142113903429e-01,-5.639658859061261742e-01,3.198631735112448804e-01
9.560966120698993764e-02,6.332415545457259487e-01,-5.024614694703066764e-01
-1.041836520368782493e+00,5.684646963900080729e-01,-1.852726989119787004e-01
1.986810460431204794e-01,-7.562914008567470647e-01,8.562556441621034242e-01
-5.102433436118503779e-02,-6.116678982564739409e-01,8.847031747030219551e-01
6.685230398510649819e-01,1.525902084929272040e-01,-5.182671695980541893e-01
-3.455824898605550088e-01,-6.564909117122168514e-01,9.169524389981943413e-01
1.119689260296118150e+00,-5.488168073270293344e-03,-3.846250154076875094e-01
3.944526631626242841e-01,5.471313595194844392e-01,-4.981950341704194374e-01
-6.095840807706970343e-01,-6.169615370467523841e-01,5.401704459265245228e-01
-9.347122230632983753e-01,5.918098616751732433e-01,2.617137057684653517e-02
5.735560982678704622e-01,6.317143767801429721e-01,-5.289290540836363297e-01
8.420260075438213976e-01,4.063358922918006710e-01,-3.736897930086712782e-01
-1.710647893942476017e-01,-6.071436889311604412e-01,8.924064723511572206e-01
-9.270004855362094787e-02,5.966839510983017458e-01,-8.156167295716594268e-01
7.724581713719951281e-01,5.043195536641890964e-02,-2.544766497300205987e-01
-1.143399783804464498e+00,-7.013885702657073062e-02,2.937791813121475304e-01
-6.879227495118489522e-01,-6.312391490398709948e-01,6.576246808937300514e-01
1.027898332765904810e+00,-4.207253814034934147e-01,-1.858840500590226985e-01
-1.145576371593270970e+00,2.023367077036891115e-01,3.035016719454099454e-01
2.282236901793038841e-01,-5.482009891203514229e-01,6.809592434305771214e-01
-2.032387531624601368e-02,-8.738919249900459763e-01,5.384933191388492357e-01
3.096084141890219008e-02,-6.623281851563813660e-01,8.825980729280503700e-01
-8.736796912918616265e-01,1.820579104834185724e-01,-1.230030485196212942e-01
-3.642870952264835871e-02,5.538277758300603759e-01,-5.881696709894663755e-01
1.169467001108295268e+00,-2.780006619771920873e-01,-8.533617426320651289e-02
-7.049254413501587768e-01,3.800165867935649811e-01,-6.710665079594832494e-02
-6.151917912734518046e-01,-6.930135686676683893e-01,6.795288139688124840e-01
-5.446053982107589286e-01,5.509293204348187922e-01,-2.316803758576801986e-01
-3.700964183046095979e-01,-4.032187882726380179e-01,7.773617038257950584e-01
-5.204206663156012436e-01,8.031596732836862040e-01,-3.138108175367850805e-01
1.188747618111795079e-01,5.198888086109301199e-01,-8.032160408574993138e-01
3.722485490722411416e-01,-5.647284910341010544e-01,3.936420981047976664e-01
-7.671444102839246604e-01,1.733611679820349083e-01,9.039953204946783727e-02
-7.747413425394390485e-01,1.112343106362921469e-01,2.644213175725131926e-01
-5.941045570895097522e-02,-9.005819550857852018e-01,6.246410009532245011e-01
-4.144503632313845110e-01,-4.293216958827504315e-01,8.293918943706742875e-01
-6.172347534058396645e-01,-4.782770127880436872e-01,8.523218766242718347e-01
-4.931177838326767371e-01,5.047964150996371302e-01,-4.466117320039383332e-01
3.399064985842987219e-01,-8.125686806232402803e-01,7.847014955570277284e-01
-1.151453355652515498e+00,1.825987316737377741e-02,3.023308686339408191e-01
-6.862253546813928962e-01,6.739240032915836398e-01,-1.334817720777751182e-01
2.533244476034176781e-02,8.267114900009614464e-01,-5.126172668005763988e-01
6.479518873177160243e-01,1.701999246825563472e-01,-5.212636393349250330e-01
-1.080425250484562949e-01,-8.750476128495471295e-01,5.635034903556616070e-01
-5.234412673934053517e-01,-2.677713388438044406e-01,6.116436940200317141e-01
-1.010758184517056568e+00,-3.399224178171749156e-01,4.720769516229318952e-01
