-2.314094861909053447e-01,-7.594446473845211099e-01,-1.525683785818746641e-01
-1.334929332893760867e-01,-9.540696948688714984e-01,1.572491552412802127e-02
1.265429606849778621e-01,8.091322546090253809e-01,3.529194498037536154e-01
-1.015953631178326544e-01,8.009293827778930508e-01,1.567243910036970195e-02
9.958812197533729593e-01,-1.800275443736671921e-01,2.574654570063696912e-01
-9.441092359863234584e-01,6.215986644330805388e-01,-3.534244658018929619e-01
5.447303888597564425e-01,6.188455055212719325e-01,5.783122992644496030e-01
-7.296535369023655626e-01,-1.265410436998664345e-01,-2.995975686662608051e-01
8.059488843660927992e-01,-8.557734274357525761e-01,2.236279639416911824e-01
-3.584498941392382787e-01,-6.505720163589706617e-01,-3.367473050502228782e-01
9.299019506512038458e-01,-5.779317273855369974e-01,4.490775436411204025e-01
8.784210885698497950e-01,4.678791943519332031e-01,2.771693204351192152e-01
-7.283950027577194009e-01,-5.016938819293812468e-01,-6.505848001208098808e-01
-1.005889683622243513e+00,-5.206631120660524387e-02,-6.010778115892875251e-01
2.321767021776411921e-01,-8.594383387576991495e-01,-1.977065783655046483e-01
5.008570249953597786e-01,5.156208748234183403e-01,3.705077535674516365e-01
1.045585601961194877e+00,-3.772539482065998540e-01,4.693425295093377470e-01
-7.842977856009275550e-01,-2.832788710372682872e-01,-6.584781393162774110e-01
-3.620924368642206015e-01,1.100002317906704663e+00,-1.616911186352427698e-01
-6.019568426352890356e-01,-4.002493695396441287e-01,-3.521110290967311984e-01
-1.011456093899901987e+00,4.488247148121013441e-01,-2.666749349707855932e-01
8.629671220293079204e-01,-5.618092369933546104e-01,1.552977597244629970e-01
9.060449601901907624e-01,-6.013842885671908389e-01,4.667703071700627371e-01
8.230880360287401443e-01,1.281836276484914494e-01,2.854325595976537899e-01
-1.031702525217646826e+00,3.771718433925653202e-01,-3.014877655773076648e-01
7.136380156206287850e-01,7.115750298780999517e-01,5.828543656398448292e-01
3.597262864411510108e-01,-9.850215356162989044e-01,-1.784665153422536898e-01
-4.195386333125538658e-01,7.641786171198844402e-01,4.849304369158191630e-02
-8.863699637683032373e-01,5.084508150944361260e-01,-5.241216566610552574e-01
4.076902337201141480e-01,1.077089702214813594e+00,2.901280111059992839e-01
-6.686304107995916235e-01,9.627109089993685087e-01,-1.409218459527886158e-01
-8.141286941709122704e-01,7.735362677009627319e-01,-1.070752333043877014e-01
-7.858911979021259153e-01,-7.710985921934719878e-01,-4.636951509263124160e-01
-6.468912188571239730e-01,-8.836193978429873752e-01,-2.793870942202055230e-01
-5.397422491854925175e-01,6.327686738769715546e-01,-9.631466716416502150e-02
-8.257280298007683150e-01,-3.927755040942541020e-01,-2.508792757022438868e-01
-4.720813509984365108e-01,5.922883356661201582e-01,-2.483759783709961755e-01
-6.765959912708516266e-02,-1.010309967706117362e+00,-3.709517139149878795e-01
-4.211466961664678821e-01,-6.814496570344792392e-01,-5.353359622278128782e-01
-7.715138543809226812e-01,-4.650358323453687714e-01,-6.449599564063798196e-01
7.459923705552538031e-01,-7.112337042137634180e-02,3.417391240152848342e-01
-5.111221969331690707e-01,-1.005343543229052505e+00,-2.276311451905376759e-01
3.881852605048076166e-01,-7.076593104532172829e-01,2.040447245977251023e-01
7.019921400841886427e-01,-2.520118947926641151e-01,4.924982149862753844e-01
-2.556906350811003481e-01,9.706431108019991649e-01,-2.367959595554628427e-01
-6.787091183947293604e-01,8.315522129321435418e-01,-4.155924203074329304e-01
-1.774659867754743992e-01,-7.667778609342743579e-01,-3.105715337707184442e-01
-1.848154486014134956e-01,1.066872912756459124e+00,2.547325520250194875e-01
-3.929489981449086899e-01,8.108173292026282786e-01,9.848198148722579759e-02
1.032007980346168363e+00,2.761562982708162250e-01,3.519165610116898324e-01
-4.128272915009868482e-01,-7.279417368872920235e-01,-5.322843877366667531e-01
6.798869654833775700e-01,6.518146779839378846e-02,4.165118138785387503e-01
2.836337831090112171e-01,-9.938346663026000893e-01,-2.255099790464160370e-01
8.014092812913268249e-01,3.135231424368087327e-02,6.333209801196330035e-01
-2.727972784281542662e-01,1.140277942297777569e+00,-1.494136810936347592e-01
-1.414060765099910133e-01,-9.030230436544458561e-01,-3.967150979053260355e-03
9.934095791535861864e-01,-3.385343713813959710e-01,2.262345983231066615e-01
-6.526022632295522818e-01,3.819320226722348055e-01,-4.417725725864973807e-01
9.088151085115614425e-01,-6.536871558316539876e-02,2.477257103428035789e-01
-8.428423213560758478e-03,1.163020475910665041e+00,2.340147599110889154e-01
-7.811111695724085591e-01,3.664364523800687778e-01,-1.782236195252561994e-01
9.540268002026704997e-01,-5.255805928060854892e-01,4.886614443222606630e-01
-2.686952387025297040e-01,-7.566051880119699646e-01,-1.538783650046142981e-01
-6.991616963094198223e-01,4.353882199575477285e-01,-1.768002793326503563e-01
3.198835236451355035e-01,9.606358533396497368e-01,4.681201043350869950e-01
8.155060476230283628e-01,-4.884932419572228235e-01,5.584379145490556695e-01
5.396566439764013401e-01,-6.885907410732248213e-01,1.682850902262015419e-02
7.788531665796017966e-01,6.225526934059695261e-01,6.079964254641404553e-01
-3.927945121838583020e-01,1.064394574657852033e+00,1.026677193349931905e-01
-5.427311603979109167e-01,-5.751245246544733902e-01,-5.538730183941340535e-01
-1.064337241617738350e+00,-1.711876273235530543e-01,-5.181845604122166105e-01
7.479363166266955743e-01,8.459077785428493756e-01,3.391670584551447210e-01
-1.042088632118535418e+00,-1.225009605299175325e-01,-3.552157648068967055e-01
1.060562157591282473e+00,-3.011115520899483311e-01,3.060972872064830486e-01
-6.520313262799254383e-01,-9.280793778493655610e-01,-3.664514734382008920e-01
-4.776513471495518193e-01,1.102066660949947874e+00,-8.310410033961389276e-02
-6.750390238472833149e-01,-2.885651491775725885e-01,-3.392867998848531630e-01
-3.316194007772608754e-01,7.343975651607904664e-01,-1.634361157139264109e-01
-9.970699510181859626e-01,3.016189616803049978e-01,-2.261831033764610532e-01
-7.496519110486675741e-01,2.268674255884152446e-02,-2.962861395705964074e-01
-2.751087070669677725e-01,-7.350431591137439602e-01,-1.592682976321632693e-01
-6.257869346993761850e-01,4.664217177050060115e-01,-2.443779886668928369e-01
-9.257272871805353187e-01,1.338453319573319200e-01,-2.358106383378409387e-01
-6.486828685160400676e-01,-2.612000292739208862e-01,-5.140221705105848526e-01
-9.932858243867055403e-01,5.246714353400365738e-01,-2.671611270268887117e-01
-2.506912970708865540e-01,-7.520352191465270453e-01,-1.911512583062165427e-01
-1.073377957661133086e+00,6.789642490969112487e-02,-3.850181936243214365e-01
-6.625646382871337448e-01,-7.720624918452065888e-01,-2.048837755219533596e-01
-3.768152200843957744e-01,-6.970319647300162735e-01,-2.298781792053280759e-01
6.931929864409693831e-01,-4.262202259344595179e-01,4.794135123824928568e-01
2.884680292835137827e-01,-1.097567525180950021e+00,-1.602173841265996379e-01
-6.284193727456107714e-01,8.106385104926214780e-01,2.558291996650022965e-02
-4.022984004668736513e-01,7.976169706280726857e-01,8.287960653224155094e-02
4.309106833179416340e-01,-1.053791467736388210e+00,2.440179355596464317e-01
-1.386225095013485231e-01,1.073023515973352771e+00,2.612078145717538491e-01
2.018215109799709472e-01,-1.178548940054613858e+00,2.929432537644269252e-02
-8.838724837701732451e-01,-6.600727382867841442e-01,-3.644423787948206095e-01
-5.063074945545498196e-01,1.046915826156939122e+00,-7.955770454121295632e-02
1.021307922022302694e+00,3.398344017655096083e-01,4.928581619223701415e-01
-2.542416473625428996e-01,-1.049677969069391592e+00,-4.131359394943652785e-01
-7.136523388910085419e-01,8.596938618841714064e-01,-3.592201114441134768e-01
-8.259665688251531801e-01,1.197051847045509099e-01,-6.219000641862776346e-01
-1.035968452247749694e+00,3.168085413998687067e-02,-5.982748088938766307e-01
-8.544542646764794469e-01,1.581652170191728268e-01,-6.456948899475906112e-01
1.488947063031468843e-01,-8.967425546599164798e-01,-2.720773359796114788e-01
-3.636692440777442581e-01,-6.947958752090813705e-01,-4.604200088715553751e-01
8.072702058828001848e-01,-2.326144769507891008e-01,6.216610330262168915e-01
-9.394834313863920094e-01,4.864436171787409058e-01,-5.212522653405877726e-01
-5.879811341383869294e-01,-7.612573428879017001e-01,-5.588891414966633553e-01
-8.328572058024681368e-01,-2.526405297377840031e-01,-2.705661745212524782e-01
-7.630114644176767547e-01,-4.946215292396560076e-02,-6.114361351068225980e-01
3.783917267961117714e-01,8.905476704854580206e-01,7.560858045007287642e-02
-9.648491276866248689e-02,1.146351679284014047e+00,-5.172293419987306767e-02
-3.583978419155915973e-01,-6.500624835842648830e-01,-2.913016073937454986e-01
7.011350551067715431e-01,-9.474782886359616185e-01,1.464703143621391146e-01
5.682321986723015694e-01,3.898714548578910422e-01,4.808438592732739436e-01
7.325486772215885622e-01,2.892446144288410292e-02,3.232619874483660949e-01
-3.084838628301335151e-01,-7.278076354971363404e-01,-1.540130882180235916e-01
-6.547266330902100639e-01,2.989690120370636084e-01,-3.597997850546845178e-01
7.321251859441169074e-01,7.712456721449600927e-01,5.275941735452870374e-01
6.756912449378883467e-01,-3.424506272117566197e-01,4.665452120567579741e-01
-8.101021640297544346e-01,-4.797429870127122853e-01,-6.479585430000717183e-01
-7.045641622120342173e-01,5.929331212868304002e-01,-8.197685413579690328e-02
-2.089041678707445615e-01,-7.776474411968938849e-01,-3.533741365636125509e-01
1.064162330990827687e+00,-3.369755632436019499e-01,4.783594381071805679e-01
-4.484172719866822976e-01,9.504448818526461951e-01,1.198796802092058217e-01
-9.757560540537471017e-01,3.544368881234126745e-01,-5.701646171278902386e-01
-7.938813629952738982e-01,-7.113098101276841279e-01,-5.459834817874946733e-01
-1.979136072094895837e-01,9.845107876365631894e-01,2.368844683345507074e-01
-3.490714114409175783e-01,-7.498057214193987186e-01,-1.661049817570494913e-01
-3.840600095928763114e-02,-8.379644574399044421e-01,-1.682872008503900202e-02
1.107820778807623863e-01,-8.422871210932518782e-01,7.600594654694885210e-02
-9.756156315878333762e-01,3.612089022483801204e-02,-2.732792710974315531e-01
-3.038596450951578376e-01,7.838929655036275257e-01,-1.709520576805000636e-01
-1.024401484459320555e+00,3.756553303284858591e-01,-5.118297495050470047e-01
-7.076722464897320375e-01,-8.489827424028631997e-01,-3.135190188979258274e-01
5.290930678108971552e-01,-8.241030532427723321e-01,-4.544860373385552904e-02
-7.131078531897483419e-01,1.577503925664242024e-01,-3.347347239218925741e-01
-7.244342197682313023e-01,8.972068642216641798e-01,-3.316790598208341767e-01
-7.093538473899860808e-01,5.527316329361842140e-02,-3.439890698950157644e-01
2.608331730956430991e-02,8.941163437777411849e-01,-4.430086608448390029e-02
5.728566535792015690e-01,8.102700907693535237e-01,1.859991350539106081e-01
1.694465842900803321e-01,-1.004136841193378649e+00,-2.550862269178482689e-01
3.290193562975207708e-01,-9.848087787853538888e-01,-1.778375798766173577e-01
-7.993843659053404549e-01,-7.228415549423722331e-01,-3.437006128885755074e-01
7.612967917914332805e-01,5.138448390850692826e-01,2.634316740341637320e-01
8.954324863552385327e-01,-5.063005801042441689e-01,1.728538705973342582e-01
-3.226079793374766469e-01,7.760475907205821589e-01,8.287941902363053781e-02
1.977285231487628525e-01,1.032934053994545298e+00,6.187945595865021638e-03
-8.208907419054775056e-01,-3.388950718920808458e-01,-2.542309973904824383e-01
-5.074260527107841146e-01,-9.303619481460649876e-01,-5.055066833381856028e-01
-9.514269444506521234e-01,2.505358728515426625e-01,-2.079638587182180975e-01
1.037204401739955095e+00,-9.798649952749401149e-02,2.980179897495554564e-01
8.505157793633540964e-01,-7.544203477495126098e-01,3.625038542381189277e-01
1.234313739092317425e-01,8.735763853430064119e-01,3.222294135724793063e-03
5.206978688635445218e-01,-5.555741550599796463e-01,1.951297354438874254e-01
3.871438900093166491e-01,-7.200200818608302189e-01,2.310706341275517439e-01
1.000103530941423458e+00,-3.631246125696824811e-01,2.615928051359697748e-01
-3.080894503433410647e-01,1.137202849631116397e+00,6.748201136409517908e-02
-4.941660989456900799e-01,1.023657544663990393e+00,-2.512640730685898327e-01
-1.148683394724604179e-01,-8.264883625112470211e-01,-3.485906771572808149e-01
4.978210393040712334e-01,6.474958063359070870e-01,1.931093442628943335e-01
-4.116528904735243244e-01,-5.933467639171005059e-01,-3.382299106123837773e-01
-5.637124191189558237e-02,-8.876247844604528980e-01,2.559694740040489511e-02
9.088829130192890293e-01,2.801552909705730676e-01,6.556392408588598286e-01
8.984219469241150335e-01,6.560998041337695597e-01,3.850723511858774595e-01
6.475585160365725512e-01,4.406912767102207917e-01,2.545356057997715804e-01
-5.003338365838457813e-01,-5.235545856819124877e-01,-4.222182659298722163e-01
-1.074419372539495487e+00,-7.211135436620215444e-02,-5.605432115605705201e-01
-8.239907871214610102e-01,8.163629692156363360e-01,-1.503225079098600980e-01
-1.692164540106379789e-01,-1.146787474672169793e+00,-2.968693889837109023e-01
-7.233386157303844932e-01,-6.897244293959257921e-02,-3.452193161957833878e-01
-1.167712581824437990e-01,-7.932919058560607972e-01,-2.760091199413083896e-01
3.561803628179550651e-01,6.992678610266752637e-01,1.960028024225319299e-01
2.253583954303119696e-01,7.271609881283856991e-01,2.508719803419535710e-01
7.077640019966511264e-01,-1.735740902280447362e-01,4.002924766475914886e-01
-6.766370386314275454e-01,-8.924592248313363285e-01,-4.537241367603762621e-01
-5.164812642004772414e-01,-7.817590643320690980e-01,-5.776426874523147292e-01
-1.017196923404233067e+00,-1.644115701944133812e-01,-5.785647077437722219e-01
3.713303382353690951e-01,-1.141651870455906659e+00,1.144377586399097785e-01
-2.486544391365879958e-01,7.961027046293417397e-01,9.578500283618361644e-02
-6.845492580324356036e-01,-7.397555140466817447e-02,-4.431385865717905048e-01
-8.297274928223934420e-01,-4.033449797572893347e-01,-2.696516572204976092e-01
5.981686364096028274e-01,8.470043048109436867e-01,5.489127909067285094e-01
1.082931087810754978e+00,-1.280713691035584856e-01,4.082801435109595367e-01
-1.218883868535406839e-01,1.013219652321290853e+00,-1.600953693627561458e-01
8.180357159145434931e-02,-1.180978548392238592e+00,-4.816324163113366863e-02
-7.796232838082491068e-02,-1.080734425954004818e+00,3.602090170637902572e-02
8.606479506326212281e-01,-7.438275023246921913e-01,3.772048017438293654e-01
4.725950239961328458e-01,5.230362999838519267e-01,3.730652408642068374e-01
2.418582369051053005e-01,-7.967564147312415912e-01,1.784890116556439865e-01
-5.829026653977811279e-01,6.352155772574573644e-01,-4.328637500662864124e-01
7.530129134027692128e-01,-8.878850009282815980e-01,1.802683327621952547e-01
3.884468452513888947e-01,-8.126227078529020265e-01,2.972350570661949631e-01
-1.228029522409668645e-01,1.193894001658361459e+00,6.668005226799986196e-02
6.747713172902324308e-01,1.254166998059114690e-01,4.927586034547697946e-01
-7.338953359727331538e-01,7.003494475645852813e-01,-6.260823919606578469e-02
-7.128015399467667601e-01,2.797650214680453273e-01,-2.490517158480590465e-01
-8.332729568313441693e-01,-5.565951746066182260e-01,-5.998938935361463054e-01
1.069612590171334920e+00,-2.912250967612948771e-01,3.657649854404321776e-01
3.659953436068390520e-01,6.420311461186415380e-01,3.342361700948486836e-01
5.749035258131791615e-01,5.338397600597910575e-01,5.907652205856475103e-01
-2.618712218136999836e-01,1.040961494918227759e+00,-2.012655722038686201e-01
-5.715668907045031721e-01,-9.809624373094221195e-01,-3.328332714920275714e-01
-7.729365721512736487e-01,-2.500134696019253311e-01,-6.633649262481470243e-01
-7.476549053037301329e-01,1.241852204892163053e-01,-5.657229886165956456e-01
5.564209333602084806e-01,-6.099784846557617657e-01,1.312580310287556895e-01
6.612719143714965719e-01,-5.593353022386382545e-01,1.111672175051277439e-01
4.341854412871903879e-01,5.813959788736400291e-01,4.392633164196363404e-01
-4.330037179120975188e-01,1.115544181111348898e+00,-1.177585864695860768e-01
6.750519188743610011e-01,1.481797768585594310e-01,4.082073998105628654e-01
3.611450068960876392e-01,1.094806232548135805e+00,3.056640397927445907e-01
5.556946517959772125e-01,-5.226435010574196349e-01,3.265428322384307247e-01
-1.105375605405819889e-01,1.026277622359502040e+00,2.825400170653022958e-01
-1.720911961087385478e-01,-7.499776167816085692e-01,-3.181367267863879911e-01
-8.832440600338200554e-01,-6.964870432535610334e-01,-4.844622854102690890e-01
7.002055887738403150e-01,-6.019844023453263526e-01,7.535753843071456293e-02
-6.827079553580878146e-01,2.559801254689844652e-01,-3.252513345146719193e-01
6.675021244187882008e-01,-6.382395945493295475e-01,5.298701569740585371e-02
-1.051059872179468835e+00,-1.554002007857466228e-01,-5.346079234159503146e-01
7.658045377802888964e-01,8.062474900475979922e-01,4.191922321536163398e-01
7.012948234593846530e-01,2.992190018955933617e-01,6.182540458017767859e-01
5.109366704994149355e-01,-8.505462172546017774e-01,3.696552784674583814e-01
4.652218177174528013e-01,-6.813121720094097444e-01,7.741430726329152912e-02
-3.126004348914276920e-01,-8.736248669105852738e-01,-4.949018779615363406e-01
6.479250448312311450e-01,-3.974115620392910664e-01,2.458811346932787689e-01
-1.619222406889982147e-02,-1.114391153657209310e+00,3.017717490776263001e-02
-6.826179240865096753e-01,1.825924880091188141e-01,-4.329642911263755223e-01
-5.009398568044345357e-01,-5.447346316297163593e-01,-5.144832191128795307e-01
3.164643159130874905e-01,1.043386927147110788e+00,8.479115465746762947e-02
7.849712804126565135e-01,-8.518883714583780353e-01,1.500019383122735694e-01
7.177003211531650662e-01,1.788648730586036087e-02,5.022179512095465981e-01
1.986613218518592031e-02,8.069465152545420850e-01,5.571378072388297881e-02
1.067787206227581616e-02,1.167023490448799938e+00,3.697992553930880277e-02
-5.348448599821779004e-01,-6.516147748967584530e-01,-5.794300314592663037e-01
-8.559789761241430872e-01,-1.871570381576060094e-01,-6.575762314036964762e-01
-9.030561932137796122e-01,5.657049801916215204e-01,-4.897454753636909519e-01
-9.155346922988772951e-01,6.031051390356287900e-01,-4.707843104813186907e-01
3.010946742162988743e-01,7.274657007228721994e-01,3.984129452055822918e-01
-6.110797550793710675e-01,-5.818018497906727315e-01,-2.126177041274126822e-01
-6.746814658894174643e-01,2.749757262125306356e-01,-4.561495437217135129e-01
5.837168751258859922e-01,4.285954637186948357e-01,5.359386336608251700e-01
6.372634806086500125e-01,8.127821219606833347e-01,2.195496478998031353e-01
-1.914598323832804039e-01,-7.661273136073430967e-01,-1.712109085259082841e-01
-1.064000180796532691e+00,6.525660881833940385e-02,-3.148060432498830941e-01
-9.251230895572047919e-01,-5.203708035628078488e-01,-3.383506044997923179e-01
8.411073169418679940e-02,1.138683833984672988e+00,3.191387431605281072e-02
-1.040162590211583860e+00,1.668103115108804380e-02,-6.089017507451929268e-01
-5.697406324628987440e-01,7.668387544905569397e-01,-4.145449045136979094e-01
-7.727224239384504756e-01,3.289256478164953590e-02,-2.774845973563749846e-01
-5.949911079869741881e-01,-4.561372056916378481e-01,-5.797362492860501648e-01
6.537381304500419210e-01,-9.214761085162280763e-01,1.780806194268171744e-02
9.708079996777218001e-01,-3.527348566072407987e-01,5.693853577584894188e-01
2.510361917583176505e-01,-7.555177510198650692e-01,2.533213400198252013e-03
6.627466626250693160e-01,-1.013368560969637455e+00,1.107344419874012748e-01
-3.398068655118579584e-01,7.353524265815506444e-01,-1.966132955126962123e-01
-5.311444993708193119e-01,-4.824870605784423727e-01,-3.313211109144970079e-01
-4.622601356031241226e-01,-6.050997408686017431e-01,-2.726858811016317219e-01
-4.717190166147821051e-01,9.391199562854649630e-01,-3.269593224590029434e-01
-4.107653157964457624e-01,-6.199223654243527504e-01,-3.290818560607076670e-01
8.913176477084178151e-01,-6.588784196087611456e-01,4.326545248661479715e-01
1.335816675104722351e-01,1.048965225634558296e+00,3.854022805740863200e-01
3.262130367847682066e-01,-1.004437278540432077e+00,-1.641234509434232325e-01
1.630890699023855028e-01,9.095204750035709163e-01,-7.272988389619980572e-03
7.859786011154209495e-01,3.086180895108845412e-01,2.690949802282044945e-01
-7.119045351598141114e-01,6.828215677119594540e-01,-4.885850661071839962e-01
-4.504039586950460694e-01,-5.807118589572702883e-01,-2.932799978407952812e-01
3.132309586673637236e-01,-7.805634239606643598e-01,-8.244507717252315404e-02
-3.257298307822362737e-01,7.946643204049578246e-01,-2.379052646147587491e-01
8.054532427021743324e-01,6.825712107502189818e-01,2.530078748577591075e-01
8.906324865780944622e-01,-5.264335101739540945e-02,2.526580641000091276e-01
-6.993698298214272580e-01,8.493996262450513868e-01,-3.661022364341116608e-01
-4.650466681013957770e-01,7.975550461173028793e-01,-3.522190151277810877e-01
-1.565156353973451986e-01,9.045246899059253831e-01,-1.421892539704510960e-01
-6.144226200875172461e-01,9.573897270607296672e-01,-3.301782019159273107e-02
-6.393231363305285075e-01,-9.144952725830408635e-01,-2.779620461321054004e-01
-7.062677157953830553e-01,2.393133893857277705e-01,-5.046709579207688812e-01
9.555402510383839143e-01,4.985708996440396112e-01,4.108259098747921167e-01
-6.403067875062447012e-01,4.547309304477369363e-01,-2.211492142732894295e-01
-6.942653027650297348e-01,-7.444307233154489056e-01,-2.247529697742658150e-01
-6.008179077463416951e-01,4.469101177951992354e-01,-2.739341995148050768e-01
-8.548643966648043768e-02,1.175436185815132317e+00,-2.722409706011397201e-02
-6.975556438705631246e-01,2.949380040474138820e-01,-4.847129122804357260e-01
2.364812207642591202e-01,-9.507854990962405495e-01,-2.389260745780677209e-01
4.539450262994155771e-01,-7.157428026087188089e-01,3.253186929721966214e-01
1.032537781097321083e+00,3.426477369852667931e-01,4.466310363879517631e-01
1.035284246758046978e+00,-4.465972707566824851e-01,3.784707176350223246e-01
8.572359339845051496e-01,2.402539741256124739e-01,2.678622320267105006e-01
7.288589845726404226e-01,-5.755287752112373534e-01,8.407470135471599437e-02
-3.145023491722623854e-01,-7.075154438928564771e-01,-3.555260450072711409e-01
-9.835544415167766230e-01,-3.554079541515579588e-01,-3.421146752984280948e-01
6.547168598191213107e-01,4.169978952665791549e-01,2.810854004525296657e-01
1.652132514442556654e-01,-1.192738878536492075e+00,-1.132324428115206727e-01
-7.535044118038319860e-01,5.566499489156896407e-01,-5.226793937775127130e-01
-8.634875112259143837e-01,4.136639013152609845e-01,-1.736474021020947001e-01
1.405076313954782274e-01,-8.560150028915629594e-01,-2.118490136266632518e-01
6.931312816372509067e-01,-4.408362892063964061e-02,4.854638646334515917e-01
1.009916245873319296e+00,-2.759928054922883289e-01,5.475888254989754733e-01
-2.088555691704167827e-01,7.722659601614529912e-01,-5.355140614095051793e-02
3.176417278396328481e-01,1.021073694558497724e+00,4.525599600589942373e-01
1.068095120844828744e-01,-9.008998390640714504e-01,1.394854448104448086e-01
1.852138009228070370e-01,-8.522490839546930097e-01,-2.187917477711253667e-01
9.979454558157130339e-02,-8.480063913827018407e-01,-2.107038717697742591e-01
-6.026965617012438603e-01,-6.112191163749708389e-01,-2.136768680359303341e-01
3.356397214616789193e-01,7.308366291643478840e-01,5.086570919181457873e-01
2.876038650431518295e-01,-9.472177639750897216e-01,-1.952623533695873326e-01
7.830065367260327092e-01,3.204651585292258575e-01,6.553703510679864674e-01
-2.798964752319489935e-01,-9.723184620520578525e-01,-4.799899732200073044e-01
9.095242183593374996e-01,-5.996296063071540061e-01,4.743265142808671953e-01
-7.798663920996029564e-01,2.364092162216463455e-01,-2.368660756764508768e-01
4.395162751711692017e-01,7.006257404050568738e-01,1.748980163160675505e-01
-6.220617508260815054e-01,-8.911563798847239593e-01,-5.064919169415412759e-01
6.429841270400976638e-01,9.368455819104165583e-01,3.860773432510097858e-01
3.645787658568420686e-01,-9.569411604269479898e-01,-1.604783117209135357e-01
-3.963890998599368248e-02,-1.196100876019516202e+00,-1.617341961135000394e-01
-9.306762455658513788e-01,5.826967358462640245e-01,-1.914220474686163520e-01
-8.907095010243138225e-03,8.765874938688831275e-01,-5.418681174233016401e-02
-5.288433730690350609e-01,-8.915130849320042072e-01,-5.324981549473251086e-01
-1.838716911017580606e-03,-9.399897193899571235e-01,-3.548211715641325648e-01
6.918063946166844724e-01,-8.442161440546289697e-01,3.900465754092176662e-01
6.553448356636121241e-01,-3.055317654898461188e-01,3.763377141975520201e-01
6.930561755391162482e-01,-1.999526830313897441e-01,3.329152125800111106e-01
8.992463943793636005e-01,3.254762105284698115e-01,2.830356088709604645e-01
-8.417667645551345501e-01,-3.327657567148609163e-01,-6.764813207654631899e-01
-9.037130392048710048e-01,1.110463428904332611e-01,-6.445861727343340508e-01
-7.620015568772740000e-01,9.057849805193590731e-01,-2.911530732909226593e-01
2.727446982903700134e-01,-1.171048910396530474e+00,1.352712747725776272e-02
-4.150396702949262218e-01,-6.416212120598449031e-01,-4.946947330612521121e-01
5.674247244221113269e-03,-1.161025590893766557e+00,-2.496975990622086750e-01
7.293780538480779674e-01,7.800986318237683736e-01,5.303441681668137342e-01
5.440490245052762575e-01,-9.622708140842968216e-01,3.188343345422143815e-01
-5.074167814301576707e-01,7.221480506890574080e-01,2.229056907528121148e-02
6.239292276948581462e-01,5.637484178611439356e-01,6.112923127090079678e-01
8.703612579435144880e-01,-5.982531716500372188e-01,4.865029238765505859e-01
1.082839710222010254e-01,9.775751932727443361e-01,-1.719072998960689824e-02
-9.259944952409017160e-01,4.921268941795462482e-01,-1.745323025173827758e-01
-2.013658218284991031e-01,-1.027821839853615860e+00,-1.267876418262175488e-02
-5.841347030521710781e-01,7.406789075020586699e-01,1.038116230236304713e-02
6.001272461835697181e-01,5.510242454794315181e-01,2.389164102430621217e-01
-8.696224536574600483e-01,-3.893262706695006514e-01,-2.553966288122287431e-01
1.043241891970231094e+00,-3.339455813455426969e-01,4.781287738240095897e-01
-1.223512170165718949e-01,-8.531513979535416681e-01,-3.709506385636121006e-01
4.181580600312739260e-01,-8.752545166533440835e-01,3.122015822420993736e-01
-2.623234989306501008e-01,-8.398311050925696408e-01,-7.752542867023881623e-02
-2.560501425303678968e-01,8.849164749075253411e-01,-2.174111940662640241e-01
-8.191816879292450615e-01,3.621892937968375636e-01,-1.853079763146824877e-01
-3.135253360963225489e-01,-6.957286992816129612e-01,-2.504873076318409608e-01
-6.447260690803278127e-01,-8.496658246945846260e-01,-5.119960512883694470e-01
9.821160912921942376e-01,-4.294515654086022427e-01,5.287391817036485309e-01
-2.715023564562982772e-01,9.139524788163229108e-01,1.846123012733783819e-01
-5.044203262624524786e-01,-9.401949809770941968e-01,-1.495208338289254757e-01
-2.841800882655351468e-01,-9.948842748262176627e-01,-4.640432245749833151e-01
1.998049398959443057e-01,9.419377891373607037e-01,5.264226932316717423e-04
9.568146651251131507e-01,3.281615634417733296e-01,6.291848638533679150e-01
-9.569116954706297085e-01,-5.203969052763698366e-01,-3.851630671873763068e-01
-3.587437866648065521e-01,7.093513531845010434e-01,-6.258036723627981301e-02
5.342999055192110269e-01,1.022861243941325826e+00,2.689814211040101877e-01
2.200650393719411069e-02,9.182459223141001825e-01,3.536924293345643511e-01
2.835945032266549704e-01,-9.343616931762694922e-01,-2.119981262367097719e-01
2.588214471711192122e-01,7.303042356776248134e-01,3.288791110889233149e-01
-3.021664338448666887e-01,7.573920844820916098e-01,-1.228940805708046702e-01
-9.173689886197469168e-01,1.982874953554614184e-01,-2.103547317569886277e-01
7.135709017895877082e-01,-1.407942485486513018e-01,4.053135792817249561e-01
3.185658973313101883e-01,6.756835506205771669e-01,3.173613319877043870e-01
-3.911395641922377764e-01,-1.108855358522346402e+00,-2.834249968302335887e-01
7.167577304800428761e-01,6.953607092082851882e-01,5.890303060767305698e-01
3.640820470121944319e-01,7.169446564727723903e-01,1.681347519971944093e-01
5.257416672454627848e-01,4.568549836402535647e-01,4.131075089337972184e-01
-9.226024749260599567e-01,1.562187848284868862e-02,-2.539214501556956161e-01
-7.308326255527628490e-01,-1.151866774446099612e-01,-6.117293977485476208e-01
-6.842418780356626096e-01,-8.732609966294820891e-01,-3.384301933105308136e-01
6.683537950110464143e-01,-3.126402048397630695e-01,3.015316108870804701e-01
7.678407270958556019e-01,1.174278414724667929e-01,6.256078150555109962e-01
9.354780936600176622e-01,7.724404477127679025e-02,2.473001807324096413e-01
1.174515495261004294e-01,-8.550290067815493611e-01,8.641704332391866861e-02
-7.404893740863943696e-01,7.477486355218535552e-01,-6.201752259847435889e-02
-1.089584684771832235e+00,-1.035921758518908581e-01,-4.164965250081613113e-01
-4.981642951311480161e-01,-1.003791074896715596e+00,-4.429949667411319236e-01
4.034254424910414527e-01,1.094397014296232928e+00,2.686938628452670841e-01
-1.113518661225950702e-03,7.992441860247408991e-01,1.572423909174550383e-01
1.028221971063446372e+00,3.411125829556548861e-01,3.949511077652548829e-01
3.616276652291155469e-01,8.015814938409149271e-01,5.020816166786635781e-01
-6.935659264886175068e-02,1.069229644382513111e+00,2.897191574110589141e-01
2.277972606184928972e-01,-7.850610197617017283e-01,-4.970910248675957516e-02
-7.157766905682081404e-01,-5.314025347634317997e-01,-6.471985989150457197e-01
8.044976130309750006e-01,-6.430073658714319240e-01,4.809810675472448449e-01
-8.365846652637844993e-01,-2.373567227026855686e-01,-2.746323411291220484e-01
1.072259560000674794e+00,1.609216619725514774e-01,3.993223563722206326e-01
6.368134087434231816e-01,4.700096116616090391e-01,2.772005927961307403e-01
-6.979278479174114702e-01,1.933388869328805382e-01,-3.330673825040855185e-01
-8.820670926462180761e-01,3.403274273691148100e-02,-6.466333240147157380e-01
-1.038192742419191683e+00,-2.338923858540092326e-01,-4.757443488496856387e-01
9.907836945097153736e-01,-1.448433682432759828e-01,6.053451866955251726e-01
-5.862314787792068937e-01,-4.704641840986161228e-01,-2.796512996998549161e-01
2.858245269675636635e-01,1.060389081588037019e+00,4.113172548312573618e-01
6.882178225183464004e-01,-9.131546618547410343e-01,9.136425092979878759e-02
-4.899829663761253173e-01,-5.706205240975118498e-01,-4.982497318526361574e-01
3.561310132324116418e-01,7.211373948417867386e-01,4.523702322914910923e-01
-9.696315865695052938e-02,-1.190125874121548355e+00,-2.248537467659041666e-01
-5.552050270972580526e-01,-4.523378304773775782e-01,-5.040786392852463216e-01
-8.163222800620000275e-01,7.320989752318090016e-01,-4.168601202176734355e-01
-9.368223159782586018e-01,-5.786712061617214076e-01,-4.841892093187589174e-01
2.247658378404198687e-01,7.816677457412151142e-01,4.244084516780847749e-01
-1.529750689091458338e-01,9.737444409890794184e-01,2.864476064259441346e-01
3.182316305455631933e-01,7.262809045021971777e-01,1.954937165568991775e-01
1.093665699484386966e+00,4.356388475143006811e-02,4.908930101343325081e-01
5.630087123714293540e-01,4.359434640276877992e-01,4.193244052841779701e-01
9.216713485276907258e-01,5.894756837904640001e-01,4.079931945371514934e-01
7.969561596933365522e-01,-7.344298514545102297e-01,1.057660615301223572e-01
8.933452976415183766e-01,2.446078146872431303e-01,6.699172671454721728e-01
5.152722224075808599e-01,-9.141175478686673905e-01,3.285771973187030515e-01
-5.103235360774792673e-01,-1.006010320521668611e+00,-4.066399173306143311e-01
-6.211644705549838053e-01,-6.635776536222549593e-01,-1.687274419710063367e-01
-3.406903917197656728e-01,8.007283679866482595e-01,9.019612788626890643e-02
-8.542308499636235286e-01,-5.167468070389170665e-01,-2.786813981080371039e-01
-2.992880166580629275e-01,-1.121814699349859445e+00,-1.828166296753699072e-01
-7.552804276129613248e-01,-8.156124311624414203e-01,-3.018856355739754083e-01
-3.294546190873858249e-01,1.119663174900720426e+00,-1.216301341582042561e-01
7.160712674453298954e-01,8.619059575074587976e-01,4.645917220321327257e-01
4.945288124665145890e-01,1.043770039986984699e+00,3.114802544287564312e-01
4.550228460524840535e-01,5.577559625044800073e-01,4.269970953067373509e-01
-7.212418791004276963e-01,-7.418911749306612569e-01,-5.823071342935940420e-01
-7.370701092202694982e-01,-4.495744102950525317e-02,-3.570076585272572989e-01
-1.551342375588153910e-01,-1.151125037318831756e+00,-7.530177674772293994e-02
-5.642181286864376144e-01,-4.487815118081783794e-01,-3.723261568883836636e-01
9.597858694181743422e-01,-3.398952158562241754e-01,5.513775355406257406e-01
6.631886036623154679e-01,1.785765202158640652e-01,4.775978578809454422e-01
4.639540417001445927e-01,1.046134175220597484e+00,2.175584253975601789e-01
-7.808752365086573111e-01,8.179492242833954485e-01,-8.030979092274932729e-02
6.824545717500569986e-02,-1.195664580425454648e+00,-3.830964508627280468e-02
-1.093117587002714330e-01,-1.120292757885949619e+00,-3.081441169468556937e-02
7.354320954933891707e-01,-2.742584419289172126e-02,5.680933966218005837e-01
7.678145080039624482e-01,2.268921238977226473e-01,2.714621145975548711e-01
6.674487369719728225e-01,-8.783192568691792212e-01,2.468948284806406560e-02
-1.475932322668679075e-01,-1.008180581583710156e+00,3.614590422590945040e-02
3.812420978942895333e-01,-1.079955380087909145e+00,1.948194119201106245e-01
1.039974625086000026e+00,-3.328373186681934937e-01,3.002765610239737093e-01
4.515333394986339455e-01,-6.534288572346281798e-01,9.048451312898372900e-02
-5.639105283513798916e-01,-4.428942025865441057e-01,-3.624946099711222058e-01
7.176014123387136623e-01,8.424193722146153251e-02,3.722723291311152427e-01
-7.581271192750974608e-01,4.966842254673795032e-01,-5.471595926324521741e-01
3.389220421570868225e-01,-7.235699692314877529e-01,1.479112532209187758e-01
2.843875107649906364e-01,6.997763899681871402e-01,2.565287261744591540e-01
1.012950452091869735e+00,3.341884680911716976e-01,5.536385831516515976e-01
7.586866687474673743e-01,-4.827316421615600039e-01,1.287136541805411205e-01
6.054008758995494954e-01,-9.449767046947749050e-01,3.199540654586166544e-01
6.363624056424279640e-01,4.838699009308403687e-01,6.138199294392151506e-01
2.095976685758823288e-01,9.467045907124370663e-01,-1.922242045561046260e-03
3.685813889253834463e-01,-7.120593370876630024e-01,6.818122107794567788e-02
7.761106573991259916e-01,5.074561005454615303e-01,6.603585213084365302e-01
4.220843650802877378e-01,6.900675419683603984e-01,1.886668184459963649e-01
-7.064999331947139360e-01,8.562158586652593439e-02,-3.570586765996438539e-01
-1.450469614060378443e-01,-7.910690590856856996e-01,-7.278726937934028307e-02
-6.273885642061624024e-01,-8.815278285622688559e-01,-4.951860448002317616e-01
2.878519861778093547e-02,-8.370964176195101469e-01,-2.555968395168092822e-01
6.058536789706271408e-01,-9.327123057922889204e-01,-2.626303624935883915e-02
5.559228871746141332e-01,-1.061204155665455451e+00,1.057951448145773993e-01
-3.086587737467733628e-01,9.719236391528565111e-01,2.019283214363270240e-01
-9.731845611370821825e-01,2.975923377675621651e-01,-2.361302700825751999e-01
6.696462791750176224e-01,-7.718512060833355726e-01,4.353306726350154032e-01
-5.024286108927765726e-01,1.073032852021510219e+00,-4.638465793598843534e-02
-7.981406207984659273e-01,-7.501492944613617764e-02,-6.545208905817966327e-01
-8.748369449138762022e-01,-4.729349576948562728e-01,-6.287044742612406534e-01
-8.845077236592049363e-01,6.088197253494753713e-01,-1.286298762123711803e-01
6.066929234212408151e-01,-4.397308133288591048e-01,3.089535034959690063e-01
-3.604197592680792595e-02,8.782809796508670441e-01,3.050244649046376932e-01
9.953288742778303444e-01,-1.112989316948633234e-01,2.671195248288998347e-01
7.551822813575159721e-01,-7.202195070657642084e-01,5.362552975372344294e-02
-4.574982238157652148e-01,1.085100218304565711e+00,3.081947629740201464e-02
-6.845871431260888706e-02,-9.702529195257351136e-01,-3.771502936895772540e-01
-4.713893450073217140e-01,6.675019750733989232e-01,-2.970027711946602866e-01
1.041239643665856862e+00,2.636306932577572315e-01,4.552173436520475236e-01
-7.944678453093001469e-01,6.034654119105004044e-01,-1.044721547611054124e-01
-8.450954199817451995e-01,6.143941644197030705e-01,-4.804013208665079970e-01
-1.535516436040549604e-01,1.122048798662608426e+00,-1.052127170361814579e-01
4.118553211235986833e-01,-7.527362368106205182e-01,2.857075091551690704e-01
-8.289665816556648914e-02,-1.125896065889979258e+00,-6.819612398846101181e-03
5.193754778211244760e-01,-8.713185318018956682e-01,3.603016961171211507e-01
9.660919123805136732e-03,8.552362049843800218e-01,2.908293371067254829e-01
4.835869711515536906e-01,-8.174852801514280731e-01,-9.437619689715218141e-02
-5.717921440945685774e-01,7.145631578653279803e-01,-4.250288242028378849e-01
-9.572699063987600843e-01,6.375330428362664392e-01,-3.659406273247981511e-01
1.025372999932192997e+00,-2.778678910107910682e-01,2.428349015331219274e-01
-7.096050919022433012e-01,3.615230980403792427e-01,-5.289452977794207866e-01
1.067334646009623578e+00,-1.990259484014005320e-01,5.266429437801812830e-01
1.036368982710508702e+00,-3.479188172576124227e-01,3.430052737144376196e-01
7.037126608063262179e-01,-2.091734986028226106e-01,3.125139642318596755e-01
1.049355422229863555e+00,2.769536776622550933e-01,3.873760657172158894e-01
9.570857957782319403e-01,-4.119107875783922790e-01,2.111617279449421736e-01
-7.044956163160039919e-01,9.320413158849027990e-01,-1.639024730665314677e-01
-1.076531993172359369e+00,2.271757056663296914e-02,-5.196935423305502066e-01
3.901189095127959860e-01,1.110010156632357692e+00,3.147397171206387512e-01
-7.680507382564525365e-01,6.485407723829228477e-01,-4.993997003052433326e-01
-7.051015791352124307e-01,3.859769500919002505e-01,-2.070766217715631075e-01
-2.312908943480939672e-01,9.637465458548054587e-01,2.316776795101193887e-01
-8.937697579536203474e-01,-4.419769339281235943e-01,-2.956651333058005759e-01
-2.176767659611792971e-01,-1.153000030173349844e+00,-1.043520184491888714e-01
-7.964374187308130848e-01,8.069925349693048977e-01,-3.462949301430557902e-01
-1.539475831457189359e-01,8.600357634803434959e-01,2.035953717852823364e-01
-4.056306795826672418e-01,-7.064876951330641974e-01,-5.156209328604410835e-01
