-2.203404042707712840e-01,7.580723641236137844e-01,-3.567569725980461737e-01
-1.097705452853239838e-01,-2.833674327475387833e-01,7.476277557240776916e-01
-4.136047449542860632e-01,8.344124459174030450e-01,2.603919711775035672e-01
-2.594097103082296241e-01,9.473820175485482276e-01,-6.051315679426143568e-01
3.943803714976847757e-03,7.271112471588092596e-01,-7.171574677281511434e-01
6.171868370945359228e-01,-9.723268983391315512e-01,-2.484037848286304029e-01
3.918069241095461508e-01,-5.948614601401794877e-01,-5.630800577461058110e-01
7.422677042209105402e-02,3.942989663412881929e-01,-7.081010908526208514e-01
3.596440998521131527e-01,-6.552610459756743611e-01,3.228720408317743429e-01
-2.952598769213095053e-01,6.321916090068431249e-01,-4.135095763424767035e-01
2.649751681776542633e-01,3.907000401012219459e-01,-1.034379297173909418e+00
-2.716321992576711253e-01,3.608448781514409509e-01,8.867885265926138683e-01
4.503368751117300950e-01,-6.566518300359641680e-01,5.931763117997984613e-02
7.229412883344675800e-01,-5.205638345487122454e-01,-3.441321805272245515e-01
-1.421169378230274782e-01,3.662732567073698764e-01,-7.172475407084689669e-01
2.407972512966374545e-01,-1.495444879539394589e-01,-1.057622519592891219e+00
-5.975664424247587592e-01,8.731215588787216708e-01,-4.948901021903413522e-01
4.994300009651658212e-01,-1.028311222421728788e+00,-1.020622095655882196e-02
-7.703594979817810495e-01,8.260541071612208519e-01,4.542723092152655129e-01
1.719991863571367074e-01,-8.845167867197741840e-01,6.257503774102005645e-01
-4.401340694510592066e-01,1.004657236915533547e+00,-1.221181244686280198e-01
-7.580811844406396549e-01,6.727927323896772949e-01,1.669235520732897660e-01
2.594775579648559427e-01,-7.927984415321395195e-01,3.068156854151550261e-01
3.854286545654278529e-01,6.519162341536727245e-02,-1.126114276274218451e+00
2.600124025521719506e-01,-7.242607500928400777e-01,3.341802332931641528e-01
-2.964616277047611992e-01,4.059388832338488989e-02,1.150825352520434164e+00
4.011380352232394447e-03,-6.457732474902176945e-01,9.826573463530865471e-01
-8.061545293330286688e-01,7.842167021725403586e-01,4.024772895049230637e-01
4.936707949541216389e-01,6.023645440079035407e-02,-1.006000085906275654e+00
-7.457867569549389009e-01,4.196079928176081331e-01,6.062524565945066612e-01
3.779973721042698132e-01,-4.579482301494227081e-01,-6.080845489950306160e-01
1.860199353650311416e-01,-6.899383582347720090e-01,9.616082956721224706e-01
-4.651675072574057435e-01,1.220092727667995564e-01,1.086727860785555944e+00
-8.990494598291054462e-02,2.169762143658809928e-02,9.282726066759070527e-01
2.590191479524681095e-01,-8.385624393215920236e-01,2.710617459655403350e-01
-8.444595126103418559e-02,2.552162292515414155e-01,-8.223297171741739131e-01
-4.178258501119185842e-01,4.676821930455486998e-01,4.886052914406247005e-01
7.382150469727251085e-01,-5.468921839463153356e-01,-7.164885036653446670e-01
2.143844213335169835e-01,-7.451500705401673530e-01,4.051644589437947142e-01
3.861277755390721267e-01,-7.335451530418201083e-01,2.913024251319906374e-02
5.179457369264360844e-01,-4.554097849934869435e-01,-4.201357821490011024e-01
2.582006361275803602e-02,-3.344510846352757305e-01,1.094310134094551135e+00
4.058560403383442150e-01,-9.481307898711955895e-01,6.279942713177114610e-01
-3.979762281576655902e-01,7.846521786165817636e-01,-7.794837929242738328e-01
4.724156854268590222e-01,-4.418399397894605674e-01,-4.522479225000530789e-01
-4.414992594246741064e-01,-4.199060087672988779e-03,7.883726385919233026e-01
-3.011388793318596213e-01,3.473246148822747292e-01,8.177232804047251946e-01
1.017701758332621165e-01,-3.855652752235275149e-01,7.004130741579659425e-01
2.603857297932327675e-01,-1.176742630394660705e-01,-7.738724559045055962e-01
7.247916645494089094e-01,-3.599984613607137285e-01,-6.996272118768152026e-01
-3.067237341292038122e-02,4.784881808148558346e-01,-6.517963722360652357e-01
-7.234395431769215234e-02,-1.506035880765650425e-01,8.029225210555667180e-01
-4.173175470712740531e-01,1.029312422695924045e+00,-3.892846649993331187e-01
2.648821978182737680e-01,4.347831150525802713e-01,-9.726843585760369670e-01
4.633351438755458074e-01,-6.698599184067257628e-01,-7.771279763454369029e-03
7.919814914071383882e-02,-5.888680348652864938e-01,5.875323549584824390e-01
6.963456043633280412e-01,-6.200901694056291102e-01,-7.839022929715028232e-02
3.842476521759043973e-01,-9.924841078801663885e-01,1.991314522763958927e-01
5.404352252829514036e-01,-8.449999036318105450e-01,5.715165946983835621e-01
2.835954780971845432e-02,-7.578441542168640188e-01,8.413724861334297422e-01
-5.905551795694338191e-01,5.847884038091943903e-01,1.300543004825412130e-01
1.356671909838970402e-01,1.463798549512990987e-01,-1.162201624943039802e+00
1.939566531612280376e-01,4.128560749517988238e-01,-7.965751250494914615e-01
5.511818992279902130e-01,-5.735168903694825016e-01,-1.891972593382455770e-01
3.871738639712493657e-01,-5.847700461335348932e-01,-5.696882920906539693e-01
1.951080896782558249e-01,-6.675728455368390435e-01,9.516817173901920279e-01
-2.441839090000138268e-01,-3.180929015856485131e-01,7.919246564842642444e-01
4.863910948935487588e-01,-1.647985604238851876e-01,-1.069731414071049880e+00
-7.666007720880606557e-01,8.605926121918080485e-01,1.913422367873545415e-01
1.747351674177177461e-01,1.233620600569103054e-01,-7.749866089061454577e-01
3.577610333672574527e-01,-3.518213108764544073e-01,-9.989462854586753648e-01
-1.702120081405532614e-01,-4.701872382193453825e-01,7.985673649995492784e-01
-4.902517855195697161e-01,6.559328785066751433e-01,-5.958021780565758707e-01
7.807250201717387261e-01,-8.509012681499802389e-01,-1.259920486900576730e-01
3.993092517426474752e-01,-9.977497376425988884e-01,4.794882759112291115e-01
-1.655799438923826472e-01,1.587982071175624565e-01,9.378379120677833303e-01
-6.281687661277254864e-02,-6.764453617459086354e-01,7.906635905148563515e-01
-1.741636986968637113e-01,8.093348246232728860e-02,8.519752982314707790e-01
4.401758324120012000e-01,2.407043105394239199e-02,-7.569459147190560344e-01
-3.047700710058847545e-02,7.072301365419313424e-01,-6.620578807147756706e-01
-3.601539956018590116e-01,-3.147326712097512913e-01,8.884194828403146893e-01
-3.959985432427000074e-01,-2.645618870611618489e-01,9.450513627648200465e-01
-5.621353382420150036e-01,1.031463027749282890e+00,-1.530587000000828979e-01
-4.832924987553816054e-01,1.565745619391738508e-01,1.078147903443378075e+00
3.955793538161382350e-01,-5.577145525978740581e-01,6.711997656220435315e-01
1.014366766307165657e-01,-3.358492203267628429e-01,1.040932055085135977e+00
-3.258562176743896588e-01,5.498939406470534363e-01,-8.532286975221765601e-01
-7.124575266723289779e-01,6.739675801171736147e-01,-1.530981574154336410e-02
-4.911936009927023172e-01,4.503144591103515060e-01,4.296004838028666395e-01
-5.187410770153456641e-01,1.837036290736482058e-01,6.539613354554140168e-01
4.577000642573674227e-01,-8.011225818082904349e-01,-5.116998755486776851e-01
2.989884942007223212e-01,-4.846468396966352454e-01,6.969709990738477412e-01
-4.520531145858049382e-01,5.277717764147743518e-01,4.318849045868259351e-01
3.694432299679639153e-01,-9.081779730525402217e-01,-3.091855509228000169e-03
3.841541487995064341e-01,-3.647951833650110998e-01,-6.269138621452493565e-01
-4.184161468368063908e-01,6.895728702238054231e-01,1.163504638680311343e-02
-4.767004866396078455e-01,8.976864582439611495e-02,1.112533950440569575e+00
-1.746254537072371993e-01,-5.426327123442624689e-01,9.269119354945574152e-01
7.657837749190875565e-01,-8.839704396612599879e-01,-3.765315443669409179e-02
5.179226530253664418e-01,-2.097747977460956703e-01,-6.457079080178382835e-01
-5.841990334993276690e-01,8.627986207334537028e-01,-5.283592775721833723e-01
7.239108718348402638e-01,-5.532297640650141179e-01,-3.057343097076417049e-01
8.470825993441674640e-02,1.022277823144728155e-02,-1.024262696096361891e+00
4.075146898277540730e-01,-6.144000415263149995e-01,-6.717712402420780160e-01
4.109863256573096368e-01,-7.056253504078299210e-01,-3.718313714373368550e-01
1.308491390844342683e-01,-3.355101551788378100e-02,-8.891461131312179411e-01
-1.241107787419546415e-01,-5.905116359426981765e-01,9.573201126231325464e-01
-3.792458324717767892e-01,-6.464494236682728767e-02,7.668877290929487778e-01
4.614845854399215463e-01,-5.663837817372372463e-01,-3.125164497719736811e-01
3.098374664639890752e-01,-8.445760902938874715e-01,8.150663541833091941e-01
4.137009240089054574e-01,-4.898324898463021770e-01,-8.645777275858410604e-01
-1.831249704210351492e-01,7.553994056105053367e-01,-9.130221394565853910e-01
-5.814307114042777114e-02,-5.644075351679386093e-02,1.021847491407497754e+00
-4.342471880062201417e-01,6.173305672316766746e-01,3.329390482919786787e-01
-3.140983432274898624e-01,8.689377506086443104e-01,-1.679842233906176374e-01
-1.562426537958145345e-01,-1.340848460824511923e-01,1.156550419018754772e+00
3.791761720797833801e-01,-1.948139392720062146e-01,-6.594305601580895404e-01
1.721819880158614868e-01,5.119099835578088120e-01,-8.427099299986005043e-01
-3.258986651449812255e-01,-1.147574316118754462e-01,7.760664493816558096e-01
-4.900755385523190844e-02,1.593597077088995673e-01,-9.931975793692982002e-01
-8.131510283764716851e-01,7.490918714988074045e-01,1.964356072055445379e-01
7.259701828486759823e-01,-9.280696011295254122e-01,2.348218278847796076e-02
7.555136106142887886e-01,-6.709281427259720099e-01,-6.464869039309121268e-01
2.139715475250614507e-01,-3.868400632909773096e-01,8.396474478612020453e-01
5.374445477659481885e-01,-6.205898614279032888e-01,-5.178259674079476425e-03
-4.072005816565906766e-01,5.875057659317939329e-01,-3.620029071603500515e-01
2.822433711814217316e-01,3.519972588868000574e-01,-1.033322812810255620e+00
-7.700448668667272401e-01,8.859529444051031932e-01,9.540327254836096504e-02
6.998582795609281648e-01,-5.263413177219395944e-01,-3.160425797171926843e-01
7.297725122589513447e-01,-7.938646763993459921e-01,1.176614024233051115e-01
1.534347572027685604e-02,-1.821320989133832502e-01,1.066397913519943286e+00
-4.628652043142159611e-01,5.131153007115096809e-01,3.929194013806796559e-01
3.951616306146265023e-01,-2.639580126470177923e-01,-1.084843149998456102e+00
1.299401582931369314e-01,4.761442074067118724e-01,-7.421398636821898709e-01
6.811905610864942284e-01,-5.022974515752487434e-01,-8.682804727803591360e-01
5.442375681522153563e-01,-6.152594950941594476e-01,-1.019165000234682067e-01
7.623896271651622314e-01,-6.741391863970684906e-01,-1.283156396752669626e-01
6.743203691687382761e-01,-4.094127730668274401e-01,-9.099021989233274654e-01
6.571087815955681255e-02,-1.557393909044620410e-03,-9.998071836150173031e-01
4.042045888056929881e-01,-9.753354197873712605e-01,6.069134119549322165e-02
6.205209864729441804e-01,-3.069008411200385145e-01,-9.602281487155474027e-01
-3.005890198655313261e-01,9.460304444762609455e-01,-6.196105815072370238e-01
-4.830254960104194556e-02,7.119227645839912855e-01,-6.397781241005511266e-01
2.180823689649968311e-01,-9.015657255408204840e-01,4.959997526185997430e-01
-7.594982177559044256e-01,5.742984055284489076e-01,3.443923260268686448e-01
-6.744854524144311414e-01,9.270764909283304434e-01,-2.646284032261848607e-01
-3.606065881155013503e-02,1.678144097164496196e-01,-9.281890874083787990e-01
-9.694092104285034761e-02,3.777833387141352889e-02,9.193008621444241912e-01
6.884506382841281136e-01,-9.114107360955202575e-01,2.031608327330776953e-01
4.303802381215138806e-01,-6.759322961714175904e-01,3.238588813826803053e-02
-2.896586452636319420e-01,-3.908545949688464471e-01,8.454279802293320767e-01
5.171803989503847010e-01,-2.282340748206892478e-01,-6.248678640928455597e-01
4.023281922561057766e-01,-1.009821629075993155e+00,4.339996488860213830e-01
-2.292372655022414940e-01,9.226032475439800429e-01,-5.244219585492216895e-01
-2.023796101611775311e-01,6.008130347763875889e-01,-4.923908320379656867e-01
-8.034847072948340108e-01,7.412362329810654460e-01,3.137235727567191934e-01
-5.425438170160833407e-01,1.259842095063892498e-01,1.042576560494189231e+00
-5.255677131310262373e-01,6.498702158759952496e-01,-4.867169930820356982e-01
1.351768861287465928e-01,-5.648584994075345200e-01,5.578879497825492972e-01
-4.723726740112942912e-01,6.194829663306721662e-02,1.099055082607438116e+00
1.162790537693533799e-01,5.371342243133354621e-01,-1.019469402822546611e+00
-3.906093650639476389e-02,2.641540373542798359e-01,-1.093512026682436300e+00
5.247945921612512388e-02,6.510152635775498520e-02,-9.301988766535728148e-01
-3.508022635914232468e-01,6.998645137653388693e-01,-1.693009295694872518e-01
-3.317087536421201577e-01,-2.943362279699284212e-01,1.037847441798539938e+00
-1.152504250319228152e-01,-5.683517866397715945e-01,9.618121792111625767e-01
2.779850506803699384e-01,3.884496771125739434e-01,-1.069847905954779854e+00
-7.710977074931800457e-02,7.761445626689587041e-01,-6.331891373778311127e-01
4.504348166363871669e-02,-5.811551034936479621e-01,1.047855272234019530e+00
-4.231720003730293778e-01,8.383790245964185539e-01,2.184311770862437385e-01
5.565496147881792144e-01,-6.421320568686685881e-01,2.579847777769895267e-01
3.561925598768738710e-01,-4.450824093488810473e-01,-7.954154611115276108e-01
6.283037000295471630e-01,-6.353655966186938508e-01,-8.050203504867456950e-01
-5.424507189802921792e-01,5.139764262393645700e-01,3.387442394667514733e-01
-5.840461071944642590e-01,8.643038919360402916e-01,5.255768128101754311e-01
-2.708865500758451672e-01,4.101347102451783494e-02,1.129397004974978858e+00
6.983076000318040599e-02,6.305418276169698633e-01,-7.637774337782740064e-01
1.653759197525308811e-01,-8.891510796158140773e-01,6.748432540873445795e-01
-4.361383647358967885e-01,6.525072309183731489e-01,-3.326315496637611419e-02
-1.308405760295900111e-01,-4.548631502401440097e-01,7.680734249979038752e-01
-2.017145631310883203e-01,1.635161827795441614e-01,8.446498752903186524e-01
-6.103958328198286765e-01,9.754565461568577289e-01,-2.367874492357636973e-01
-6.775025478693244008e-01,9.253947607431735056e-01,3.125156494114482708e-01
-3.164469152827964482e-01,1.207842071922352600e-01,7.332621419680767083e-01
3.532442398497542824e-01,-8.020812331194950850e-01,-4.101391494169073088e-03
5.248633714735462252e-01,-6.480144115087016488e-01,3.119921305873520345e-01
2.428782755888218847e-01,-2.304892055266031248e-01,-9.910358845013311768e-01
-2.356904727480484407e-01,6.846325747264230266e-01,-9.416350572688018117e-01
-7.427987346849957984e-01,6.920430984151090259e-01,6.414532213322062804e-01
-2.050740062783786288e-01,7.835787440824738548e-01,-3.866472627934355311e-01
-7.403536980880126572e-01,4.435984116891090734e-01,6.702397669369107858e-01
4.209744390027784361e-02,-2.322765911026196672e-01,8.391966955805376660e-01
-1.896103388422055724e-01,5.859832601644805461e-01,-5.077349954435294022e-01
-6.073992492066025983e-01,3.407605933543511045e-01,9.548641810484262971e-01
-3.674438081529474709e-01,-2.702870257243832897e-01,8.995788705145849606e-01
-6.969892638364110216e-01,6.983848967299207677e-01,-6.416715865957550724e-02
-5.287913720775095916e-01,1.110702933705165485e-01,7.221860788262955966e-01
3.538711068949727534e-01,1.347516628040151543e-01,-1.127763313117503108e+00
-1.814029368733821035e-01,4.121251401791721780e-01,-1.011191350572584469e+00
7.727633124290559374e-01,-7.791505953099882031e-01,-9.227884334436642355e-02
3.830828111936611102e-01,-8.923951223122112975e-01,-6.902295869009875476e-03
-1.955843748794293124e-01,-2.905694550588098710e-02,1.149495291493894511e+00
-3.920950548443979389e-01,5.909001364803321277e-01,4.916883643598757847e-01
-3.969472207933544272e-01,2.236878255241646074e-01,6.395913951067747627e-01
-3.587727453505334257e-02,-5.404934848059561592e-01,6.817606540071035059e-01
7.930219490394664339e-01,-7.225856280465990933e-01,-4.113651408052377834e-01
-3.017054346501398809e-01,4.433116924252691882e-01,-7.876200906533803447e-01
1.372144499100682591e-01,-1.143093832552016936e-01,-9.510902010391626415e-01
-3.940128478979694759e-01,6.493815728441564294e-01,5.988638021858767591e-01
-1.923374916737295715e-01,8.838273372751509482e-01,-7.361111230565927643e-01
4.293649256314001073e-01,-4.562855314534205453e-01,-5.300228112533319491e-01
-4.060586136628800413e-01,5.293027504121916582e-01,8.342494964645628119e-01
4.364617650079750111e-01,-6.527893989430648691e-01,-1.379706966834534643e-01
-1.343895090781739021e-01,-8.841043710970694636e-02,1.134160838123934312e+00
5.478862902393527579e-01,-9.091799395693166419e-01,-3.552593851078517662e-01
-3.782378728975885340e-01,7.183738845537305240e-01,-8.167280089196593540e-01
-4.229990415329608622e-01,2.448363045162702534e-01,6.232122160519912857e-01
-4.019027869353486992e-01,1.022767042511834257e+00,-2.438919913290892583e-01
5.731397052721954877e-01,-9.508177618071737003e-01,4.254530798129753655e-01
-7.331899411387167442e-02,-4.567858354613185679e-01,1.114751510911932364e+00
-7.958214685266166155e-01,7.789545037806742123e-01,4.263605357533525320e-01
5.164284388291635608e-01,-7.646483177708648382e-01,6.655388260353947150e-01
2.034459783941606481e-01,-7.313718760844458711e-01,3.885712342206865677e-01
8.110217856319724972e-02,3.064312304551727525e-02,-8.990069808484665304e-01
2.872322304630495760e-01,-6.045149290655777580e-02,-7.609445980631580619e-01
-6.158897632037942799e-03,3.305906006396384655e-01,-7.561638992929146097e-01
4.065563726501988939e-01,-8.380483411237941160e-01,-2.098063418782733502e-01
-6.432522308257637711e-01,6.976631737869181116e-01,-2.315539404912119181e-01
-5.733889166755673505e-01,4.552646057980683919e-02,8.809056494081201061e-01
-6.467740810942175234e-01,7.058782169633968095e-01,-2.496903212450077569e-01
2.403122307990694095e-01,-5.533442126263422578e-01,5.215724025749375325e-01
-1.616927221527806047e-01,5.208414823193053822e-01,-5.695173006967751972e-01
1.030386160100920240e-01,-3.451014242336799404e-02,-9.108224551406858271e-01
4.086751552293406420e-02,8.824363597490143818e-02,-9.143363833253501660e-01
-6.262241448458225612e-01,5.888446409877809984e-01,1.403812093281424922e-01
3.762540048456230468e-01,-5.631207889010986234e-01,-5.525448595156026155e-01
6.997348298219326912e-01,-3.469121888936823606e-01,-8.621380075798361631e-01
-4.265032204800944249e-01,-2.241428800518206754e-01,9.495064526297913865e-01
-6.727309702496830912e-01,8.809877136251736962e-01,-3.274112102246637956e-01
-4.047017888061447688e-01,6.376718210955922839e-01,5.840116314539768316e-01
6.012932996382386319e-01,-1.129562609146033264e-01,-9.091590321268844255e-01
-4.151820672398023881e-01,7.221820327732397793e-01,5.762934882587052998e-01
2.662302867208107271e-01,-4.966286200678372009e-01,6.210283801433125195e-01
2.733608046133828573e-01,1.512055925553509317e-01,-7.748559974519360072e-01
3.163933105484025288e-01,-2.439194705679623154e-01,-1.042953161063714163e+00
-6.933467784926758970e-01,2.927798411341567819e-01,7.967981964640922232e-01
-6.122770584706064279e-01,4.969666180332212857e-01,3.405529512373412504e-01
7.187503929933406477e-01,-5.255006941997227843e-01,-7.735636466411246470e-01
9.550316547622417218e-02,-5.266285134549935076e-01,6.051206799359651889e-01
7.655938143564218201e-01,-8.932326950095248463e-01,-4.504373680363683158e-02
4.481409361941383618e-01,-5.459947941793488191e-01,-4.281355955926591239e-01
2.450265981773435409e-01,-4.238903149297934547e-01,7.602402054100233508e-01
-5.402158223331414710e-01,9.965862027272847090e-01,1.715257233414465010e-01
-7.591747039798006913e-01,9.063350076729690397e-01,-1.006719414523414152e-01
-6.999725214676958407e-01,8.142367231491169921e-01,-2.365078785524175331e-01
1.879565294686502686e-01,-4.017530593897532531e-01,9.714827321711959618e-01
-4.223799588529185134e-01,8.777057393025562426e-01,1.601092060726677369e-01
2.673884102410643837e-02,5.398492881942229538e-01,-6.618936590330382064e-01
4.653339967220837536e-01,-9.645484265007252533e-01,-6.446184024166667914e-02
-5.295356451402649656e-01,3.790903379319693345e-01,9.993885758788835227e-01
4.970365420804863654e-01,-4.420446072839185891e-01,-4.594407878492270947e-01
8.837685100996858778e-02,3.688024352519238547e-01,-7.275771453463193428e-01
4.109767453723335295e-01,-5.725275125960533895e-01,7.138769717939695836e-01
3.734197373148455679e-01,-5.442005666137497144e-01,-7.658256210551382948e-01
-6.537957846170183718e-01,4.889760285330844725e-01,3.452592429338141033e-01
-4.460527729090973253e-02,-3.182821274702590797e-01,1.141024422537333605e+00
3.067335557624198406e-01,-8.359292626829770700e-01,1.081109623414150678e-01
-2.035028954709612870e-01,-5.250603116804315462e-01,9.091764363330822052e-01
6.857031115809258948e-01,-9.257455164213215237e-01,2.616795516035015368e-01
3.643400353563306937e-01,-9.858087369389340049e-01,4.891400907287573041e-01
5.287888150529578279e-01,-8.449259640174445751e-01,-5.198845166376182547e-01
-5.483339548526331431e-01,7.701915548939630707e-01,-5.950388114529309158e-01
-3.274634956013102727e-01,4.161183444449725877e-01,7.329653099667565730e-01
-5.171084847995195410e-01,-2.432552547610640492e-02,8.524216328816088817e-01
2.204658769667414489e-02,3.176311090182145080e-01,-7.510413547503843601e-01
-3.767372458505139354e-01,9.606556471161877830e-01,-1.181547016515460125e-01
-3.610148342263312937e-01,8.107087974613075287e-01,-8.610095178663564747e-03
2.128746642073384154e-01,5.233636878668644909e-01,-9.659428079329902550e-01
5.110496622445668269e-01,-4.155238254018370214e-01,-1.003906636965808730e+00
-4.270516146442051575e-01,6.407501064173241057e-01,-2.310335173125067643e-01
-4.261215693837754059e-02,-4.547169615891284433e-01,6.913781786777113414e-01
6.108547645994305553e-01,-4.612480021507612271e-01,-3.654561505987257708e-01
-6.157709330468169595e-01,9.994325974056413875e-01,2.198104648078613027e-02
-3.643451653569813597e-01,5.851379653604705799e-01,-4.200527438600255570e-01
-3.871118762884007136e-01,-1.168636181635717974e-01,1.109882402619282615e+00
5.339014577202844114e-01,-6.625857699570448789e-01,5.215931237520140540e-01
1.402201820694367884e-01,8.834883071524267384e-02,-1.139546634743599629e+00
5.512892271019830259e-01,-3.350856074867283874e-01,-5.346122003155712177e-01
-4.264842684607963452e-01,9.302099295416120794e-01,1.003693166729561076e-01
2.862034764103982831e-01,-9.327460410554567760e-01,3.174821358294336315e-01
3.623158915024340399e-01,-4.208562025479274382e-01,-6.763859225359202254e-01
-3.014462280298611518e-01,3.743869527304867773e-01,8.623714266946291840e-01
-7.446142721336380665e-01,9.158956613925961499e-01,2.464724796342676882e-01
-9.888211994755834178e-02,-7.062848886545523841e-02,8.172366619054137749e-01
6.183894291670709586e-01,-8.230769034409969320e-01,4.079160907258125857e-01
2.459555286789772699e-01,1.810180518778755632e-01,-1.160702731503603369e+00
-7.401509702862995033e-01,6.836324378037211824e-01,1.206500058949146366e-02
2.000757939108224193e-01,4.561067455956301364e-01,-7.951511537669859742e-01
6.308551111020062052e-01,-6.246564084882401113e-01,1.473485558477127290e-02
4.364019957340292133e-01,-8.964169453272822219e-01,6.493930682169127833e-01
-4.864558673085869200e-01,2.430995537090114844e-01,6.214186385917980227e-01
-7.253177511734518745e-01,9.703733312516289455e-01,7.620156225741300804e-02
4.880813947926481711e-01,-1.031019504608447157e+00,2.056870856026082051e-01
-3.907724406967327813e-01,8.948645626071632941e-01,5.349983744918162740e-03
-4.676866103306336897e-01,1.017848280606110656e+00,-1.397512050104045001e-01
7.736836573152786611e-01,-8.195008054407726394e-01,-3.606483754132133734e-02
-5.081008828765158913e-01,1.977881127344586487e-01,6.449824219994243490e-01
6.824162175510466166e-02,3.067768190922413596e-01,-7.380226502839234426e-01
6.633705617561012902e-02,1.455912362641018643e-01,-8.323205180179243934e-01
-7.117249408685003553e-01,7.083937603833180274e-01,-9.664619200800531051e-02
3.053374791073394379e-01,-4.651268807690286389e-01,8.461687035041859373e-01
-2.141645685588303427e-01,-5.086872381458444892e-01,9.048783057808940100e-01
-5.464269453843810798e-01,1.006314868522238282e+00,-3.078602240609000784e-01
-2.623438389550633576e-01,-3.362348339086266291e-01,1.051714819817666013e+00
-3.881474019210265913e-01,3.703579190798026444e-01,5.995537761334671645e-01
2.985561220114016368e-01,-7.827428266527430845e-01,8.648951175946113512e-01
-5.858607244557001437e-01,9.503992916616660347e-01,-4.474993261071861239e-01
5.178929558372213915e-01,-3.006210583346362597e-01,-1.024497335340102788e+00
2.475176705332621796e-01,1.495871434488968699e-01,-1.178144501314274173e+00
-5.865612542254149409e-01,7.262136365803860683e-01,-4.934205895848418622e-01
-6.001291201815959209e-01,3.237846168301113381e-01,1.008047938546670075e+00
4.643483503218278075e-01,-8.134134836994763029e-01,-4.472291896181389559e-01
-5.241845572096478501e-01,6.898195836181305607e-01,7.374888926783925713e-01
3.088042495631622697e-01,-9.464086395974480315e-01,2.536860732923661987e-01
-3.836727846532037023e-01,5.384069482609050820e-03,7.576884358307909295e-01
4.340854216066004079e-01,-9.566296199058734739e-01,-5.648311117482934102e-02
-4.399005324248801002e-02,-1.713992702815517466e-01,1.096571468745387357e+00
3.698371846164926202e-01,-9.933535021699732015e-01,1.573925907727734275e-01
3.384266257978318371e-01,-5.660527696743444803e-01,5.462436016479044198e-01
3.264865713440463502e-01,-2.915576563202065472e-02,-1.158990559669658138e+00
-2.304076365947357874e-01,4.420166791955238983e-01,-8.732761959418634534e-01
6.773262944718192458e-01,-8.865799134443634877e-01,2.522060043447503785e-01
-4.259791214714936936e-01,-1.674319349465367146e-01,1.035709550872635498e+00
7.652557300922714356e-01,-7.355939530246016211e-01,-7.007854444422344231e-02
-3.895891747441376785e-01,4.678688500581044130e-01,5.708570096925984494e-01
-6.512169302052733810e-01,7.926113949278974502e-01,5.859522165163518759e-01
1.798906573911523976e-01,-6.715020034470128296e-01,4.764883413629274478e-01
5.734070722776130752e-02,2.852462281470561911e-01,-1.140386899987102742e+00
-4.652297724401918133e-01,1.216605056679391783e-01,6.929595688386911423e-01
-4.885009635074387124e-01,6.354339685193033382e-01,5.917172446895854580e-03
3.332199310521524738e-01,1.140842322837500311e-01,-7.729244661924482562e-01
6.799571192433208067e-01,-9.605748307148730403e-01,-2.450542171324306129e-01
6.291629965165917993e-01,-7.027564793798205534e-01,3.341324091080818959e-01
-4.842458591919485134e-01,6.214820625451344949e-01,-3.648464250191161828e-01
-4.910868792008489803e-01,8.950376634589046754e-01,3.260335664426062818e-01
-2.390629799642839948e-01,9.228171250245762458e-01,-3.878769549611197354e-01
-2.730377714571217695e-01,4.591818127625824086e-01,-7.179261178259715992e-01
-6.434849561140051355e-01,9.861908008130199077e-01,5.106931344557549823e-02
-5.711450422609537503e-01,6.661403240601151410e-01,-3.814983422933130863e-01
-7.951249825966627549e-01,6.571714710926030989e-01,3.716864968735034136e-01
1.900485933992370480e-01,-8.683166833546001051e-01,4.907582944603863795e-01
-4.943751601323163047e-01,8.748680470156170452e-01,-6.107889393282495138e-01
5.402738593994079741e-01,-6.396121128604144168e-01,2.344183820019593023e-01
-1.247593657405127038e-01,3.406838806318938095e-01,-7.790846863309304204e-01
4.233791334655171990e-01,-8.101576839699934363e-01,-3.158587608031849792e-01
5.366631041869326380e-01,4.263303804581244916e-02,-9.228053350653387943e-01
6.516135389049421134e-01,-1.971624092801683714e-01,-8.905209857340641300e-01
-3.143126013664016560e-01,5.218592357749975985e-01,-6.247955626885924874e-01
-6.064560080432516154e-01,4.385958093921277778e-01,4.106076582806648667e-01
-1.919396939856313211e-01,-7.830217562836574996e-02,7.757412054368336696e-01
5.439686390016940098e-01,-1.047025325008412056e+00,1.858358019792691607e-01
-6.462830280413141004e-01,5.981320399167928681e-01,1.168206390078081330e-01
1.743987341491145260e-01,-8.659600521743491264e-01,4.338585492937082067e-01
-7.928754348395397056e-01,6.987045283611863500e-01,2.341265792771149712e-01
6.345098242581286296e-01,-1.555515479036331805e-01,-9.269530114327473314e-01
7.327951357636132146e-01,-4.074716861905853804e-01,-8.022426781814362418e-01
-6.895168795724773148e-01,9.615939851583096276e-01,-5.217568005187305652e-02
4.482613971146288678e-01,-6.000257906292397747e-01,6.044668630589113967e-01
-3.109864982154353363e-01,-2.991538497741345615e-01,8.892978747243175386e-01
4.964522004014517709e-01,-1.316022746920089137e-01,-1.061604899486412901e+00
1.477114623983664075e-02,8.165840778533599298e-02,-9.477538972488961377e-01
-7.986716531961052246e-01,7.829035527172235609e-01,1.366510078210121937e-01
7.794385720175762700e-01,-8.139839049475950938e-01,3.362481038007628098e-02
-3.823332432892277977e-01,9.032665005683820914e-01,1.085821423600159472e-02
1.849282130135567470e-01,4.510874605542239957e-01,-1.068737832501680085e+00
-3.530744515968675667e-01,9.024680744009839772e-01,-9.442536076789344313e-02
3.662075264213675574e-01,-6.018058700772688230e-01,4.044669519618521725e-01
-7.018143456549933400e-03,-4.980916119782257123e-01,6.704234985510906242e-01
3.609971693157973394e-01,-5.699384613797954247e-01,5.311231797996630588e-01
-4.328142838637651924e-01,1.719657042886645892e-01,6.653671287225101372e-01
-3.703541473481231638e-01,1.252524680908325694e-01,7.339404666623368101e-01
4.636148382115686806e-01,-9.222220368490592346e-01,-2.731645733035238388e-01
-9.895585101494311364e-04,-5.728642089173879848e-01,6.507562109187747801e-01
7.011589886667038973e-01,-9.396428085798191887e-01,-2.146368400399931986e-01
5.598313697280469237e-01,-7.463845640795075953e-01,5.258011908275518342e-01
-5.774923098298481161e-01,8.623637013919164263e-01,-5.105480617938676913e-01
1.450988571576079522e-01,-8.447084939668378922e-01,7.811420083602630404e-01
-4.999111470643582966e-02,5.068035252301079652e-01,-6.580864208584180641e-01
-2.308637401971298242e-01,5.496360651460635571e-01,-5.246310579141952868e-01
3.029037779043638468e-01,3.984679417654772293e-01,-1.016588181285031034e+00
-4.395519165023582531e-01,1.057075775393704620e-01,6.994746316901896410e-01
7.788451799910672824e-01,-7.869735973018689990e-01,-1.239238830085175463e-01
4.754378461129294409e-01,-9.784212359629429479e-01,5.483088056220829509e-01
-6.389791563389024542e-01,4.765546686237455143e-01,3.404357645807346011e-01
4.731058322321418097e-01,-6.843642688927901174e-01,7.746033217882826449e-02
7.757537300051190465e-01,-7.951922338612591457e-01,-1.290854113643056383e-02
-3.055349421840889215e-02,4.123989554503493804e-01,-1.116263226954360865e+00
-2.026794516712569771e-01,-4.173163681511621870e-01,1.081163304583715901e+00
2.625366514533416518e-01,-4.249061248004106783e-01,7.658891888767934697e-01
3.234122050204145116e-01,7.821855739002223085e-02,-1.165691598806972928e+00
8.108320256838064122e-01,-7.737777892656729772e-01,-2.579733789925586218e-01
2.903537523134114839e-01,-4.753608676774509489e-01,7.067197270126341913e-01
1.769748235183649654e-01,-1.547141272211365881e-01,-8.662564126610194926e-01
-7.137594949839857206e-01,9.156190084354582925e-01,-1.328416961570496602e-01
-2.317087413038486088e-01,2.119272459007845166e-01,9.939847794198090059e-01
2.733525377119762068e-01,-9.299331037640743425e-01,3.626685416647541516e-01
-1.782618293252447861e-01,1.807031837255167195e-01,9.137293679641516064e-01
7.973592626503587244e-01,-6.942980300445970032e-01,-3.570905392097082909e-01
3.505663587515508994e-01,1.821709502565769523e-01,-1.107797985406681063e+00
5.482433717779073845e-01,-4.829827174049616811e-01,-3.837869869215940200e-01
4.950967208214081261e-02,2.794316755973950961e-02,-9.172653792784706273e-01
1.264316873760575055e-01,2.705223296799469934e-01,-7.388863371871858821e-01
3.076899232445988730e-01,3.360833701092209025e-01,-1.036076070608505928e+00
-3.565283065451997357e-01,3.293411468463690595e-01,1.004417325514296744e+00
4.282425929738030157e-01,-2.800315554192501222e-01,-6.383154887010501488e-01
4.658765058461156183e-01,-6.204986480374353741e-01,2.181910349387349846e-01
2.961505877699736056e-01,-3.169371544546266684e-01,-7.228126333337777654e-01
7.172240182173746093e-02,4.602863082067623623e-01,-7.081845665711105076e-01
2.444027370690192991e-01,-4.806840714259816849e-01,6.672724676995201998e-01
-1.499614517270898284e-01,-8.137689878877826799e-02,7.841234083718051640e-01
-2.321990598406977191e-01,5.544438421186613786e-01,-1.001153808589062777e+00
6.098450226712773953e-02,-2.050895543713176783e-01,9.895809272975589765e-01
6.085556533447900041e-01,-1.855548644596059782e-01,-9.808706349738437469e-01
3.357874131077530078e-01,-9.565897974493927647e-01,5.939906762978239829e-01
-7.476161996580237001e-02,4.363878583019381030e-01,-6.508445115327097241e-01
1.481909650185446181e-01,5.880659663968018647e-01,-9.076663321060552958e-01
-6.854570256685598162e-01,3.376469421830978757e-01,8.727464230307856452e-01
2.247034849142378610e-01,-8.515868192743950571e-01,3.857095679171435032e-01
-4.225048466924214915e-03,-1.775880175377220482e-01,1.067609959800442487e+00
-6.983842962821307232e-01,3.397911374768178838e-01,7.211564792284623771e-01
4.993336258934681915e-01,5.378436055503360048e-03,-1.051277410752301300e+00
4.651341379082983285e-01,-9.261943668455732137e-01,-1.751589174926296011e-01
5.315932311446787129e-01,-3.682194467983859187e-01,-4.999822665384380249e-01
4.086159746902388035e-01,-7.414217932716179460e-01,-1.620090930247159722e-01
3.329621774182877081e-01,-1.984186718372841704e-02,-1.136604125018347844e+00
-8.558376311700768846e-02,-5.894671084102616199e-01,9.845165882733294405e-01
4.216688146020553529e-01,-6.272246983100316919e-01,3.400397004864125217e-01
3.805600854836909686e-01,1.671761274433158084e-01,-8.587206847154094103e-01
-3.623717722700786625e-01,7.890157002935290764e-01,-4.317210996505303766e-03
6.404143474930509283e-01,-1.038204782032815077e+00,1.653588221154038140e-01
-4.963955621130715090e-01,5.969030231782644913e-01,1.102844176125966913e-01
-6.965124829740557133e-02,-1.582132671947230895e-01,1.134995967352536939e+00
9.017371759169430512e-02,-7.357589635554807606e-01,6.063830241832081080e-01
-1.149198675214503224e-01,2.478676115599350027e-01,-9.414011004151429107e-01
-3.507631424562729916e-01,8.147206516981967406e-01,-1.204384979474023253e-02
-3.658720228078961023e-01,9.814389145094292166e-01,-2.601700609761167793e-01
2.773535110672742943e-01,3.916378629124122601e-01,-9.233639667353161773e-01
6.674600647079766136e-02,-3.792011451620749263e-01,6.917704561751728543e-01
-4.964914604453622982e-01,6.249620701436585657e-01,5.675850453083562501e-04
-1.047906486164792567e-01,8.273571904757279771e-01,-7.207237515126245775e-01
-3.848321979850906072e-01,9.955510494706130142e-01,-1.900493211548857642e-01
3.641772339666576874e-02,-3.997702717036601405e-01,6.910184210813941075e-01
-7.922553178901331483e-02,7.094604485249838000e-01,-5.500515472496984026e-01
4.157220557293732355e-02,-3.655960853816120348e-01,7.353407835246159596e-01
-4.346748487391460802e-01,6.155307670010125021e-01,-3.078688889293759168e-01
2.648010483793462044e-01,1.823447182879479322e-01,-1.157381625769017264e+00
2.709491547802206912e-01,-9.552863824193660314e-01,5.988648030349689177e-01
3.134468114029537178e-01,-9.813682991564361968e-01,3.132222303991599732e-01
-4.303099040495337868e-01,6.000640664955646519e-01,4.399593028911759629e-01
5.257123597963134776e-01,-1.049790089353682454e+00,1.130337688298302529e-01
-6.219359836201353575e-01,4.847509094590765066e-01,8.831097044793957407e-01
-5.586049633375087531e-01,6.249694662826440483e-01,-2.275041245514189056e-02
7.377948818755135640e-01,-6.996748930000389333e-01,-1.006586149332888702e-01
1.373536062451489737e-01,-9.911565420728647019e-03,-1.098019371723538917e+00
-7.285070926151071546e-01,6.878220462059611018e-01,6.303843833191126456e-02
-7.591193323459403119e-01,5.213712372866522449e-01,4.070265204289079675e-01
3.839213866243932904e-01,-9.998097373601698701e-01,2.173954715394589010e-01
-2.257978840876728732e-01,8.970145869068261169e-01,-4.174156591159461360e-01
-4.719947971074210380e-01,3.335831996189489446e-01,5.744010222264335219e-01
7.119616794531588022e-01,-4.118260985105506311e-01,-8.497638282589704550e-01
7.740850431912004170e-01,-8.248532938590001917e-01,-1.567806844440267633e-01
-2.922854548206365588e-01,2.062376368385475389e-01,1.067788817687248537e+00
5.066311898752549059e-01,-3.723072867941161768e-01,-1.024749117080087091e+00
1.313397912451536309e-01,-7.432344040163993970e-01,4.966571738807374903e-01
5.609372303123488779e-01,-6.869381387501297676e-01,5.172432971125590084e-01
3.004229185002972313e-01,-9.804596879492962769e-01,4.087314854967162847e-01
4.369455537622344288e-01,6.798294725041487130e-02,-7.848872133122775097e-01
-2.747722942025227488e-01,6.721665452342029390e-01,-3.559327743223608675e-01
-5.087378768614115865e-01,1.474517937918733979e-01,1.082434034263968226e+00
1.709034057867343248e-01,6.553340269257286466e-02,-7.825172111231960548e-01
7.703904616331000987e-01,-8.503541511319632207e-01,-6.232583492399355884e-02
-2.510290079150455031e-02,2.731404131761022147e-01,-7.606300753286491245e-01
3.789260724864018659e-01,-8.697940787808868812e-01,-6.100213718089700365e-02
-2.132810072993478190e-01,4.014679602050478247e-01,-8.987296861541911319e-01
-3.035321468420055790e-01,8.916556780448626762e-01,-2.058882664194160161e-01
1.111426472255035158e-01,-4.509700744634815295e-01,6.298528845520181552e-01
3.335501210682210171e-01,-1.320387515254867195e-01,-7.057243095003135069e-01
3.499491883024130612e-01,-3.143195930689905992e-01,-6.791572806859643707e-01
5.881973112179708085e-01,-7.798886681971859414e-01,5.005511247006596554e-01
4.159276609727255436e-01,-9.297628916129274668e-01,-8.076065133075958913e-02
5.755107173354516714e-01,-9.808507017494991764e-01,-2.071220371068513699e-01
2.050806338537284820e-02,4.801770527011938183e-01,-6.829758604727034221e-01
2.389135665033066680e-01,-8.816411300594344524e-01,7.464515732231131739e-01
6.488760442659773364e-01,-4.050047783325910200e-01,-9.124216218645776477e-01
-4.831876881921383371e-02,1.854387404723346067e-01,-9.519316956636175719e-01
-5.338454328566515361e-01,6.535756875626860252e-01,-4.844769933900838765e-01
-4.300126658683597891e-01,6.041709028175356044e-01,4.130279309134661792e-01
6.118842242877543525e-01,-7.201881903745900315e-01,4.492709228609131911e-01
4.068865019010012296e-01,-6.981016736679095391e-01,-2.586458709199092043e-01
7.954165120906960817e-01,-6.221308662098845588e-01,-5.833538922120092840e-01
