2.530909013172302682e-03,-5.599622315242009929e-01,-5.831119332077202566e-01
-2.337351926602344310e-01,-6.948606883575481064e-01,-6.251824552568487903e-01
-1.404881170725643114e-01,7.257181274223667433e-01,4.988552424194491741e-01
2.342375796543535726e-01,6.925503789003975008e-01,3.428729331894864729e-01
-5.844625366065546723e-01,-5.003520181645730869e-01,7.060659907999021767e-01
7.767000045087261162e-01,7.920348026220532800e-01,-4.147938964818696506e-01
-5.242948535727461890e-01,4.696260853056547502e-01,7.202168550161349714e-01
4.592953768229058875e-01,1.169447787156987772e-01,-6.430686575831221496e-01
-6.801602528164339967e-01,-9.662648820288622931e-01,1.887470206896654235e-01
2.387594158546329226e-01,-4.863963888327798579e-01,-6.095420549950442135e-01
-8.479467222681728034e-01,-7.134099716254252987e-01,4.152420115144405122e-01
-3.907646585330208366e-01,7.879394738657707897e-02,9.531274190993207496e-01
6.775806248963700540e-01,-3.199286862111738183e-01,-8.025252306689558690e-01
8.383313779237676622e-01,1.858048190643971920e-01,-7.990597987423537774e-01
-1.231707477564562142e-01,-8.700185944862437459e-01,-2.439770121035388650e-01
-3.492582604068518726e-01,3.264130453328082937e-01,6.522820194276481853e-01
-8.467319619093305327e-01,-5.982571542434759193e-01,6.172402810493821113e-01
7.610763120850589925e-01,-1.228720680636534723e-01,-7.311830805652310694e-01
5.562207392859435107e-01,9.819233524685819781e-01,3.061128372756814486e-01
3.943147901282177403e-01,-1.807185609053073294e-01,-6.770453626267164404e-01
6.707137562205207626e-01,7.186516547746152339e-01,-5.738339757816285358e-01
-5.549166296820328137e-01,-7.841586433226700459e-01,4.020224158610091747e-01
-8.633051290073900930e-01,-7.143197754478088912e-01,3.806659489774091298e-01
-4.740685439628720133e-01,-1.639950848684197937e-01,7.236997521715522463e-01
6.891330532136387133e-01,6.571461863476339982e-01,-6.251544589288482445e-01
-5.541286072083296821e-01,4.680117711412767889e-01,9.106283109902498785e-01
-2.133726876104922732e-01,-1.021354770866613748e+00,-2.069474621562724381e-01
2.900848067778770689e-01,8.217752426384142828e-01,5.356728903645467665e-02
8.844966295523838395e-01,6.087339148204996553e-01,-4.074140256296185370e-01
-9.494329500466737459e-02,7.864149120825137951e-01,8.848983969384220938e-01
5.922855504840616181e-01,1.020906349251268663e+00,-2.619045561652995693e-02
5.537389397569635330e-01,9.496744906965253197e-01,-2.532203428350260910e-01
4.508199085310841125e-01,-4.360572456103799510e-01,-1.016782521209959933e+00
2.098756630828678693e-01,-5.179721465111237766e-01,-9.823266764065068379e-01
4.228920962994904276e-01,7.155666065705765799e-01,-1.006037362888254072e-01
3.712921528348459010e-01,-3.272873245139584775e-02,-8.718433082311445315e-01
5.304408656307076919e-01,5.930215101063458505e-01,-4.811317676620406603e-02
8.447603282617648091e-02,-9.204599679101939103e-01,-5.554515942992299671e-01
4.307340886600268814e-01,-5.595927120031344293e-01,-6.554745675904691815e-01
6.954128096777519863e-01,-2.686789967385279088e-01,-8.195595884877738824e-01
-5.565159814295016494e-01,-2.659514765572441597e-01,5.458099982228771241e-01
8.853195787202364220e-02,-6.573411484115834202e-01,-9.401288132012426413e-01
-4.960327453339287707e-01,-6.639668109565686205e-01,-7.876125497425373601e-02
-7.302419921756209131e-01,-3.316146996974174699e-01,3.945070030171930475e-01
5.575818125876579323e-01,8.005543459215916924e-01,3.343850136816320373e-01
8.106388235750394688e-01,8.138570233829697242e-01,-7.310029578992084665e-02
1.286639000771877817e-01,-6.520475919844888057e-01,-5.236188314738000615e-01
1.132254384494158633e-01,1.036208577103479467e+00,3.882203239160615382e-01
2.490785440086634439e-01,8.662938165448201833e-01,9.501189129132459055e-02
-5.575364404617590974e-01,-1.157210145247048461e-01,9.700050529980325242e-01
4.127870557782505334e-01,-5.993628462781364075e-01,-6.738124660630886442e-01
-5.678304217364870121e-01,-9.764330373166159316e-02,5.549877458700044341e-01
-1.498436690856529419e-01,-1.011805825009720827e+00,-2.698259899016254293e-01
-8.117947233646303218e-01,-9.602839010767386108e-02,6.132724867615373388e-01
5.290434208293711693e-01,9.779253601585898847e-01,4.009384463261922438e-01
-1.994646333803833660e-01,-6.581139813032402808e-01,-6.021311167639541440e-01
-5.983077453837735149e-01,-6.380024692871542058e-01,6.226001100517080111e-01
7.043507619282537435e-01,4.324966163152573206e-01,-2.894157405039881614e-01
-5.181180907463058816e-01,-3.726123682979017859e-01,6.959164210115692528e-01
1.051505385203545112e-01,1.024064768769102907e+00,5.896484437156978009e-01
4.980312370230465802e-01,5.816144600600707815e-01,-4.357332879396245695e-01
-8.771471465875370077e-01,-6.672465668862912480e-01,4.588975968756640045e-01
1.573994982022318065e-02,-5.411039009969347280e-01,-6.126058401207807869e-01
4.907898974308337325e-01,5.996705858929765043e-01,-3.304069966431948391e-01
-2.628180597955224740e-01,8.029162711451609535e-01,7.283785228022479075e-01
-8.890645429451590198e-01,-5.469365220662290028e-01,3.548990629197578128e-01
-3.654183266472612046e-01,-7.910557794728985126e-01,7.981166022837965501e-02
-6.209857936386485866e-01,3.767679896608484014e-01,9.144759650210452229e-01
3.142059430355156335e-01,1.070433478122833959e+00,2.306746501705110031e-01
5.132553173841410965e-01,-4.261038041991673242e-01,-6.979292077673981964e-01
7.477855826999354472e-01,1.497024788874650736e-01,-9.214337178624361080e-01
-3.052248945556646498e-01,4.647677283220167932e-01,1.039630568771136687e+00
6.054000787763538227e-01,2.418147086841658799e-01,-8.956281780796970793e-01
-6.813485511117756133e-01,-6.078235455769941398e-01,6.895436864274497868e-01
2.788899505488109387e-01,-5.850152541927514660e-01,-1.000370137633728174e+00
5.198005469129428624e-01,1.067151787361135140e+00,2.015005713772199114e-01
4.350147944462948169e-01,-5.298761675928870263e-02,-6.797186937959633912e-01
4.491476536755074078e-01,6.751891508423872867e-01,1.356781868545778869e-01
5.893192775038215148e-01,6.102096603576656619e-01,-6.454674593580033148e-01
5.029028015449554800e-01,2.466222717988224011e-01,-5.801244519751953543e-01
2.846580520435700382e-02,-5.230343307095735028e-01,-6.057758858917005051e-01
5.388712610772109501e-01,5.645143345152284775e-01,-2.445821699226879697e-01
5.309602966116755418e-01,4.397109379535492635e-01,-6.747056356195291205e-01
5.941956373319331464e-01,-1.112121967578785647e-01,-6.227335729212715165e-01
6.863189598539648495e-01,7.707229196501286239e-01,-5.179038310869902295e-01
4.561770201491360810e-02,-5.602147402742113647e-01,-5.907794604234941627e-01
6.938740005505210640e-01,3.966741225631831291e-01,-8.161970875828840066e-01
1.768713411464258312e-01,-3.926685088272636737e-01,-9.442339347594735921e-01
1.339926932144273053e-01,-4.735017701841420790e-01,-6.622154324802643766e-01
-7.630348831319713199e-01,-4.718454597327234601e-01,2.952238854748777674e-01
-2.391935885950055296e-01,-1.071485577590803873e+00,-3.290029948448257580e-01
3.866271339548872366e-01,9.457714122162276249e-01,-9.346701907115168018e-02
2.625629557410862902e-01,8.539641154372238363e-01,8.192586800926678070e-02
-6.396242007643319072e-01,-9.445286809672714945e-01,-2.333488375226108469e-01
9.505744805957209997e-02,1.022457516203885364e+00,4.293831593020419057e-01
-4.082929722297933273e-01,-1.022694624374772321e+00,-4.668621188317349513e-01
4.198647818342517435e-01,-2.637991177702827539e-01,-1.050651429017251726e+00
5.101910562707087093e-01,1.037614205871280060e+00,1.475510092386015937e-01
-6.657815488479806865e-01,-5.093549207888217224e-03,9.788643649415296188e-01
1.685560761754307524e-01,-8.827583425037550668e-01,-7.276472472493241694e-01
7.773143844042406103e-01,8.743022054144027333e-01,-9.375652957323424297e-02
8.498635032400188027e-01,2.324142530889533875e-01,-5.540987589938723978e-01
8.676245729753423452e-01,2.675952993115403022e-01,-7.796072175681569849e-01
8.906603889162398868e-01,2.669446960382988454e-01,-5.545221529168777863e-01
-4.025439069274643761e-02,-8.905684101811895959e-01,-3.249775538005047482e-01
3.413158373604059936e-01,-5.674608420334897874e-01,-6.232775495640138219e-01
-8.747322124123516618e-01,-3.141355751706195742e-01,4.779325445675235429e-01
8.918966219529489425e-01,6.166275785280581623e-01,-4.639518076414010928e-01
4.808320091329081336e-01,-5.560042689910543734e-01,-8.350158444863322593e-01
4.295628430473188430e-01,7.483267020226437582e-02,-8.003500813155773885e-01
7.752933116630582600e-01,7.246743809605438180e-02,-5.934272474578266010e-01
5.916531323304569795e-02,5.673426766798185250e-01,7.852349092343696713e-01
3.882757340828713599e-01,9.399355660181188954e-01,5.402498116317167032e-01
1.973524643708770010e-01,-4.683277638261024167e-01,-6.144981550501678047e-01
-6.030092041874544062e-01,-1.021484883916017550e+00,6.088971605897908201e-02
-5.046134652863480952e-01,2.379912796944255171e-01,6.283500627539521100e-01
-5.083552046503829747e-01,-1.870487960334325517e-01,5.903814320464679799e-01
3.569271731137869941e-02,-4.999025715785332391e-01,-6.304044163210511531e-01
6.075070000637956547e-01,3.990922819440979596e-01,-3.452041641226209490e-01
-4.929660401030748207e-01,4.856991207782856979e-01,9.645017542935147015e-01
-7.232057667035539650e-01,-4.019036019133801485e-01,3.270205486392255834e-01
7.057831122421870385e-01,-2.638983290068444010e-01,-8.593584779482159597e-01
4.486337454117961254e-01,7.649111015676298697e-01,-2.614179006550026996e-01
1.742974395166986545e-01,-6.629701822169071779e-01,-5.507637557202970102e-01
-8.496117928006433617e-01,-5.710894822204711785e-01,6.533286720943924930e-01
2.842377772979463590e-01,1.011607014843964203e+00,1.210569884729350981e-01
9.116090073468181565e-01,5.087686097250317951e-01,-5.594073603308666875e-01
5.446951505200199328e-01,-4.166508375435038491e-01,-9.818434190104755599e-01
1.110729720410767174e-01,9.694711770732665768e-01,3.351626022331810062e-01
5.299157215304708263e-02,-5.035684265752949917e-01,-6.747303670062280156e-01
-2.010566857628425241e-01,-6.583812028551003781e-01,-4.796384674930398440e-01
-3.320393382219360978e-01,-6.941268795741878384e-01,-3.680148366239802127e-01
5.536475851310339591e-01,3.699376344827662311e-01,-7.644819405274234647e-01
4.611160045990062573e-01,6.990749596896363993e-01,1.863054007435259452e-01
8.787376411714785673e-01,5.707306122889652666e-01,-5.954592741990933913e-01
2.688130126743118464e-01,-4.757088119544968796e-01,-1.010597135858908535e+00
-3.421962792835934741e-01,-9.187067825491307405e-01,5.517834145081009813e-03
5.637739443329773392e-01,3.228019459895770105e-01,-4.726660294451010547e-01
7.656038302372116799e-01,9.199336020613564369e-01,-8.584309888301168423e-02
5.432149739896602325e-01,2.356103845041064293e-01,-5.234230815907302548e-01
2.759126812117632110e-01,6.851030947033189822e-01,5.065499820971803846e-01
-1.221761887812512631e-01,4.569844595862370684e-01,8.919283751387796499e-01
-9.119884176059159242e-02,-9.791783303497590962e-01,-3.673751387445269856e-01
-2.046333360355284958e-01,-1.006857484332275954e+00,-2.325757434354633058e-01
3.583628097411797886e-01,-3.446203009681933493e-01,-1.016099568969680345e+00
-3.303977390396218294e-01,1.638841886636622502e-01,8.814674568435810764e-01
-5.656422398812388508e-01,-7.478699995551788549e-01,4.568997656403102070e-01
2.326724031909948309e-01,8.001853985289362203e-01,1.369731735324069000e-01
2.158066566755257321e-01,7.369333371796538135e-01,7.186406354546649444e-01
3.875579479407523786e-01,6.793300795382412223e-03,-8.385091341096285733e-01
3.617531145736429532e-01,-7.072705531973146886e-01,-8.645777056480202782e-01
5.450115455513230289e-01,5.555573239586049095e-01,-6.368272102830336845e-01
-6.116536409474672142e-01,-4.379799018633109831e-01,7.799118388460756224e-01
-7.929256817937146984e-01,-8.516890272621192581e-01,2.642552939400033551e-01
1.975510357585882615e-01,6.425427384079896997e-01,5.713963649371956999e-01
-4.864473306645024642e-01,-6.067079016658902813e-01,1.146256629625375389e-01
-5.237794807200037983e-01,-6.628469096952616102e-01,-8.939786180136635729e-02
-6.393282157916202468e-01,-6.469575840695761526e-01,6.109031588245807942e-01
3.406379925753256765e-01,1.076060198357605246e+00,3.446207480761712683e-01
6.571139801154788351e-01,9.466446502818558484e-01,1.651473879274678591e-01
1.282905240803532410e-01,-7.432533913573929896e-01,-4.989079540832923598e-01
-1.503465616654394432e-01,3.641240866348136596e-01,7.410650350446712498e-01
2.717227669484817421e-01,-4.168568556320155771e-01,-6.231493053461699683e-01
-2.479240999446942761e-01,-6.733053472191158351e-01,-5.262169027047048919e-01
-7.968865213430177397e-01,6.213566503393531948e-02,8.339838020152617881e-01
-4.441839813961917516e-01,2.619808666749645631e-01,1.058289317490434422e+00
-3.078885525298203363e-01,1.541419401816243595e-01,7.481805324772661248e-01
3.941966865347632520e-01,-3.531146074862759332e-01,-6.501005019294514575e-01
8.164924799506252384e-01,2.169937156998051342e-01,-8.718024346571867644e-01
6.078859071458425634e-01,9.715814982286993251e-01,-2.334743826313213366e-01
1.025404716272689323e-02,-9.540864665825287139e-01,-7.221502774972243799e-01
5.147471827347011031e-01,1.422860073678878512e-01,-6.016164535154284732e-01
7.156935175929313164e-02,-6.876147082323272874e-01,-4.911134795913809081e-01
-9.620765864411812140e-02,4.715686251182273359e-01,6.500955384416657878e-01
-9.932470852368818770e-02,5.752014441205749451e-01,5.493306477211681305e-01
-6.263778028873001613e-01,-3.074805201612255123e-01,4.521045144133511440e-01
3.757522457501785706e-01,-5.792366366423463697e-01,-9.917065649164401586e-01
4.708383947720494178e-01,-6.124717234529046817e-01,-7.840668334279394802e-01
7.905970730112328315e-01,1.099994744412582381e-01,-8.713863954711389415e-01
-5.271565255388331872e-01,-1.037822480359461119e+00,-3.152486492506377247e-01
2.040435381482268995e-01,7.873136349278121449e-01,2.080547715999823966e-01
5.911754140244398492e-01,8.239398708367741408e-02,-5.605129227169646233e-01
3.867766309219390908e-01,-4.664380467090561977e-02,-8.786780380440837313e-01
-4.514541755882413021e-01,6.159526342263001997e-01,8.906844231864788908e-01
-7.343850326362840741e-01,-4.400762562554064727e-01,7.892060596804897354e-01
4.587423136954208447e-01,8.030536758744459824e-01,4.601756765422800877e-01
-3.019927334813167219e-01,-9.997369969001062007e-01,-5.595070865376197133e-01
-3.034871791647610895e-01,-8.136212203605202031e-01,-6.490597594290574701e-01
-8.065318036013134906e-01,-8.421522379156982652e-01,2.767015875532980451e-01
-3.410584153362175575e-01,3.462937406338431612e-01,6.323373342401510389e-01
-4.528142059809289188e-01,-6.779838786112047933e-01,-2.459098893115211348e-01
7.441186559409991297e-01,6.063454494248585736e-01,-9.632234881966950102e-02
-6.333174554349028096e-01,-9.845152246864802281e-01,1.323014263853247996e-01
-6.098330802834652786e-01,-7.116760057954160112e-01,-1.456577255765952039e-01
3.009444665499274585e-01,1.036063806026825018e+00,5.300131126109665081e-01
-6.195752564620863323e-01,-1.750373613236654372e-02,5.741749222213079484e-01
4.690037796819964688e-01,8.717144972764427902e-01,-2.305662472346334535e-01
5.185819140664981175e-01,4.534823470257252631e-01,-4.169026494201343302e-01
6.479327623782238366e-01,-2.959641489353995181e-01,-9.255285249335372111e-01
-7.359130349134112015e-01,-5.808559407598630209e-01,6.954894361091362720e-01
-2.410631216734469562e-01,4.751354756707321103e-01,6.115596885473868483e-01
-5.679003675151028663e-01,3.927237766909713046e-01,6.983979575174317223e-01
5.461097489353565759e-01,8.733926841477772651e-01,3.628147773534649012e-01
2.095238574259953857e-01,-6.510825131798582133e-01,-9.653731479456387765e-01
7.711689477286598482e-01,-1.034086094943094253e-01,-7.032750660083776362e-01
7.761398794909564192e-01,2.219402792777495637e-01,-4.927491513537652357e-01
-4.536508943986092279e-01,-6.914102846681821068e-01,1.227165913816711390e-01
-4.531170053885558158e-01,-7.068560470015331498e-01,2.398628432247042752e-01
-3.740946959153815810e-01,4.362934214131407584e-01,6.238523477135928808e-01
5.416778811294721274e-01,1.043957002464501294e+00,2.500739381159561292e-01
-5.362000279906969924e-01,-3.235066154813145273e-02,5.964298662760642022e-01
-9.028950776478847362e-02,8.279606817747413583e-01,8.536895350637349056e-01
-6.081261304642856524e-01,-5.453096033370197215e-01,1.462977869739046088e-01
5.437779359536300955e-02,9.805339012338141202e-01,4.253110576793098230e-01
1.385284750522078334e-01,-6.440349375822822520e-01,-5.092363333021417970e-01
5.194454117250911773e-01,-3.398849100145038271e-01,-1.055733247166270594e+00
-4.437338202027660827e-01,-7.727191734928964273e-01,2.536872514341841356e-01
5.726726026716869589e-01,3.910259515313517231e-01,-3.956629916054189566e-01
-4.232979368308466550e-01,-7.953906777754122803e-01,2.094970557533541444e-01
7.630873510020137473e-01,1.498345781965941537e-01,-8.999605563615907800e-01
-3.945325769262869597e-01,4.560309610100456434e-01,1.024008564971515378e+00
-6.949605821984199405e-01,1.580192846734147505e-01,6.750142224563312476e-01
-7.232553207799682360e-01,-7.699654855482184201e-01,-7.200740152203415068e-02
-3.963658734081653701e-01,-7.275269881375516778e-01,1.446258297990170305e-02
3.087727328424307305e-01,-7.471660037091600870e-01,-6.725099784709541728e-01
-5.281402871541088784e-01,-5.189503048970744992e-01,2.999312652794387524e-01
-3.259248499494013518e-01,-8.711120339539916158e-01,-6.147985929075940881e-01
6.511084499772900047e-01,2.904385744628744104e-01,-4.224553765597559019e-01
4.729312353732651464e-01,-4.056627079174638384e-01,-6.512628929964833224e-01
1.110291272921316713e-01,7.214192966502800397e-01,8.143845616226639272e-01
-6.054975943217518752e-01,-9.821925090729975993e-01,1.818373679626713590e-01
-6.704191928660688804e-01,-1.194156871207816134e-01,5.512844523790723095e-01
1.626706615674817502e-01,6.572360528992721163e-01,4.429902862214701309e-01
2.805379147389889805e-01,9.418232358357748746e-01,6.306289161921626585e-01
5.134198080391230157e-01,-5.007738849788485602e-01,-7.294008618765510654e-01
8.080144831662293692e-01,-1.285598373002900217e-02,-7.396496354906803017e-01
8.736913009240764305e-01,6.755041600518099099e-01,-3.946401953639127047e-01
8.703020729835875269e-01,7.184845875394805237e-01,-3.872100822009269527e-01
-2.568997271065451282e-01,5.981276678906808364e-01,5.956870374561317183e-01
2.201898630271525437e-01,-2.672914994981031023e-01,-7.982417090783116009e-01
6.950413476101683363e-01,3.515806694976850721e-01,-3.635762569339889838e-01
-5.490917912589233785e-01,2.832666654656194605e-01,6.556736092639843250e-01
-1.715669167693639752e-01,4.425099331322893126e-01,9.432238978836363641e-01
5.706447174346126854e-03,-5.908772050190667091e-01,-5.511376128692425658e-01
6.261665132261515776e-01,4.175878563612026584e-01,-8.179202494925958966e-01
4.464689096814415947e-01,-1.231201629723228247e-01,-1.013225825645684086e+00
2.553207799152263924e-01,8.835341627476615001e-01,6.774014075415667469e-01
8.745186294634336166e-01,2.533999656584504101e-01,-7.899262225437195806e-01
7.592257327179150472e-01,7.125911665694080188e-01,-1.684213859101415384e-02
4.954526155069948201e-01,2.726727833375108268e-01,-5.961172921997078822e-01
5.850199102215363212e-01,-3.171432037929324821e-01,-6.747900270960884850e-01
-4.640705823465309243e-01,-1.029044674414902882e+00,5.014420703889015812e-02
-9.089422384529592946e-01,-5.054428815996286906e-01,5.562744264570683717e-01
-2.835649198828100737e-01,-7.177217622578799805e-01,-1.957014742971124599e-01
-5.767097224084533069e-01,-1.070425728290221645e+00,-2.398357462140667581e-03
4.821939736854045644e-01,6.667957784515015085e-01,1.331955205007549214e-01
3.315936660812101588e-01,-2.708027204191824633e-01,-6.643744791934086402e-01
2.238831629112195132e-01,-3.775303619593036175e-01,-6.793635803330839718e-01
6.965177269651241510e-01,8.393562836341691424e-01,1.473485887942392325e-01
2.558641072699621710e-01,-4.349350108629836398e-01,-6.377239581038179894e-01
-8.433338551421708518e-01,-7.667737695004047671e-01,3.414730648337311880e-01
-1.070346273581146979e-01,9.267323340135936727e-01,6.296171805130246213e-01
-2.216608369043505389e-01,-1.015914658588935593e+00,-2.470416541529324161e-01
2.049681881201659006e-01,6.489865093348349268e-01,6.250463887525342654e-01
-3.988558258616551333e-01,-9.185912821663240121e-03,7.913591120032483772e-01
8.468784383944052419e-01,6.818551836792183796e-01,-1.721602346917642523e-01
2.457649221314274490e-01,-3.714986964507416833e-01,-6.539812442726526953e-01
-2.314715099940388987e-01,-7.993236360019473352e-01,-1.472845817883224329e-01
5.318236397740822019e-01,6.916548740926136141e-01,1.815691907755665468e-01
-2.882715890816990867e-01,2.743717044317111053e-01,1.010094563592962347e+00
-5.136819324207164694e-01,-3.521879196578951432e-01,6.869702959087440330e-01
7.764971516828397258e-01,8.568498479235050480e-01,-8.654041248831027822e-02
6.790694572495342696e-01,7.133708150796249647e-01,7.992147483888034643e-02
4.232408077758336162e-01,7.390665340094237923e-01,3.708472996510498443e-01
4.758908476063896109e-01,1.033786369351146206e+00,3.750428652747021026e-03
1.978906955557090119e-01,-5.455549777709362003e-01,-9.927273614422094106e-01
7.391994000506189044e-01,3.186936689432359193e-01,-4.034803004151299999e-01
-5.278001081504263281e-01,1.199588045181526341e-01,1.018550427129550240e+00
5.188397009665676185e-01,5.708731995364219047e-01,-2.656861512350542909e-01
2.121029522159951219e-01,-3.637875265175224970e-01,-9.536069856462120464e-01
5.530450393096201234e-01,5.259735659056141710e-01,-2.307460720874372762e-01
3.704864446527262323e-01,9.676608563287786291e-01,5.622024290314413530e-01
7.334704884671776615e-01,3.669032182155245736e-01,-3.686759835808951502e-01
-1.116562424112606811e-01,-9.610102778289659753e-01,-2.845948552184615621e-01
-6.288792048449293182e-01,-6.533884758454698849e-01,-4.219648956065465834e-02
-6.261571243769471495e-01,-2.598566659475734855e-02,9.951246275934979568e-01
-7.794533390687661267e-01,-6.842941144194381042e-01,5.819765760967791079e-01
-4.378109480033987588e-01,-9.696085587687088003e-02,8.143990177914989248e-01
-4.531384217712748907e-01,-7.613323609946655024e-01,2.908194503695012423e-01
2.271782284145335007e-01,-5.593509234167691746e-01,-6.011698567522586467e-01
5.124088521697388598e-01,3.400034587350099502e-02,-9.731483694970133325e-01
-3.407555274001330403e-01,1.422625063677690760e-01,7.383748799654170636e-01
-2.708729442317712732e-01,-1.072706959354436940e+00,-4.885393171138894264e-01
8.562431628950551987e-01,5.868675099743639878e-01,-2.706584279997001907e-01
5.315313141822497478e-01,6.589038628246580709e-01,-4.797937964894153917e-01
-8.168293917583993591e-02,-8.307467880604365584e-01,-3.171305027985545366e-01
-6.645649256277768036e-01,-1.641755951061856789e-01,4.994490338209033320e-01
-8.799307408421767063e-01,-4.705517777161014048e-01,6.326604855551393181e-01
3.220296054636709315e-01,6.919032901990610496e-01,2.458655838337058530e-01
-2.314775849389004436e-01,8.461725656515186600e-01,7.607288552713551422e-01
-4.048003759193877782e-01,-7.144270421527634252e-01,-4.101409980820481249e-01
-8.778979524430831349e-02,-8.509427956455771769e-01,-2.769328301889870114e-01
-6.827781753333948822e-02,-8.052316055481191226e-01,-3.470016048836084277e-01
2.106262440280720349e-01,-2.950496196532444992e-01,-8.068903673433266421e-01
-3.671406923492224195e-01,6.278800099840746718e-01,6.135818147513308896e-01
-1.659971789285095978e-01,-9.646135152514858646e-01,-2.450113568859736968e-01
-7.477285858547619846e-01,1.519627792587074089e-01,7.504110387390636738e-01
2.584327279182746517e-01,-8.352072067391655974e-01,-6.998407317654281590e-01
-8.707815849890773174e-01,-7.115730595927164392e-01,3.836389224229536654e-01
5.158648345858434237e-01,4.543444518302398594e-01,-4.976354452570133091e-01
-1.016723905543849560e-01,4.262215507026467787e-01,7.229372137920112573e-01
4.078768320723062391e-01,-6.237595356240178690e-01,-9.392630668529138305e-01
-2.917123056236949896e-01,6.038051952708143322e-01,9.952322160450909339e-01
-2.236329241090838638e-01,-9.941466979411097693e-01,-1.899157913207184800e-01
-1.657151008517031843e-01,-1.000319923908073116e+00,-6.559611681908223968e-01
6.140218740293751365e-01,8.178398129869656197e-01,-4.432283145179428674e-01
2.907245691534635634e-01,6.832992334320215910e-01,4.690443089915858899e-01
4.034457391586504516e-01,-6.769160249104285709e-01,-8.585111587163634095e-01
6.902884582013781023e-02,-8.881904208181652383e-01,-4.645803612298121665e-01
-7.946880080353274645e-01,-8.399220423335966856e-01,8.022000492684913664e-02
-6.245920438527974294e-01,-3.981829257149981927e-01,3.402818315846097286e-01
-5.675502486286734261e-01,-3.480292824697041043e-01,4.334775778476960828e-01
-4.411512310961470118e-01,-4.223892811333258140e-02,8.934704592583934124e-01
7.813860249239845679e-01,-1.430569740290974778e-01,-8.036802189498947202e-01
8.916744474263933462e-01,2.523237820402910447e-01,-6.211032687100119798e-01
7.422280443635697056e-01,9.597863453949988521e-01,-1.173482724974559133e-01
-4.132224338828962007e-01,-1.055364991582233403e+00,-4.017214941258693273e-01
4.025912204709793940e-01,-5.147589693791817522e-01,-6.337208369981052192e-01
-8.944597443782344171e-02,-1.027311026984276454e+00,-5.890611023169153304e-01
-4.922420826296046714e-01,4.951017488604974592e-01,9.666349610275951632e-01
-7.171951696630286532e-01,-8.941846715952532776e-01,-9.835982555232433699e-02
3.290826591812353596e-01,8.183023608611752486e-01,-3.939944537527319268e-02
-5.932986925236326536e-01,4.021221133823785210e-01,7.530423087507164270e-01
-8.697291289863677832e-01,-6.877743201334933776e-01,3.502262103502576940e-01
2.490695280643201170e-01,7.246298147320546779e-01,6.168875099005984852e-01
5.725318723962785628e-01,7.499096412166489367e-01,-4.898560961282463766e-01
-2.073876508324124235e-01,-7.337070425926687234e-01,-7.181859213839202338e-01
3.681338141122798557e-01,8.636557115369140059e-01,-9.220992731724407532e-02
-2.492957397638448647e-01,2.579606545775432469e-01,7.695254489794380870e-01
3.895902191332010767e-01,-1.160060504305241574e-02,-9.061625031227418248e-01
-8.422703438608667437e-01,-5.591642472598359337e-01,6.374923005489000483e-01
1.437243905582947789e-01,-7.698241194216615124e-01,-5.168709985108280724e-01
-6.495083672773492856e-01,-7.695138617220296240e-01,-1.561529938874982870e-01
-7.860076972550956997e-02,-5.808016815480502304e-01,-6.607809175303447358e-01
5.166492424257860261e-01,7.397763183963537159e-01,2.858514113988233074e-01
5.148253740979258364e-01,5.929241026795757374e-01,-4.690145105559659355e-01
1.341027647892744923e-01,-5.095062410787032370e-01,-6.062180213757822900e-01
4.310282609327666381e-01,-5.823607737140896745e-01,-9.353150495191359104e-01
-8.960818045190693804e-01,-5.877351806248634070e-01,5.292924929954216928e-01
1.618244155054354705e-01,9.265091762580384138e-01,2.418635353525872278e-01
3.285886349678331098e-02,-5.779708005963676287e-01,-9.086434924093321763e-01
2.390110393600319849e-01,-8.450646457477838380e-01,-7.173762086299312335e-01
1.955941242687852244e-01,6.610813897923792926e-01,6.722227490604255618e-01
-7.740973310747671920e-01,6.821070788093237802e-02,9.028723771245397156e-01
4.988229731032902126e-01,-1.267797009630931004e-01,-1.034381974515694580e+00
3.583432097585572129e-01,7.068679689476845551e-01,8.786676046392348505e-02
-1.285393259979415725e-01,6.767980592700726383e-01,9.641029752751649751e-01
-7.999322223069489646e-02,8.611309662673051202e-01,4.699071588763936713e-01
-1.459966893157740309e-01,-9.590169374001102920e-01,-2.395251593299133341e-01
-1.798421330883938907e-01,5.927229038225678703e-01,5.699391672147403609e-01
4.094775470568222664e-01,6.958290259091446384e-01,1.679296983164504931e-01
5.227131616505072964e-01,4.972665496710927391e-01,-6.361052070873584041e-01
-6.237971982869634502e-01,-2.820019911039948202e-01,4.739593677500902880e-01
-2.021883932650600235e-01,5.172049898431761994e-01,5.919202299913023380e-01
7.518533729403761856e-02,-8.167741579925825723e-01,-8.888797632525570203e-01
-5.651247599879571926e-01,4.560308920812531364e-01,9.038222683174654826e-01
-6.831279253923408512e-02,4.712217243361876973e-01,6.694162540002528416e-01
-4.116789490615205827e-01,2.846307929872871623e-01,6.366194666168265570e-01
5.143997546072958116e-01,3.367818108548905065e-01,-7.334073745289516610e-01
7.479775960511089172e-01,5.088718046205936534e-03,-6.017480985072773958e-01
2.779087794421964408e-01,-5.155443496094667122e-01,-1.001143069461598145e+00
-5.620871537432728937e-01,-4.389390766143563272e-01,3.560232070663332249e-01
-7.712059737385260627e-01,-1.486975826933938441e-02,6.322768814036523466e-01
-4.869611237105537782e-01,-2.710732971164132032e-01,7.947524250643603905e-01
-3.470308976363728481e-01,-7.033134745873897975e-01,-3.704822355394102873e-01
4.833490937968894507e-01,9.128354589950269382e-01,-2.107220598228159159e-01
6.808628286749345282e-01,2.548553648926487059e-01,-9.180795341609224725e-01
2.818555719416513394e-01,-7.458535066701585947e-01,-9.034759048790761415e-01
-6.936107120021610395e-02,7.938563099350631758e-01,8.931038603984169377e-01
7.411839896881416978e-02,7.002146125271756505e-01,4.095407643413708221e-01
-5.780469294342013287e-01,-4.534432936829903976e-02,9.966896371083174833e-01
-3.497156481610661505e-01,6.699204724813457856e-01,6.740170141143398963e-01
4.709113190875346272e-02,9.987557792550457725e-01,4.819428163603932669e-01
-2.368577498637007006e-01,-7.509964575682337440e-01,-2.249135803238218601e-01
6.625987637279597831e-01,-3.481319318095229542e-01,-8.083056275395611445e-01
-8.570070575581258954e-01,-6.954712351686418437e-01,2.718020118117371875e-01
4.385610103819788108e-01,8.716991504553178727e-02,-7.947960020309822182e-01
-6.443465194425925802e-01,-2.077930323614256836e-01,9.363409145112538967e-01
-3.173840599371352544e-01,1.913122464015909463e-01,7.522948252718736351e-01
5.673581775241063330e-01,3.449205424791337848e-01,-4.410800439371771464e-01
8.660647135414708542e-01,1.800742496151974681e-01,-6.440810630795803515e-01
6.840591471431870518e-01,1.041336122138970255e-01,-9.381373982801213263e-01
-8.912572030348488994e-01,-3.345265317193934496e-01,6.803141357491474528e-01
3.042526501845115305e-01,-2.158265810099717352e-01,-7.099703912419853546e-01
-1.734998219128831010e-01,8.761233632157947593e-01,7.600054032129743842e-01
-5.394180281079798966e-01,-1.009584727865604492e+00,7.489661046759843455e-02
4.477500612589634943e-01,-4.250504321034269117e-01,-6.578722504883257605e-01
-3.245197641630696572e-01,5.888294609397499713e-01,6.320396004093015163e-01
-8.912873361081742607e-02,-9.938202505599397218e-01,-6.933527502266706444e-01
5.049221012772058259e-01,-3.029117115721495224e-01,-6.482712211821185511e-01
8.262174951674925438e-01,7.970220201069401211e-01,-2.413376979105984754e-01
5.674043346414554545e-01,-2.210845267600899944e-01,-1.037357007029696465e+00
-2.428984988789648636e-01,6.865510129159219099e-01,5.579379054648601066e-01
4.930471334216143808e-02,9.595484062099222111e-01,3.612031847510353000e-01
-7.695296622096126082e-02,5.103548376348726601e-01,6.329212406215523057e-01
-7.664130280143375273e-01,-2.757314862855889670e-01,8.806597751928317841e-01
-4.342839165454945305e-01,2.532529121899430580e-01,6.558345166265213688e-01
-4.902666985330565441e-01,2.070125019706997582e-01,1.039327903793141106e+00
-5.367251751023551787e-01,-9.110665109585321941e-01,2.599936267938726675e-01
-8.149232446247687278e-01,4.641906608730544254e-02,8.002707818718368671e-01
-7.043215229175481262e-01,-8.387263955736640186e-01,-9.771670700142348620e-02
2.516944076262911389e-01,-7.279023191116403835e-01,-9.190489855491530413e-01
1.608698613560059221e-01,-3.109166873757330252e-01,-8.556291560947125729e-01
2.381525452013060484e-01,8.310428944205066060e-01,1.342470731216568458e-01
3.715576097296481861e-01,-1.295164052779080310e-01,-9.589428411963976107e-01
-4.796791438684049752e-02,-8.300992430515731213e-01,-8.307212423869845264e-01
2.816130262222144021e-01,-4.226885656526666035e-01,-1.033845045979466803e+00
5.151231038441352883e-01,9.982521673659809913e-01,3.392943545613821832e-01
-4.058839938396494040e-01,5.409719552583593938e-01,1.007021814558709538e+00
-1.496984656389338808e-01,7.282801341298204001e-01,9.371408684131615763e-01
-3.755990590673198848e-01,4.030777831926549704e-01,6.300140244975752646e-01
5.476715092593614775e-01,-4.885310096480930397e-01,-9.333098803802086785e-01
5.361935178052003037e-01,1.631814038775130371e-01,-5.988458286982253354e-01
-1.976475356238743819e-01,-8.777857876028863915e-01,-7.384127595937047817e-01
3.882065296036046886e-01,-2.446648955754041066e-01,-6.691849433667309555e-01
-8.856698676517127389e-01,-4.971383155287681932e-01,5.560370854202271174e-01
-5.877644374355736057e-01,2.437746739262179607e-02,5.947664387152417076e-01
-5.400968087262610767e-02,7.076406063989159057e-01,9.237475089997568833e-01
5.313407825061270406e-01,9.803212654027816386e-01,-2.047044710336865803e-01
-3.109064945932717983e-01,-1.001417103959931554e+00,-5.798618764256429081e-01
-2.437247265075838110e-01,-8.568562711476458427e-01,-6.887307458025220264e-01
-7.482931525733512723e-01,-1.381117091233897698e-01,5.341583706276964438e-01
-4.177815219952293324e-01,-6.522493147434792193e-02,7.320622531202374272e-01
-4.627488604766167857e-01,-9.981767843735395163e-01,8.395655603529227073e-02
-2.628699887312614392e-01,-7.236761082413210033e-01,-6.683641470567375231e-01
-5.868121506410922672e-01,-9.617981641844919327e-01,-2.831952589290190891e-01
-6.784561854600671404e-01,-6.259925833984547605e-01,6.559911619545543138e-01
-3.965965581953154184e-01,-6.938871074228720737e-01,1.645987368966226119e-02
3.807313403069648716e-01,-2.362766240157254394e-01,-6.669105670029623623e-01
-5.335849197013284861e-01,-1.169283112185683787e-01,6.018721471516578214e-01
8.636906672076549718e-01,5.315546194316606021e-01,-3.038481307453739233e-01
-4.342155465880896958e-01,-6.759296982834096523e-01,-1.219643060189106315e-01
-1.297390245733636149e-01,5.284539236461655021e-01,5.833305029521695939e-01
-7.203418980123232895e-01,1.788179949323024862e-02,9.617972876689261374e-01
-4.776719149968071121e-01,-6.835050352575819943e-01,3.603510966438820962e-01
-7.320063621336625470e-01,-9.080694310018566640e-01,-3.792612865874149530e-02
-6.210914958073134873e-01,3.335891932815814864e-01,7.202955657785067300e-01
1.961769708678605395e-01,6.594455915980899086e-01,6.832500037218335320e-01
-3.671637371432912023e-01,-7.113634031687072756e-01,-8.174544307038721092e-02
-6.993275481590286446e-01,3.064526239761981574e-01,8.443699383670391079e-01
-1.118731070571037933e-01,4.311393411374962459e-01,7.011040354661595142e-01
5.625560601194542487e-01,2.534606438878818646e-01,-5.032419808882604428e-01
-1.050138695637727604e-01,-5.937864560834220651e-01,-5.371374085005350407e-01
4.017707740553188023e-01,-6.092246537771413006e-01,-9.398630263694743858e-01
-2.879541174591310811e-03,-7.814202879473906016e-01,-3.953008806576387424e-01
-4.124200901191462099e-01,-1.033211340079478679e+00,9.201563395959833774e-03
-5.530115745082138101e-01,-1.061572850989354722e+00,-1.167836018232358275e-01
1.729748406447660647e-01,9.966010446091929653e-01,2.398893668774605414e-01
5.901137603442146995e-01,5.921676946134102337e-01,-6.265062372326850593e-01
-8.096996678298071792e-01,-7.543246130588355802e-01,9.525777727848769305e-02
4.858136115402520439e-01,1.069609533231879572e+00,1.609538080152093931e-01
8.183019518780194623e-01,5.139743877259942556e-02,-6.315009938682585311e-01
7.095539929827252568e-01,-2.212784665739719880e-01,-9.120556132304239449e-01
5.498313751162375862e-01,8.419718136627815097e-01,-3.979069491438948503e-01
-5.848643725594852016e-01,-5.093044596230905663e-01,2.354450933048651828e-01
-2.889530333414382091e-02,8.368854970789506575e-01,4.055911163471177527e-01
-5.744170336317961922e-01,-4.414348252992830179e-01,7.413502729473075981e-01
-4.726184262547395432e-01,-9.008467043132333263e-01,2.387449525502919057e-01
4.050015917435348944e-01,1.088688880884871590e+00,1.960285183367236894e-01
1.012810294039066250e-01,-8.905043164004331491e-01,-5.339137411593415372e-01
5.951350060332302183e-01,6.338685793299264626e-01,-1.547947904765328885e-03
-6.581274105617389569e-01,-8.976136303467856237e-02,9.590178189710807377e-01
4.991569139684057244e-01,8.058020273593513583e-01,-3.283132036093538431e-01
8.609292153931927816e-01,6.914565374508182538e-01,-3.211551496339098977e-01
4.477457567031584151e-01,9.258757629340463868e-01,4.857150796768192613e-01
-5.900597055954307502e-01,-6.790544110060622307e-01,-9.262871724865616441e-02
-2.751391961244187279e-01,-8.641093017981512636e-01,-6.724387344113523790e-01
-7.229036527462899819e-01,-7.940705182410119356e-01,-7.501002569476189485e-02
-3.597037338184266853e-02,7.919911413314035808e-01,4.330821715190896204e-01
-2.819665591533594973e-01,-9.115906719360699073e-01,-2.329624070363600641e-02
7.552003863645250226e-01,6.676894254766815306e-01,-4.538140116249424205e-02
7.964406204707760173e-01,8.059296080076117086e-01,-4.157961064421467623e-01
-6.066051424614670173e-01,-5.977350261597473846e-01,6.799354255283656112e-01
7.956417570184576293e-01,4.084104740119927079e-01,-3.379001984597611585e-01
-8.571547849731920854e-01,-4.435472961933379921e-01,7.243747894427028378e-01
-7.205200555981715604e-01,-6.197594232392296121e-01,6.399296026198908471e-01
-5.546281241650351523e-01,-3.682221907657218241e-01,4.398068910893084271e-01
-5.949527969771518654e-01,-1.092404810295516115e-01,9.808200878335980866e-01
-5.935502040916423860e-01,-6.858296947570667879e-01,5.546248982553833029e-01
6.157518911216310897e-01,1.003909739161061188e+00,-6.995679237899268821e-02
8.056026141163528109e-01,3.096178130353515745e-01,-8.274417419107416016e-01
-1.031799636091646488e-01,8.303510938384564000e-01,8.850126309779505762e-01
8.643578834420146961e-01,6.760091686397476929e-01,-2.362290919656688248e-01
5.068030656184013827e-01,5.511380684999483970e-01,-3.583638546442360351e-01
1.202422645797325829e-01,9.661636974907574782e-01,2.967270414005587220e-01
4.193415250752454138e-01,-5.825942094557868406e-02,-9.499180946946779169e-01
-1.527579452731755993e-01,-8.619060195314319772e-01,-7.883302679872719043e-01
7.761172020326841947e-01,8.751954984519865199e-01,-1.927293965431965683e-01
9.437077055653197988e-02,8.369107268405489020e-01,3.090097752463558112e-01
4.012277709803198089e-01,-5.790390983631459321e-01,-6.582218899109604227e-01
